9.672034610688765355e+00 2.786885842215853870e+01 6.909070067983698493e+01
9.287191628926862563e+00 2.788382325618114521e+01 6.894954757706334192e+01
8.492819286487646835e+00 2.808448131614342103e+01 6.993140571392488880e+01
8.629347148562088066e+00 2.802346929655299945e+01 6.955690311186600638e+01
8.765868547184052062e+00 2.796049740920208393e+01 6.918273194423298378e+01
8.902383384788416620e+00 2.789558629494752395e+01 6.880888905394911603e+01
9.038891569290838035e+00 2.782875659179402916e+01 6.843537127627396899e+01
7.971386384429866467e+00 2.814911926792388996e+01 7.016658500544910737e+01
8.107923743308166564e+00 2.809081650925276463e+01 6.979163236506990131e+01
8.244454847831946154e+00 2.803053317314088844e+01 6.941701427157281046e+01
8.380979592313673621e+00 2.796828990174014606e+01 6.904272757758792523e+01
8.517497875948171426e+00 2.790410733475121319e+01 6.866876912786234755e+01
8.654009603423510555e+00 2.783800610951066190e+01 6.829513575936839231e+01
8.790514684430494441e+00 2.777000686058787693e+01 6.792182430141150462e+01
8.927013033566954192e+00 2.770013021979260515e+01 6.754883157614091260e+01
9.200109496915803931e+00 2.755480833016185827e+01 6.680373767025587028e+01
9.336586729713207689e+00 2.747942277076704443e+01 6.643168230848415590e+01
7.449646010385359673e+00 2.820700157053613211e+01 7.040282176625119348e+01
7.586191875826134634e+00 2.815142974603976711e+01 7.002741566975569754e+01
7.722731723555626537e+00 2.809385663278097667e+01 6.965234721454942246e+01
7.859265439033517708e+00 2.803430287367215001e+01 6.927761326345454052e+01
7.995792912786012785e+00 2.797278910929995988e+01 6.890321067110504316e+01
8.132314040925933796e+00 2.790933597839952895e+01 6.852913628394561840e+01
8.268828724567715227e+00 2.784396411703951912e+01 6.815538694103740625e+01
8.405336870239386471e+00 2.777669415901698713e+01 6.778195947336277527e+01
8.541838388990459663e+00 2.770754673516334066e+01 6.740885070503740906e+01
8.678333197297103396e+00 2.763654247336001291e+01 6.703605745262147764e+01
8.814821216262545889e+00 2.756370199856479886e+01 6.666357652593440264e+01
8.951422562035757480e+00 2.748902655454659083e+01 6.629134921313728057e+01
6.927144396660149361e+00 2.825803404333125002e+01 7.063992220223235563e+01
7.063696470623182400e+00 2.820521549220082491e+01 7.026405871966713335e+01
7.200242810023480544e+00 2.815037494733958923e+01 6.988853595387449502e+01
7.336783290963238002e+00 2.809353305115230270e+01 6.951335077814385954e+01
7.473317794970515848e+00 2.803471044466999018e+01 6.913850005708546576e+01
7.609846208928757960e+00 2.797392776671240711e+01 6.876398064742323868e+01
7.746368424902211558e+00 2.791120565456043678e+01 6.838978939769006615e+01
7.882884340353043306e+00 2.784656474293968742e+01 6.801592314873171574e+01
8.019393857759782307e+00 2.778002566411331031e+01 6.764237873370882426e+01
8.155896884527312096e+00 2.771160904788603219e+01 6.726915297850641196e+01
8.292393333195665406e+00 2.764133552091775314e+01 6.689624270174277854e+01
8.428883120946162322e+00 2.756922570704758968e+01 6.652364471518268374e+01
8.565366169802477003e+00 2.749530022692791675e+01 6.615135582385110524e+01
8.701692029773402837e+00 2.741963162536238485e+01 6.577960162164526992e+01
8.974390480898239986e+00 2.726297283707830843e+01 6.503688452420021804e+01
6.404892830331613496e+00 2.830207490032909945e+01 7.087771325052217719e+01
6.541143780082382619e+00 2.825208732091388342e+01 7.050180160499735393e+01
6.677695904924160430e+00 2.820000023872275108e+01 7.012582158411152022e+01
6.814242462045926985e+00 2.814589110545764328e+01 6.975018222445609695e+01
6.950783323660359336e+00 2.808978056170501247e+01 6.937488040138204326e+01
7.087318367687299059e+00 2.803168924639349768e+01 6.899991298156740527e+01
7.223847476987419469e+00 2.797163779675534201e+01 6.862527682360878600e+01
7.360370539990253036e+00 2.790964684829737408e+01 6.825096877791311556e+01
7.496887450219079874e+00 2.784573703408285894e+01 6.787698568739874361e+01
7.633398106309541298e+00 2.777992898502263941e+01 6.750332438729395790e+01
7.769902411826738131e+00 2.771224332957741510e+01 6.712998170524571151e+01
7.906400275376936904e+00 2.764270069326952139e+01 6.675695446192665372e+01
8.042891610516383238e+00 2.757132169870437011e+01 6.638423947114270618e+01
8.179376335257446229e+00 2.749812696540289636e+01 6.601183353964880496e+01
8.315723829366186592e+00 2.742319285325590528e+01 6.563999702017902393e+01
5.882782216168410905e+00 2.833911261575408247e+01 7.111662056847399072e+01
6.019004470072559343e+00 2.829191142617816368e+01 7.074023560422310197e+01
6.155220698144005631e+00 2.824264662536452164e+01 7.036415518184466578e+01
6.291644997778195858e+00 2.819130072735568504e+01 6.998811915956910923e+01
6.428191504391636002e+00 2.813792313254739241e+01 6.961236328672342211e+01
6.564732482368430766e+00 2.808254407149263443e+01 6.923694489456832457e+01
6.701267805748620354e+00 2.802518418119554511e+01 6.886186085192839812e+01
6.837797353594266880e+00 2.796586409707868626e+01 6.848710801935193615e+01
6.974321010423659928e+00 2.790460445265328104e+01 6.811268324930399842e+01
7.110838666136600317e+00 2.784142587939901148e+01 6.773858338645923993e+01
7.247350215341564095e+00 2.777634900685429997e+01 6.736480526810363756e+01
7.383855557874031028e+00 2.770939446161633057e+01 6.699134572393627707e+01
7.520354598612302155e+00 2.764058286805129327e+01 6.661820157647592566e+01
7.656867005367832490e+00 2.756994076134178684e+01 6.624540988287186849e+01
7.793353026324953525e+00 2.749747696981429712e+01 6.587288664170556274e+01
7.929684692967449600e+00 2.742326602409569958e+01 6.550088898768338197e+01
5.496683185505617963e+00 2.832468596824594442e+01 7.097982087966531140e+01
5.633037294553647989e+00 2.827820465754788515e+01 7.060324837637836026e+01
5.769286297955143361e+00 2.822967460117340011e+01 7.022710071826831779e+01
5.905837516954409949e+00 2.817904954065726031e+01 6.985088817082545631e+01
6.042285556608343988e+00 2.812641376507934865e+01 6.947508996601199271e+01
6.178698660774459839e+00 2.807177631638504423e+01 6.909961586021893254e+01
6.315234069696423980e+00 2.801514801969842949e+01 6.872441534902910121e+01
6.451763864426904860e+00 2.795655947111227846e+01 6.834954599199495817e+01
6.588287925522490873e+00 2.789603130231403227e+01 6.797500464368818029e+01
6.724806139109715808e+00 2.783358414287370053e+01 6.760078815059544866e+01
6.861337877559828158e+00 2.776924449811212625e+01 6.722693362080622137e+01
6.997843927893056204e+00 2.770302128279239184e+01 6.685335702727068963e+01
7.134343818669201198e+00 2.763494094931943934e+01 6.648009578344183979e+01
7.270837455629055590e+00 2.756502411761438509e+01 6.610714670705775120e+01
7.407324749385479912e+00 2.749329140512381286e+01 6.573450660918146582e+01
7.543660091402494494e+00 2.741980966060035030e+01 6.536238854867394821e+01
5.110793101231487334e+00 2.830667140263998149e+01 7.084361065870452023e+01
5.246956018654192810e+00 2.826092241025866159e+01 7.046694912317182968e+01
5.383336108346335358e+00 2.821311266271379381e+01 7.009061089200935157e+01
5.519886352934014973e+00 2.816321877921746264e+01 6.971428235134521856e+01
5.656302639321435066e+00 2.811131169879910630e+01 6.933835497515518398e+01
5.792842904569734053e+00 2.805739474807810296e+01 6.896270408335088575e+01
5.929377833113518292e+00 2.800149687458360148e+01 6.858738743567002416e+01
6.065614774853956170e+00 2.794365386764133774e+01 6.821247514073799323e+01
6.202159081894333070e+00 2.788386340188288059e+01 6.783785894414431539e+01
6.338677363885842908e+00 2.782214780825918155e+01 6.746352551152305921e+01
6.475189844325210942e+00 2.775853379009789990e+01 6.708951372124917611e+01
6.611696415560087914e+00 2.769304197103629406e+01 6.671582040726231355e+01
6.748196974675637172e+00 2.762569297230025001e+01 6.634244239621240524e+01
6.884691423815363365e+00 2.755650741242062196e+01 6.596937650766260219e+01
7.021179669698264014e+00 2.748550590735910504e+01 6.559661955449469417e+01
7.157517926229351346e+00 2.741275326597257589e+01 6.522437953644943320e+01
7.293827076415761113e+00 2.733821972326959937e+01 6.485239080249847632e+01
4.724602371529678102e+00 2.828500295807191378e+01 7.070792498141881310e+01
4.860945828714073436e+00 2.823998112127519988e+01 7.033111371350351249e+01
4.997316808128845267e+00 2.819290246473354600e+01 6.995466704466304009e+01
5.133866130907779102e+00 2.814373984536964457e+01 6.957822240083895338e+01
5.270238807668635062e+00 2.809255624542621987e+01 6.920213264985373769e+01
5.406648674106511621e+00 2.803937906814848802e+01 6.882642666603614146e+01
5.543203036635691916e+00 2.798421925013008860e+01 6.845103610791797166e+01
5.679731986316993719e+00 2.792709287330369605e+01 6.807593381645365582e+01
5.816127153446653431e+00 2.786803737083082311e+01 6.770122023753842200e+01
5.952479327706475587e+00 2.780705688704264844e+01 6.732678401216601571e+01
6.088991895795230036e+00 2.774417445619788580e+01 6.695265563187724922e+01
6.225498709520222995e+00 2.767941416807689237e+01 6.657884567647745655e+01
6.361999662395534827e+00 2.761279664198467998e+01 6.620535097473292296e+01
6.498494652588390430e+00 2.754434249503887244e+01 6.583216834792020222e+01
6.634983583141028873e+00 2.747407234149448385e+01 6.545929461093224688e+01
6.771324522581569028e+00 2.740204895719056211e+01 6.508693268632154627e+01
6.907636859245378957e+00 2.732824406661216798e+01 6.471482092319348567e+01
4.338365481641405452e+00 2.825962981518278383e+01 7.057280907605671416e+01
4.474709836902064808e+00 2.821533775962745594e+01 7.019587538809346938e+01
4.611081407164714818e+00 2.816898926093918121e+01 6.981930738975819395e+01
4.747629371503816031e+00 2.812055863470261841e+01 6.944274665195804630e+01
4.884192885101439785e+00 2.807011217617225896e+01 6.906656959633781412e+01
5.020731123370806515e+00 2.801765773165531925e+01 6.869068617448610325e+01
5.157090309310764731e+00 2.796322327602837632e+01 6.831515176010546497e+01
5.293489042380267406e+00 2.790683702517014808e+01 6.793999481689344577e+01
5.430012064984739872e+00 2.784850272903332424e+01 6.756510403233038176e+01
5.566529710746404014e+00 2.778824929399706534e+01 6.719053794658530876e+01
5.702913283803757949e+00 2.772610816087468066e+01 6.681635422815465120e+01
5.839251700287594993e+00 2.766208273790392624e+01 6.644244173906203343e+01
5.975752760006612263e+00 2.759619681650814726e+01 6.606883042793896266e+01
6.112248007897990831e+00 2.752847421773874004e+01 6.569553114189119469e+01
6.248737343450685877e+00 2.745893555432063593e+01 6.532254069741220803e+01
6.385098930663631656e+00 2.738764989884904111e+01 6.495010411832122088e+01
6.521412636101095117e+00 2.731457554459550607e+01 6.457787785783453671e+01
3.952083518297258014e+00 2.823049692185513848e+01 7.043827180382207587e+01
4.088428485565043680e+00 2.818693474365356622e+01 7.006121578247631021e+01
4.224821284280466216e+00 2.814132316077005669e+01 6.968457125114683492e+01
4.361367423004515409e+00 2.809362468958685355e+01 6.930789421743887146e+01
4.497909028410149723e+00 2.804390392572078738e+01 6.893155748654798742e+01
4.634445951610938863e+00 2.799218149569287561e+01 6.855555794379817769e+01
4.770978049235245599e+00 2.793847802492549093e+01 6.817989246664184577e+01
4.907505182985412162e+00 2.788281413810010889e+01 6.780455792433150464e+01
5.044027219693386854e+00 2.782521045842446128e+01 6.742955117809850663e+01
5.180238120509577548e+00 2.776569807788848010e+01 6.705494561064058701e+01
5.316749786119709498e+00 2.770427794078842965e+01 6.668058464801551111e+01
5.453256001811336517e+00 2.764097985730034779e+01 6.630654200967725842e+01
5.589647456639930567e+00 2.757584273310272138e+01 6.593291719033408071e+01
5.726142617522954836e+00 2.750885124549679261e+01 6.555950107825481155e+01
5.862461141108325613e+00 2.744004771012925659e+01 6.518640768535311736e+01
5.998805972008380394e+00 2.736948467563742327e+01 6.481380915874579784e+01
6.135122317606009901e+00 2.729713927454838895e+01 6.444146000528371587e+01
3.702124244290171617e+00 2.815472531230739506e+01 6.992719929000067225e+01
3.838496099092201241e+00 2.810983618187080779e+01 6.955037886485915521e+01
3.975040216594273979e+00 2.806286987382825515e+01 6.917358596014749139e+01
4.111579989924345035e+00 2.801388124523120027e+01 6.879713328702302988e+01
4.248115266961018044e+00 2.796289091954772843e+01 6.842101773263985365e+01
4.384645900749088554e+00 2.790991951965995810e+01 6.804523617630995602e+01
4.521171749466564194e+00 2.785498766742174936e+01 6.766978548886997658e+01
4.657692676282951361e+00 2.779811598372535286e+01 6.729466253345485427e+01
4.794230270639586955e+00 2.773933282348338025e+01 6.691990886793921334e+01
4.930611141453035806e+00 2.767865216760166547e+01 6.654549336522077851e+01
5.067116686507585399e+00 2.761608537556450926e+01 6.617133412824728111e+01
5.203436723246091411e+00 2.755166257670685326e+01 6.579750442094034213e+01
5.339931238167308969e+00 2.748540226702687050e+01 6.542397209188277429e+01
5.476290814642007732e+00 2.741733690168323889e+01 6.505080900711908498e+01
5.612646448453739723e+00 2.734750060276180150e+01 6.467807602861762462e+01
5.748783270869286532e+00 2.727588977855497987e+01 6.430563120162435098e+01
3.315837505670597096e+00 2.811865273151842715e+01 6.979380045130704957e+01
3.452208820682680201e+00 2.807449380497048708e+01 6.941685731680797744e+01
3.588750669524524817e+00 2.802825978875616642e+01 6.903994874785668401e+01
3.725288364148939380e+00 2.798000342657880424e+01 6.866338033470822211e+01
3.861821748907767748e+00 2.792974533872682485e+01 6.828714896638338416e+01
3.998374636882918498e+00 2.787751450645232865e+01 6.791130012932900684e+01
4.134898800949064146e+00 2.782331488903790984e+01 6.753573315926028897e+01
4.271418219736403898e+00 2.776717539959745551e+01 6.716049385109886316e+01
4.407932758047806487e+00 2.770911665503563270e+01 6.678557906204149219e+01
4.544442285550648997e+00 2.764915927077026936e+01 6.641098564205981347e+01
4.680946677026406988e+00 2.758732386032559347e+01 6.603671043348552416e+01
4.817315993911754468e+00 2.752363997402121498e+01 6.566281187872634462e+01
4.953810064093882026e+00 2.745811096504355220e+01 6.528916333524877302e+01
5.090113161089531602e+00 2.739076642074598666e+01 6.491583668139868735e+01
5.226337415559118682e+00 2.732167172580754055e+01 6.454305204882494706e+01
5.362668350408012152e+00 2.725078304890318392e+01 6.417045167863385302e+01
2.929429081210059405e+00 2.807864217019410447e+01 6.966093241631847377e+01
3.065799815526109029e+00 2.803521372590499183e+01 6.928386826167493950e+01
3.202363768426311985e+00 2.798972061354924534e+01 6.890689441859076680e+01
3.338898781743441901e+00 2.794219660476744593e+01 6.853020998181500545e+01
3.475429676676223156e+00 2.789267084573121736e+01 6.815386251325622879e+01
3.611956299552702809e+00 2.784116395339345473e+01 6.777784889571972826e+01
3.748478501736351998e+00 2.778769654410451295e+01 6.740216600389332768e+01
3.884996139595384701e+00 2.773228923307868854e+01 6.702681070451194500e+01
4.021509074367066283e+00 2.767496263466974682e+01 6.665177985673032879e+01
4.158017172416460738e+00 2.761573736175504479e+01 6.627707031210030664e+01
4.294520304890184548e+00 2.755463402552808816e+01 6.590267891485071061e+01
4.431018347666533685e+00 2.749167323550012298e+01 6.552860250227251981e+01
4.567511181499517292e+00 2.742687559911009032e+01 6.515483790450575441e+01
4.703868743751045578e+00 2.736027080325825622e+01 6.478144363628251767e+01
4.840228686032823191e+00 2.729189362979803590e+01 6.440846941618239896e+01
2.543004646000741165e+00 2.803466100378152248e+01 6.952873190844219664e+01
2.679375564332459714e+00 2.799196305131106044e+01 6.915154507802158435e+01
2.815911452093061929e+00 2.794719375901195235e+01 6.877440506755372951e+01
2.952443576798661429e+00 2.790040208639318209e+01 6.839760505597595852e+01
3.088971776436705508e+00 2.785160864776105072e+01 6.802114193566548295e+01
3.225495894294249322e+00 2.780083405686831455e+01 6.764501259085641038e+01
3.362015778339288108e+00 2.774809892717359361e+01 6.726921389809855611e+01
3.498531281495029344e+00 2.769342387110848946e+01 6.689374272561975943e+01
3.635042261807639896e+00 2.763682950015336814e+01 6.651859593439574780e+01
3.771548582111045711e+00 2.757833642442143329e+01 6.614377037772301549e+01
3.908050109985153231e+00 2.751796525265143956e+01 6.576926290169727451e+01
4.044546717908526823e+00 2.745573659190851856e+01 6.539507034529385976e+01
4.181038283209375095e+00 2.739167104739404124e+01 6.502118954035309173e+01
2.292887190291138300e+00 2.794466931079466576e+01 6.901979459442694065e+01
2.429419618318388707e+00 2.790063240709696757e+01 6.864253922477519154e+01
2.565948481991044083e+00 2.785457311603320107e+01 6.826562377283583771e+01
2.702473616113731048e+00 2.780651204848770064e+01 6.788904513262286855e+01
2.838994860726903546e+00 2.775646981519686207e+01 6.751280018984709841e+01
2.975512060793112923e+00 2.770446702630990288e+01 6.713688582247422687e+01
3.112025065875436258e+00 2.765052429135625900e+01 6.676129890078125584e+01
3.248533730611986137e+00 2.759466221902209782e+01 6.638603628712382942e+01
3.385037914582922358e+00 2.753690141653466839e+01 6.601109483670687439e+01
3.521537482074358572e+00 2.747726248985472353e+01 6.563647139715745027e+01
3.658032302036597017e+00 2.741576604367775971e+01 6.526216280930482583e+01
2.453431594684913453e+00 2.770813886733700215e+01 6.738152920543885216e+01
2.589948156279695990e+00 2.765686678766498474e+01 6.700550016996749036e+01
2.726460671670300151e+00 2.760365473625583022e+01 6.662979851317524549e+01
2.862968992559855153e+00 2.754852331924201181e+01 6.625442109917101163e+01
2.999472975760132165e+00 2.749149314159025792e+01 6.587936478453603684e+01
3.135972482658723415e+00 2.743258480709416958e+01 6.550462641859581936e+01
2.068214631389192260e+00 2.765572340565007181e+01 6.725096144079914495e+01
2.204731214905946146e+00 2.760518121245251777e+01 6.687481810564013074e+01
2.477752492993422706e+00 2.749829744270632759e+01 6.612351025247087932e+01
2.614256891211874656e+00 2.744199707301296343e+01 6.574833945816811820e+01
1.956093803503156092e+00 2.749757498705555037e+01 6.636884030410246282e+01
