8.695584197717311170e+00 2.901161730743549327e+01 6.941842509228102642e+01
8.835421697144180797e+00 2.894785853570729373e+01 6.904032279706542852e+01
8.975232402509458751e+00 2.888214240656633081e+01 6.866260146307190837e+01
8.025056459504529727e+00 2.913905796573361684e+01 7.003566175457186205e+01
8.164959033078586614e+00 2.908002454138467741e+01 6.965667146374467222e+01
8.304835805411814320e+00 2.901899058449311042e+01 6.927806792975481187e+01
8.444686446347857256e+00 2.895597756659050503e+01 6.889984821080771837e+01
8.584510643818596520e+00 2.889100695112924910e+01 6.852200933726821575e+01
8.724308104232283867e+00 2.882410019303731730e+01 6.814454831228940179e+01
8.864078551756730207e+00 2.875527873780756494e+01 6.776746211244024209e+01
9.003821727984343326e+00 2.868456402102412284e+01 6.739074768874323240e+01
7.493303221598758945e+00 2.919789390637646775e+01 7.027543877412919926e+01
7.633240950891472920e+00 2.914163208588919218e+01 6.989594053639495996e+01
7.773153666694692987e+00 2.908334801898341837e+01 6.951683181217296692e+01
7.913041008117311037e+00 2.902306317960252358e+01 6.913810969509090398e+01
8.052902632751044010e+00 2.896079903454986493e+01 6.875977125011766589e+01
8.192738216990770539e+00 2.889657704339835220e+01 6.838181351405964392e+01
8.332547455237003575e+00 2.883041865713831342e+01 6.800423349688090013e+01
8.472330060087852388e+00 2.876234531805945949e+01 6.762702818151970519e+01
8.612085761216610180e+00 2.869237845857169589e+01 6.725019452563095967e+01
8.751814306039863212e+00 2.862053950076004227e+01 6.687372946142514252e+01
8.891515458668910910e+00 2.854684985597679514e+01 6.649762989702041693e+01
9.031609666375151946e+00 2.847126310191307041e+01 6.612169841498047163e+01
6.958872158060521507e+00 2.924976036565936610e+01 7.051553469981323019e+01
7.098837039931138015e+00 2.919629756070288451e+01 7.013552283408498056e+01
7.238777859082182964e+00 2.914079081718856301e+01 6.975590317231072390e+01
7.378694222121333191e+00 2.908326160803305882e+01 6.937667284450351701e+01
7.518585754646806230e+00 2.902373140084496228e+01 6.899782895104912939e+01
7.658452101000652767e+00 2.896222165649342273e+01 6.861936856398133955e+01
7.798292923907739649e+00 2.889875382921152536e+01 6.824128872716524086e+01
7.938107904485653954e+00 2.883334936503889878e+01 6.786358645731100125e+01
8.077896741659237989e+00 2.876602970139658666e+01 6.748625874448090656e+01
8.217659151845589705e+00 2.869681626660110751e+01 6.710930255302243097e+01
8.357394868934825638e+00 2.862573047871213205e+01 6.673271482209972305e+01
8.497103643561569442e+00 2.855279374541656878e+01 6.635649246663938072e+01
8.636785243058671568e+00 2.847802746324770951e+01 6.598063237797886416e+01
8.775913132456906851e+00 2.840163476326834768e+01 6.560593220850844887e+01
6.425302626910648129e+00 2.929434601415184858e+01 7.075531440707761988e+01
6.564219037288337333e+00 2.924390339294859231e+01 7.037622926824073488e+01
6.704185528234562597e+00 2.919119632727963065e+01 6.999609643664035730e+01
6.844128540410745920e+00 2.913644512260174935e+01 6.961635561484632717e+01
6.984047667061256348e+00 2.907967124496754607e+01 6.923700393983715173e+01
7.123942520655545785e+00 2.902089615512724308e+01 6.885803851898590722e+01
7.263812731955966662e+00 2.896014130789369645e+01 6.847945643113077097e+01
7.403657950465886373e+00 2.889742815154081512e+01 6.810125472694592474e+01
7.543477843766781987e+00 2.883277812653999916e+01 6.772343043014559782e+01
7.683272097333392558e+00 2.876621266532923116e+01 6.734598053777885696e+01
7.823040414143583199e+00 2.869775319152095250e+01 6.696890202085998567e+01
7.962782514569278547e+00 2.862742111894331742e+01 6.659219182549330185e+01
8.102498136057336708e+00 2.855523785121529201e+01 6.621584687349945852e+01
8.242187032401060875e+00 2.848122478116012957e+01 6.583986406277081471e+01
8.381392072281656169e+00 2.840559839214566296e+01 6.546516270137657045e+01
5.892212648089437899e+00 2.933179543238928488e+01 7.099623829190892366e+01
6.031034126253955741e+00 2.928416618287357664e+01 7.061659990878085580e+01
6.169830441754020178e+00 2.923444888502583083e+01 7.023721096920631624e+01
6.309350975723686084e+00 2.918253156199489950e+01 6.985716905149186573e+01
6.449295242370724601e+00 2.912853633991587543e+01 6.947730735153199078e+01
6.589216207289506855e+00 2.907251824997421963e+01 6.909783460323910731e+01
6.729113469620171095e+00 2.901449874593441081e+01 6.871874792099934837e+01
6.868986646829935871e+00 2.895449927602539830e+01 6.834004439048177915e+01
7.008835374982809618e+00 2.889254128203648619e+01 6.796172106931398105e+01
7.148659308478102936e+00 2.882864619864653832e+01 6.758377498785733906e+01
7.288458119195475149e+00 2.876283545299004629e+01 6.720620315011272794e+01
7.428231496809106993e+00 2.869513046315715599e+01 6.682900253402695512e+01
7.567979148393057187e+00 2.862555263842952513e+01 6.645217009241571304e+01
7.707769951537415842e+00 2.855414407644624930e+01 6.607584359905150961e+01
7.847464815637338553e+00 2.848088490060004219e+01 6.569973712271949751e+01
7.986615890636073800e+00 2.840598519233494201e+01 6.532475870889184932e+01
5.497198418019662469e+00 2.931726441261080396e+01 7.085821591957858345e+01
5.636482820437770158e+00 2.927035033716760637e+01 7.047820806782424086e+01
5.775395280593002667e+00 2.922140024285689464e+01 7.009887072193910740e+01
5.915361463340435222e+00 2.917020144955041161e+01 6.971849788438912299e+01
6.054962526629203978e+00 2.911699819277772505e+01 6.933877494104197581e+01
6.194437364210608976e+00 2.906177134409765728e+01 6.895939411326628488e+01
6.334336357437483578e+00 2.900450801594450212e+01 6.858018670960187535e+01
6.474211829744167090e+00 2.894526451864296845e+01 6.820136226198236784e+01
6.614063403828718712e+00 2.888406228734910641e+01 6.782291783515861994e+01
6.753890720884005106e+00 2.882092275030795392e+01 6.744485046633406000e+01
6.893761625209399391e+00 2.875588790039243747e+01 6.706729810682175241e+01
7.033538911125696735e+00 2.868893816327337731e+01 6.668997473644739671e+01
7.173290968842205295e+00 2.862011534686804382e+01 6.631301937604645502e+01
7.313017508951695334e+00 2.854944084565035212e+01 6.593642896145213683e+01
7.452718258849179378e+00 2.847693604443334792e+01 6.556020040488516543e+01
7.591883628908728809e+00 2.840278413835122961e+01 6.518508748685883347e+01
5.102908441810206419e+00 2.929907534123993784e+01 7.072084154696584335e+01
5.241525104539676683e+00 2.925291997815531175e+01 7.034080900085142218e+01
5.380897797962172824e+00 2.920468656274827168e+01 6.996109156753271918e+01
5.520862001269053465e+00 2.915424248701112475e+01 6.958059967220826536e+01
5.660353359375023707e+00 2.910178526154687617e+01 6.920071154754313625e+01
5.800274691744069067e+00 2.904727575402336015e+01 6.882099888722807179e+01
5.940173434647313400e+00 2.899076450504260194e+01 6.844167192409506129e+01
6.079025352738845811e+00 2.893232600174468061e+01 6.806298411208295818e+01
6.218949218630167586e+00 2.887190132934008346e+01 6.768456463500510267e+01
6.358778206350450546e+00 2.880951787065713177e+01 6.730637489583072863e+01
6.498583138638240442e+00 2.874521831184265253e+01 6.692855904337208983e+01
6.638363678710306637e+00 2.867902405987702608e+01 6.655111406991812828e+01
6.778119506864729082e+00 2.861095651330087364e+01 6.617403694249340163e+01
6.917850320603770697e+00 2.854103706147217778e+01 6.579732460356912327e+01
7.057555833943924384e+00 2.846928708425687304e+01 6.542097397198145359e+01
7.196732836052727400e+00 2.839588263765400811e+01 6.504572112107301507e+01
7.335804456955163033e+00 2.832066876769359354e+01 6.467064434549469354e+01
4.707559041853871307e+00 2.927713150075170034e+01 7.058386660921586042e+01
4.846809024749257233e+00 2.923171678046320920e+01 7.020359691826229209e+01
4.986151263200959249e+00 2.918423778181740857e+01 6.982378687157063268e+01
5.126113671427225960e+00 2.913454872854375921e+01 6.944317553343631744e+01
5.265453826840222895e+00 2.908281928299177466e+01 6.906300601548807094e+01
5.404920194622791385e+00 2.902909458051970759e+01 6.868338745137648971e+01
5.544888387474919966e+00 2.897336212395530097e+01 6.830408872021291700e+01
5.684763764359477278e+00 2.891562742406292585e+01 6.792502283883780478e+01
5.824167071563286946e+00 2.885597072115788819e+01 6.754654944188449406e+01
5.963416113472666424e+00 2.879435574514927154e+01 6.716828684658105431e+01
6.103222783533305495e+00 2.873081234019259611e+01 6.679034984732035696e+01
6.243005603570781936e+00 2.866537404451911542e+01 6.641278354742107126e+01
6.382764240884371887e+00 2.859806225044637529e+01 6.603558492081523923e+01
6.522498379559365844e+00 2.852889834188604468e+01 6.565875091647069439e+01
6.662207720493602991e+00 2.845790369323069413e+01 6.528227846001287560e+01
6.801395543535494248e+00 2.838524724441697700e+01 6.490688585437541747e+01
6.940479748358824530e+00 2.831077925539258189e+01 6.453166539517721390e+01
4.312040809994919677e+00 2.925138916913973830e+01 7.044742807469852153e+01
4.451295367157228178e+00 2.920672428119609521e+01 7.006701683207717224e+01
4.590641104826501007e+00 2.915999643328713375e+01 6.968706905040367872e+01
4.730600189513356923e+00 2.911106495420915863e+01 6.930633830185314537e+01
4.870609704855037414e+00 2.906011110160290656e+01 6.892615013593234607e+01
5.010526805297823572e+00 2.900711156204361529e+01 6.854619745720133039e+01
5.149813311087677370e+00 2.895211347184931938e+01 6.816668214736911580e+01
5.289234361080936253e+00 2.889516481084552524e+01 6.778771190337701569e+01
5.429086593446588616e+00 2.883622792861662987e+01 6.740890520515634421e+01
5.568916216612413095e+00 2.877535322123971895e+01 6.703047501704860167e+01
5.708272835313152882e+00 2.871259995631138295e+01 6.665263125254131182e+01
5.847467696006582116e+00 2.864792928691373319e+01 6.627499300296707929e+01
5.987228138273141376e+00 2.858137370727851589e+01 6.589767316228636673e+01
6.126964610142967338e+00 2.851296581558558429e+01 6.552071776886918997e+01
6.266676799577401091e+00 2.844272698062222560e+01 6.514412375469274252e+01
6.405938320822710530e+00 2.837084818072164438e+01 6.476875677662424380e+01
6.545028747603833352e+00 2.829713266683426198e+01 6.439342249517089556e+01
3.916357443290403584e+00 2.922178980949298932e+01 7.031153562712727023e+01
4.055615573727652468e+00 2.917787509028747550e+01 6.993098313591708859e+01
4.195037041981632520e+00 2.913192204594520263e+01 6.955105440726394761e+01
4.334991168265802663e+00 2.908374870755399044e+01 6.917020354153606831e+01
4.474925435935523055e+00 2.903353038452275214e+01 6.878974343041799955e+01
4.614839364638283925e+00 2.898128849367505921e+01 6.840967124704361879e+01
4.754732492573359615e+00 2.892704444873922043e+01 6.802998413599648586e+01
4.894604375948943265e+00 2.887081966010037704e+01 6.765067921341025681e+01
5.034454588926853269e+00 2.881263553348560791e+01 6.727175356759474312e+01
5.173212035783519624e+00 2.875255011510968117e+01 6.689347211199208232e+01
5.313018409418984511e+00 2.869051593425950486e+01 6.651529491130428084e+01
5.452801998339676715e+00 2.862658655130122298e+01 6.613748805787041363e+01
5.592180254739755441e+00 2.856084735985952250e+01 6.576040785666926070e+01
5.731917853080344294e+00 2.849319395548877765e+01 6.538333049064186753e+01
5.871033631629140714e+00 2.842372366670239714e+01 6.500666307523592025e+01
6.010237937279331533e+00 2.835256963848098621e+01 6.463101619936028897e+01
6.149339035621036231e+00 2.827960105866935336e+01 6.425553871099302228e+01
3.659848181515600096e+00 2.914513968957588474e+01 6.979569987625237104e+01
3.799197777072704785e+00 2.909991082679782792e+01 6.941544243775703649e+01
3.939146260079958939e+00 2.905249565764888331e+01 6.903447294176619664e+01
4.079075546735207780e+00 2.900303540605920816e+01 6.865389395133060191e+01
4.218985144863562908e+00 2.895155147866704937e+01 6.827370264573950465e+01
4.358874580371809415e+00 2.889806527980984896e+01 6.789389617583485403e+01
4.498743397132974664e+00 2.884259821047611894e+01 6.751447166379490739e+01
4.638591156740329069e+00 2.878517166778873104e+01 6.713542620434199648e+01
4.778493462238554201e+00 2.872583411869183223e+01 6.675691332378723075e+01
4.917843485085626298e+00 2.866458372035583224e+01 6.637883215127270375e+01
5.057626158026546470e+00 2.860140945547577829e+01 6.600090412086549918e+01
5.196755882111318670e+00 2.853636600097398457e+01 6.562339373029121248e+01
5.336492650585582531e+00 2.846946731734404779e+01 6.524619652308972206e+01
5.475753545497028973e+00 2.840077622189133422e+01 6.486957210466678703e+01
5.614997092338088969e+00 2.833036136616630074e+01 6.449374156566167926e+01
5.753471290542501393e+00 2.825815940369242796e+01 6.411821613818524668e+01
3.264134458097089908e+00 2.910845365531449858e+01 6.966105661482470168e+01
3.403483595389381389e+00 2.906397610414670041e+01 6.928065661182790791e+01
3.543425569335837189e+00 2.901731955464658341e+01 6.889956920949842356e+01
3.683349011521289018e+00 2.896861783352581554e+01 6.851887204747879423e+01
3.823253417927187758e+00 2.891789233679388005e+01 6.813856231134182906e+01
3.963222174090215599e+00 2.886519372283314766e+01 6.775880727740151599e+01
4.103086525821726838e+00 2.881048507338268649e+01 6.737926269466098006e+01
4.242930438327412901e+00 2.875381680884109059e+01 6.700009691884602603e+01
4.382753478667323677e+00 2.869521031262471666e+01 6.662130702439520746e+01
4.522555231177270763e+00 2.863468696294594906e+01 6.624289005970936728e+01
4.662335297592424155e+00 2.857226813188957948e+01 6.586484304719931515e+01
4.801638933191141767e+00 2.850800646957425499e+01 6.548737860879219852e+01
4.941375576328584707e+00 2.844186293640242624e+01 6.511006156987070881e+01
5.080440224063362820e+00 2.837389031286095431e+01 6.473315157789541274e+01
5.219225374206914125e+00 2.830426666907638733e+01 6.435742716813732045e+01
5.358380397178043708e+00 2.823278782041113999e+01 6.398164425771850716e+01
2.867987137485207949e+00 2.906768922392936716e+01 6.952672804586462973e+01
3.007335673591381209e+00 2.902396395891746650e+01 6.914619139061224473e+01
3.147356442492091677e+00 2.897809617092235612e+01 6.876516244731764971e+01
3.287271931352047094e+00 2.893015328518606566e+01 6.838434612085249853e+01
3.427169054366781875e+00 2.888018653730926033e+01 6.800391695239682122e+01
3.567047313934460284e+00 2.882821731112709074e+01 6.762387210526904369e+01
3.706906230077231523e+00 2.877426698811579442e+01 6.724420871462663740e+01
3.846745340333846741e+00 2.871835694627541713e+01 6.686492388804182951e+01
3.986564199534732733e+00 2.866050855984411783e+01 6.648601470630615040e+01
4.126362379957611459e+00 2.860074319814265564e+01 6.610747822385108918e+01
4.266139470865646821e+00 2.853908222484831825e+01 6.572931146947750847e+01
4.405895078332866532e+00 2.847554699750043383e+01 6.535151144720381922e+01
4.545628825248309468e+00 2.841015886663531731e+01 6.497407513652018451e+01
4.684885532628659810e+00 2.834297096065389354e+01 6.459721541273879097e+01
4.824147021114882250e+00 2.827405424029312542e+01 6.422111436488839331e+01
2.471775976002594355e+00 2.902286635548533411e+01 6.939317137054770512e+01
2.611126587163608903e+00 2.897989340983870932e+01 6.901249226857555641e+01
2.751050559325716183e+00 2.893475459029183838e+01 6.863116865768805042e+01
2.890957369045315417e+00 2.888757047912614695e+01 6.825023473791586071e+01
3.030846489778468822e+00 2.883836245066366999e+01 6.786968770657922789e+01
3.170717412779872291e+00 2.878715187778909979e+01 6.748952473249745765e+01
3.310569646437507618e+00 2.873396013160757789e+01 6.710974295684492574e+01
3.450402716482602994e+00 2.867880858012970791e+01 6.673033949291914269e+01
3.590216166076739324e+00 2.862171858778678057e+01 6.635131142763511036e+01
3.730009555388659415e+00 2.856271151447501921e+01 6.597265582153052321e+01
3.869782461448035615e+00 2.850180871503003388e+01 6.559436970969045433e+01
4.009534478179843653e+00 2.843903153842981268e+01 6.521645010227850037e+01
4.149265216232813636e+00 2.837440132712914931e+01 6.483889398498581613e+01
2.354598455614360208e+00 2.888726509483938543e+01 6.849777136546316569e+01
2.494495282718654394e+00 2.884083991711621309e+01 6.811672032292541701e+01
2.634375105148057727e+00 2.879239078570694943e+01 6.773605589018002604e+01
2.774237403044161887e+00 2.874193906243901608e+01 6.735577524146484052e+01
2.914081673775895442e+00 2.868950610733465822e+01 6.697587552340979755e+01
3.053907431564027330e+00 2.863511327799691131e+01 6.659635385548440922e+01
3.193714207891951595e+00 2.857878192882733970e+01 6.621720733018338478e+01
3.333501551290228182e+00 2.852053340987134078e+01 6.583843301422405148e+01
3.473269027010255527e+00 2.846038906649152977e+01 6.546002794855105833e+01
3.613016216878089715e+00 2.839837023887216105e+01 6.508198914956687986e+01
2.381031563397197459e+00 2.869294974717950453e+01 6.722371359653601530e+01
2.520875030978935172e+00 2.864126987232745236e+01 6.684369945838622584e+01
2.660700505846050667e+00 2.858763003339540631e+01 6.646406313611333871e+01
2.800507509709493359e+00 2.853205157609704301e+01 6.608480172784851447e+01
2.940295581410461878e+00 2.847455584231590109e+01 6.570591230562612850e+01
3.080064276305532811e+00 2.841516416957958313e+01 6.532739191608538931e+01
2.408511523726978965e+00 2.848125792197215134e+01 6.595323287764806253e+01
2.548302479241560725e+00 2.842451211404537403e+01 6.557422969483840802e+01
