1.046961018660000065e+01 2.785652041139999824e+01 7.284154743060000214e+01
1.060479961999999965e+01 2.780082931680000158e+01 7.246784104229999457e+01
1.073999068240000021e+01 2.774308438590000137e+01 7.209446123509999893e+01
1.087518335759999921e+01 2.768330592879999941e+01 7.172140477940000380e+01
1.101037762940000064e+01 2.762151425600000110e+01 7.134866844559999777e+01
1.249761539590000048e+01 2.681474234470000084e+01 6.726877317580000692e+01
1.263282757190000005e+01 2.673037628240000174e+01 6.689962640150000084e+01
1.276804113510000072e+01 2.664426103770000154e+01 6.653075776510000594e+01
1.290325606959999938e+01 2.655641692080000027e+01 6.616216403720000017e+01
1.303847235910000002e+01 2.646686424199999976e+01 6.579384198809999873e+01
9.951859458699999550e+00 2.793356373640000001e+01 7.307326063339999678e+01
1.008704667459999982e+01 2.788066854919999926e+01 7.269910966720000545e+01
1.022223553559999942e+01 2.782569921540000024e+01 7.232528851159999306e+01
1.035742602550000058e+01 2.776867604519999944e+01 7.195179393700000503e+01
1.049261812830000018e+01 2.770961934889999867e+01 7.157862271390000330e+01
1.062781182770000044e+01 2.764854943679999977e+01 7.120577161280000666e+01
1.076300710780000003e+01 2.758548661909999922e+01 7.083323740420000547e+01
1.197983309730000023e+01 2.693159170270000047e+01 6.749415681109999809e+01
1.211504329739999974e+01 2.684971689380000015e+01 6.712461390199999300e+01
1.225025490089999991e+01 2.676607259220000046e+01 6.675535236029999453e+01
1.238546789169999940e+01 2.668067910819999966e+01 6.638636895659999482e+01
1.252068225370000043e+01 2.659355675209999958e+01 6.601766046139999844e+01
1.265589797079999990e+01 2.650472583399999849e+01 6.564922364490000462e+01
1.279111502680000001e+01 2.641420666440000176e+01 6.528105527779999306e+01
1.292633340579999945e+01 2.632201955340000055e+01 6.491315213049999500e+01
9.569298831799999405e+00 2.795407414720000006e+01 7.293140130599999793e+01
9.704485475400000283e+00 2.790190072080000050e+01 7.255713557240000000e+01
9.839673763900000480e+00 2.784765314770000089e+01 7.218319964939999522e+01
9.974863681400000459e+00 2.779135173830000127e+01 7.180959030750000238e+01
1.011005521170000065e+01 2.773301680280000170e+01 7.143630431709999584e+01
1.024524833869999974e+01 2.767266865139999865e+01 7.106333844860000681e+01
1.038044304629999992e+01 2.761032759449999929e+01 7.069068947249999724e+01
1.051563931839999988e+01 2.754601394219999833e+01 7.031835415940000189e+01
1.065083713890000006e+01 2.747974800489999936e+01 6.994632927959999336e+01
1.078603649169999912e+01 2.741155009290000066e+01 6.957461160360000463e+01
1.105643972959999921e+01 2.726943958540000068e+01 6.883208494480000184e+01
1.132684890330000016e+01 2.711984490200000053e+01 6.809074834679999810e+01
1.146205567580000029e+01 2.704229176999999851e+01 6.772051824669999576e+01
1.159726388390000018e+01 2.696292852479999880e+01 6.735057597319999445e+01
1.173247351160000029e+01 2.688177547660000144e+01 6.698091829679999876e+01
1.186768454269999928e+01 2.679885293570000115e+01 6.661154198769999368e+01
1.200289696099999937e+01 2.671418121250000155e+01 6.624244381670000337e+01
1.213811075059999922e+01 2.662778061710000088e+01 6.587362055399999861e+01
1.227332589519999928e+01 2.653967145980000097e+01 6.550506897019999997e+01
1.240854237879999999e+01 2.644987405090000010e+01 6.513678583579999781e+01
1.254376018530000003e+01 2.635840870070000008e+01 6.476876792109999315e+01
9.321926631400000218e+00 2.792016326799999959e+01 7.241563367839999898e+01
9.457114347499999241e+00 2.786663745570000117e+01 7.204158298800000182e+01
9.592303692499999812e+00 2.781105780700000096e+01 7.166785887870000238e+01
9.727494650400000609e+00 2.775344463220000080e+01 7.129445812090000345e+01
9.862687205000000290e+00 2.769381824159999894e+01 7.092137748509999540e+01
9.997881340099999292e+00 2.763219894539999899e+01 7.054861374169999522e+01
1.013307703979999985e+01 2.756860705389999922e+01 7.017616366110000570e+01
1.026827428780000062e+01 2.750306287740000144e+01 6.980402401400000656e+01
1.040347306820000028e+01 2.743558672600000037e+01 6.943219157059999702e+01
1.053867336459999926e+01 2.736619891020000139e+01 6.906066310149999765e+01
1.067387516119999979e+01 2.729491974009999922e+01 6.868943537709999703e+01
1.080907844170000054e+01 2.722176952599999922e+01 6.831850516800000150e+01
1.094428319000000016e+01 2.714676857819999967e+01 6.794786924439999609e+01
1.107948939009999911e+01 2.706993720690000060e+01 6.757752437700000314e+01
1.121469702579999961e+01 2.699129572240000030e+01 6.720746733609999524e+01
1.134990608100000031e+01 2.691086443500000058e+01 6.683769489229999294e+01
1.148511653959999990e+01 2.682866365490000149e+01 6.646820381589999727e+01
1.162032838560000059e+01 2.674471369240000129e+01 6.609899087750000035e+01
1.175554160269999926e+01 2.665903485770000003e+01 6.573005284750000499e+01
1.189075617489999992e+01 2.657164746120000132e+01 6.536138649629999975e+01
1.202597208599999945e+01 2.648257181310000163e+01 6.499298859450000521e+01
1.216118932010000009e+01 2.639182822360000102e+01 6.462485591239999394e+01
8.939370185199999597e+00 2.793540253260000128e+01 7.227461251719999780e+01
9.480128469000000280e+00 2.771194454910000005e+01 7.077989725449999980e+01
9.750517158999999268e+00 2.758817688290000092e+01 7.003445389590000048e+01
9.885713834600000638e+00 2.752335446709999900e+01 6.966219948129999295e+01
1.002091204240000089e+01 2.745660007660000090e+01 6.929025227060000702e+01
1.015611176650000047e+01 2.738793402150000134e+01 6.891860903410000105e+01
1.029131299059999982e+01 2.731737661209999857e+01 6.854726654239999561e+01
1.042651569869999939e+01 2.724494815879999976e+01 6.817622156589999349e+01
1.056171987459999961e+01 2.717066897169999962e+01 6.780547087499999748e+01
1.069692550219999916e+01 2.709455936109999996e+01 6.743501124019999793e+01
1.083213256550000025e+01 2.701663963740000085e+01 6.706483943189999763e+01
1.096734104819999978e+01 2.693693011070000054e+01 6.669495222070000295e+01
1.110255093439999996e+01 2.685545109139999909e+01 6.632534637700000246e+01
1.123776220789999947e+01 2.677222288959999830e+01 6.595601867119999895e+01
1.137297485260000052e+01 2.668726581569999823e+01 6.558696587379999698e+01
1.150818885229999999e+01 2.660060018000000071e+01 6.521818475530000114e+01
1.164340419110000013e+01 2.651224629260000043e+01 6.484967208610000000e+01
9.097572173399999684e+00 2.772699391589999962e+01 7.063890628910000657e+01
9.232765163699999889e+00 2.766681814120000027e+01 7.026591301099999498e+01
9.367959718499999866e+00 2.760466977109999931e+01 6.989323339569999405e+01
9.503155821700000061e+00 2.754056911609999858e+01 6.952086421379999592e+01
9.638353457099999133e+00 2.747453648629999989e+01 6.914880223570000339e+01
9.773552608699999311e+00 2.740659219189999973e+01 6.877704423190000682e+01
9.908753260399999263e+00 2.733675654330000171e+01 6.840558697279999478e+01
1.004395539599999942e+01 2.726504985069999876e+01 6.803442722890000027e+01
1.017915899950000025e+01 2.719149242439999981e+01 6.766356177059999766e+01
1.031436405470000039e+01 2.711610457460000134e+01 6.729298736849999329e+01
1.044957054550000031e+01 2.703890661160000164e+01 6.692270079290000240e+01
1.058477845580000043e+01 2.695991884569999897e+01 6.655269881430000112e+01
1.071998776959999944e+01 2.687916158710000047e+01 6.618297820319999403e+01
1.085519847059999954e+01 2.679665514599999909e+01 6.581353573009999991e+01
1.099041054279999940e+01 2.671241983290000022e+01 6.544436816539999313e+01
1.112562397019999949e+01 2.662647595789999855e+01 6.507547227950000490e+01
1.126083873650000022e+01 2.653884383120000123e+01 6.470684484289999716e+01
8.309450655199999147e+00 2.790523605090000103e+01 7.161965153020000230e+01
8.579827523500000552e+00 2.779637379189999891e+01 7.087183805889999633e+01
8.715018360700000244e+00 2.773891268350000061e+01 7.049841312099999868e+01
9.120600291700000639e+00 2.755465316600000136e+01 6.938002674370000022e+01
9.255797354700000312e+00 2.748934229689999853e+01 6.900784999820000110e+01
9.796600607300000263e+00 2.720918527799999964e+01 6.752215046370000096e+01
9.931805089999999225e+00 2.713451918890000059e+01 6.715146129420000420e+01
1.006701100839999974e+01 2.705804298669999852e+01 6.678105995120000671e+01
1.020221834630000046e+01 2.697977698149999881e+01 6.641094320530000061e+01
1.033742708760000006e+01 2.689974148370000151e+01 6.604110782680000113e+01
1.047263721620000076e+01 2.681795680340000132e+01 6.567155058630000042e+01
1.060784871599999946e+01 2.673444325099999830e+01 6.530226825420000125e+01
1.074306157090000013e+01 2.664922113669999959e+01 6.493325760099999400e+01
1.087827576479999969e+01 2.656231077079999991e+01 6.456451539709999565e+01
1.101349128150000034e+01 2.647373246349999931e+01 6.419603841299999658e+01
6.845464637400000107e+00 2.825770195340000157e+01 7.448550262290000035e+01
6.980638210200000415e+00 2.822200872599999855e+01 7.410861636859999635e+01
7.791715658900000285e+00 2.796244404839999831e+01 7.185451875360000429e+01
7.926901085299999927e+00 2.791180527899999930e+01 7.148000899379999851e+01
8.062088140600000230e+00 2.785911267330000030e+01 7.110582581510000466e+01
8.197276808699999862e+00 2.780438654150000133e+01 7.073196598779999533e+01
8.332467073500000154e+00 2.774764719390000067e+01 7.035842628250000530e+01
8.467658918999999784e+00 2.768891494069999837e+01 6.998520346969999650e+01
8.602852328899999179e+00 2.762821009219999979e+01 6.961229431969999837e+01
8.738047287200000568e+00 2.756555295860000143e+01 6.923969560310000304e+01
8.873243777700000834e+00 2.750096385029999979e+01 6.886740409029999910e+01
9.008441784500000438e+00 2.743446307740000023e+01 6.849541655180000532e+01
9.143641291299999807e+00 2.736607095029999925e+01 6.812372975789999430e+01
9.414044740599999628e+00 2.722369387430000032e+01 6.738124548630000277e+01
9.549248650899999191e+00 2.714974954599999890e+01 6.701044154939999942e+01
9.684453996800000297e+00 2.707399510449999980e+01 6.663992543909999711e+01
9.819660762299999845e+00 2.699645086010000128e+01 6.626969392579999862e+01
9.954868931200000048e+00 2.691713712299999983e+01 6.589974377999999433e+01
1.009007848729999957e+01 2.683607420350000083e+01 6.553007177210000123e+01
1.022528941470000063e+01 2.675328241180000077e+01 6.516067467269999725e+01
1.036050169720000014e+01 2.666878205829999970e+01 6.479154925209999760e+01
1.049571531860000029e+01 2.658259345309999944e+01 6.442269228080000687e+01
1.063093026289999976e+01 2.649473690660000003e+01 6.405410052930000120e+01
6.462922215099999868e+00 2.825525918010000126e+01 7.434729308720000063e+01
7.409169229499999787e+00 2.796505360029999920e+01 7.171550584630000458e+01
7.544354083500000030e+00 2.791513659170000139e+01 7.134088131919999398e+01
7.679540566300000037e+00 2.786316574680000002e+01 7.096658337309999354e+01
7.814728662000000270e+00 2.780916137570000046e+01 7.059260877849999360e+01
7.949918354400000275e+00 2.775314378879999921e+01 7.021895430579999697e+01
8.085109627399999610e+00 2.769513329640000165e+01 6.984561672559999579e+01
8.220302464799999598e+00 2.763515020859999893e+01 6.947259280830000705e+01
8.355496850699999811e+00 2.757321483580000177e+01 6.909987932430000512e+01
8.490692768800000678e+00 2.750934748819999953e+01 6.872747304409999458e+01
8.625890203100000875e+00 2.744356847610000116e+01 6.835537073819999421e+01
8.761089137500000845e+00 2.737589810969999959e+01 6.798356917700000679e+01
8.896289555799999249e+00 2.730635669930000020e+01 6.761206513109999605e+01
9.031491441900000083e+00 2.723496455520000126e+01 6.724085537070000385e+01
9.166694779800000248e+00 2.716174198770000103e+01 6.686993666649999568e+01
9.301899553300000179e+00 2.708670930690000134e+01 6.649930578880000098e+01
9.437105746300000320e+00 2.700988682319999867e+01 6.612895950809999590e+01
9.572313342799999347e+00 2.693129484689999842e+01 6.575889459489999922e+01
9.707522326499999465e+00 2.685095368809999883e+01 6.538910781970000130e+01
9.842732681399999350e+00 2.676888365719999996e+01 6.501959595290000493e+01
9.977944391399999446e+00 2.668510506439999830e+01 6.465035576489999869e+01
1.011315744040000020e+01 2.659963821999999922e+01 6.428138402630000314e+01
1.024837181220000026e+01 2.651250343419999922e+01 6.391267750739999798e+01
6.080382403299999794e+00 2.824952483310000062e+01 7.420960694539999736e+01
6.215554831300000416e+00 2.821527512720000175e+01 7.383249115639999616e+01
6.891442774299999741e+00 2.801149267979999991e+01 7.195208543809999924e+01
7.026625410700000351e+00 2.796437157860000156e+01 7.157701633300000310e+01
7.161809692200000299e+00 2.791517633069999960e+01 7.120227703850000012e+01
7.296995602600000019e+00 2.786392724650000119e+01 7.082786432499999307e+01
7.432183125899999965e+00 2.781064463619999927e+01 7.045377496310000254e+01
7.567372245799999675e+00 2.775534881009999921e+01 7.008000572310000109e+01
7.702562946299999602e+00 2.769806007829999928e+01 6.970655337549999331e+01
7.837755211400000199e+00 2.763879875130000130e+01 6.933341469079999797e+01
7.972949024800000117e+00 2.757758513919999999e+01 6.896058643950000544e+01
8.108144370499999809e+00 2.751443955239999895e+01 6.858806539190000251e+01
8.243341232300000598e+00 2.744938230099999998e+01 6.821584831869999732e+01
8.378539594299999393e+00 2.738243369539999961e+01 6.784393199010000330e+01
8.513739440100000166e+00 2.731361404580000141e+01 6.747231317680000018e+01
8.648940753799999825e+00 2.724294366239999832e+01 6.710098864910000316e+01
8.784143519300000591e+00 2.717044285560000105e+01 6.672995517750000261e+01
8.919347720299999338e+00 2.709613193559999900e+01 6.635920953240000131e+01
9.054553340900000080e+00 2.702003121270000108e+01 6.598874848440000562e+01
9.189760364899999701e+00 2.694216099710000023e+01 6.561856880390000413e+01
9.324968776200000420e+00 2.686254159900000005e+01 6.524866726129999961e+01
9.460178558699999130e+00 2.678119332889999882e+01 6.487904062709999664e+01
9.595389696299999827e+00 2.669813649680000012e+01 6.450968567179999980e+01
9.730602172799999394e+00 2.661339141319999868e+01 6.414059916579999765e+01
5.833017100200000193e+00 2.820691730909999961e+01 7.369522217349999949e+01
6.644084245100000174e+00 2.796034432489999944e+01 7.143905874589999883e+01
6.779267954099999827e+00 2.791187083779999867e+01 7.106420468400000345e+01
6.914453292100000148e+00 2.786134351440000145e+01 7.068967720320000581e+01
7.049640242899999798e+00 2.780878266479999894e+01 7.031547307389999446e+01
7.184828790400000109e+00 2.775420859939999829e+01 6.994158906650000063e+01
7.320018918499999749e+00 2.769764162839999955e+01 6.956802195160000224e+01
7.455210611100000051e+00 2.763910206219999921e+01 6.919476849950000030e+01
7.590403852099999682e+00 2.757861021080000086e+01 6.882182548080000117e+01
7.725598625299999966e+00 2.751618638469999922e+01 6.844918966589999343e+01
7.860794914699999580e+00 2.745185089410000145e+01 6.807685782529999585e+01
7.995992704199999856e+00 2.738562404920000048e+01 6.770482672939999702e+01
8.131191977600000342e+00 2.731752616039999992e+01 6.733309314870000151e+01
8.266392718900000602e+00 2.724757753780000158e+01 6.696165385359999789e+01
8.401594911900000184e+00 2.717579849170000017e+01 6.659050561460000495e+01
8.536798540499999532e+00 2.710220933240000107e+01 6.621964520219999883e+01
8.672003588700000876e+00 2.702683037019999901e+01 6.584906938689999834e+01
8.807210040199999312e+00 2.694968191539999935e+01 6.547877493900000445e+01
8.942417879100000633e+00 2.687078427810000036e+01 6.510875862899999333e+01
9.077627089099999935e+00 2.679015776869999854e+01 6.473901722749999976e+01
9.212837654299999457e+00 2.670782269740000103e+01 6.436954750479999632e+01
9.348049558399999626e+00 2.662379937440000077e+01 6.400034623140000178e+01
5.856006299899999767e+00 2.808364723940000118e+01 7.242853988660000653e+01
6.396728911700000353e+00 2.790516645479999980e+01 7.092667278790000296e+01
6.531913677200000379e+00 2.785536089209999844e+01 7.055203053969999871e+01
6.667100055599999742e+00 2.780352180330000067e+01 7.017771164309999676e+01
6.802288030699999766e+00 2.774966949859999943e+01 6.980371286829999633e+01
6.937477586299999999e+00 2.769382428839999832e+01 6.943003098600000556e+01
7.072668706500000013e+00 2.763600648290000095e+01 6.905666276659999880e+01
7.207861375000000237e+00 2.757623639230000023e+01 6.868360498059999486e+01
7.343055575800000234e+00 2.751453432699999979e+01 6.831085439829999473e+01
7.478251292799999561e+00 2.745092059710000143e+01 6.793840779030000476e+01
7.613448509900000438e+00 2.738541551289999987e+01 6.756626192710000112e+01
7.748647210899999749e+00 2.731803938479999871e+01 6.719441357899999900e+01
7.883847379699999713e+00 2.724881252300000156e+01 6.682285951650000300e+01
8.019049000300000785e+00 2.717775523770000135e+01 6.645159651020000524e+01
8.154252056400000725e+00 2.710488783910000166e+01 6.608062133040000674e+01
8.289456532199999117e+00 2.703023063770000078e+01 6.570993074769999964e+01
8.424662411299999931e+00 2.695380394360000054e+01 6.533952153250000094e+01
8.559869677700000068e+00 2.687562806700000095e+01 6.496939045509999744e+01
8.695078315299999971e+00 2.679572331840000032e+01 6.459953428619999727e+01
8.830288308000000086e+00 2.671411000779999867e+01 6.422994979620000322e+01
8.965499639700000856e+00 2.663080844559999960e+01 6.386063375549999677e+01
5.608649866200000389e+00 2.802985667020000093e+01 7.191593333359999463e+01
5.743829124200000358e+00 2.798699530809999914e+01 7.154018688620000432e+01
5.879010043400000107e+00 2.794203948910000079e+01 7.116477347910000617e+01
6.014192607600000073e+00 2.789500952350000063e+01 7.078968988239999760e+01
6.149376800699999812e+00 2.784592572149999867e+01 7.041493286690000275e+01
6.284562606599999768e+00 2.779480839349999854e+01 7.004049920280000663e+01
6.419750009200000385e+00 2.774167784959999850e+01 6.966638566080000317e+01
6.554938992400000330e+00 2.768655440010000035e+01 6.929258901110000579e+01
6.690129540200000058e+00 2.762945835529999883e+01 6.891910602430000665e+01
6.825321636299999994e+00 2.757041002549999931e+01 6.854593347089999611e+01
6.960515264599999696e+00 2.750942972089999827e+01 6.817306812130000537e+01
7.095710409199999624e+00 2.744653775169999932e+01 6.780050674589999460e+01
7.230907053800000206e+00 2.738175442840000073e+01 6.742824611529999856e+01
7.366105182300000109e+00 2.731510006099999899e+01 6.705628299990000585e+01
7.501304778699999787e+00 2.724659495990000124e+01 6.668461417010000503e+01
7.636505826899999683e+00 2.717625943530000043e+01 6.631323639640000067e+01
7.771708310600000225e+00 2.710411379749999838e+01 6.594214644929999736e+01
7.906912213900000097e+00 2.703017835680000047e+01 6.557134109919999787e+01
8.042117520599999736e+00 2.695447342350000142e+01 6.520081711650000500e+01
8.177324214500000465e+00 2.687701930769999947e+01 6.483057127189999846e+01
8.312532279699999194e+00 2.679783631970000002e+01 6.446060033560000591e+01
8.447741699999999909e+00 2.671694476989999956e+01 6.409090107820000526e+01
8.582952459199999495e+00 2.663436496850000168e+01 6.372147027009999931e+01
5.496477092500000161e+00 2.792765459050000132e+01 7.102846286369999973e+01
5.631659084199999832e+00 2.788134638569999879e+01 7.065326449980000234e+01
5.766842704900000172e+00 2.783298434450000158e+01 7.027839271679999911e+01
5.902027938399999840e+00 2.778258877709999908e+01 6.990384428539999817e+01
6.037214768600000170e+00 2.773017999400000022e+01 6.952961597600000232e+01
6.172403179399999829e+00 2.767577830529999972e+01 6.915570455900000013e+01
6.307593154600000140e+00 2.761940402120000115e+01 6.878210680479999439e+01
6.442784678299999790e+00 2.756107745210000104e+01 6.840881948400000567e+01
6.577977734200000093e+00 2.750081890830000120e+01 6.803583936709999591e+01
6.713172306399999734e+00 2.743864869989999988e+01 6.766316322430000696e+01
6.848368378500000020e+00 2.737458713719999892e+01 6.729078782640000611e+01
6.983565934599999636e+00 2.730865453059999837e+01 6.691870994360000680e+01
7.118764958599999915e+00 2.724087119029999826e+01 6.654692634639999937e+01
7.253965434300000403e+00 2.717125742640000041e+01 6.617543380530000263e+01
7.389167345599999770e+00 2.709983354939999955e+01 6.580422909089999450e+01
7.524370676400000235e+00 2.702661986949999928e+01 6.543330897340000263e+01
7.659575410699999587e+00 2.695163669680000140e+01 6.506267022340000494e+01
7.794781532200000029e+00 2.687490434180000065e+01 6.469230961140000602e+01
7.929989024900000238e+00 2.679644311459999884e+01 6.432222390770000686e+01
8.065197872800000667e+00 2.671627332550000133e+01 6.395240988300000140e+01
8.200408059500000846e+00 2.663441528479999931e+01 6.358286430750000306e+01
8.335619569200000356e+00 2.655088930280000170e+01 6.321358395189999868e+01
4.978767190700000178e+00 2.795322212470000167e+01 7.126836124529999950e+01
5.113946965000000233e+00 2.790970982720000038e+01 7.089271830340000236e+01
5.249128384299999617e+00 2.786412338310000081e+01 7.051740517209999837e+01
5.384311432499999661e+00 2.781648310270000124e+01 7.014241862180000453e+01
5.519496093599999931e+00 2.776680929609999993e+01 6.976775542299999699e+01
5.654682351299999965e+00 2.771512227370000048e+01 6.939341234619999454e+01
5.789870189700000225e+00 2.766144234569999938e+01 6.901938616179999997e+01
5.925059592500000250e+00 2.760578982239999846e+01 6.864567364030000363e+01
6.060250543699999604e+00 2.754818501400000130e+01 6.827227155219999588e+01
6.195443027199999619e+00 2.748864823090000087e+01 6.789917666780000616e+01
6.330637026899999853e+00 2.742719978330000075e+01 6.752638575779999996e+01
6.465832526599999852e+00 2.736385998140000098e+01 6.715389559240000494e+01
6.601029510300000069e+00 2.729864913549999983e+01 6.678170294219999903e+01
6.736227961800000053e+00 2.723158755589999913e+01 6.640980457770000100e+01
6.871427865100000254e+00 2.716269555279999892e+01 6.603819726929999945e+01
7.006629204000000222e+00 2.709199343659999926e+01 6.566687778749999893e+01
7.141831962300000392e+00 2.701950151730000016e+01 6.529584290260000046e+01
7.277036124200000344e+00 2.694524010550000170e+01 6.492508938529999796e+01
7.412241673299999611e+00 2.686922951120000036e+01 6.455461400590000665e+01
7.547448593500000413e+00 2.679149004470000150e+01 6.418441353490000267e+01
7.682656868899999658e+00 2.671204201640000164e+01 6.381448474279999772e+01
7.817866483299999558e+00 2.663090573650000081e+01 6.344482440000000167e+01
7.953077420499999661e+00 2.654810151519999906e+01 6.307542927690000312e+01
8.088289664499999532e+00 2.646364966280000175e+01 6.270629614420000308e+01
4.596240501599999639e+00 2.793094207769999926e+01 7.113330603949999897e+01
4.731419703400000287e+00 2.788815154099999916e+01 7.075754833029999702e+01
4.866600550300000272e+00 2.784328685759999900e+01 7.038212043160000064e+01
5.001783026100000029e+00 2.779636833789999883e+01 7.000701911390000021e+01
5.136967114700000003e+00 2.774741629209999871e+01 6.963224114780000207e+01
5.272152799999999750e+00 2.769645103039999867e+01 6.925778330359999302e+01
5.407340065899999715e+00 2.764349286319999877e+01 6.888364235189999363e+01
5.542528896300000341e+00 2.758856210060000080e+01 6.850981506300000490e+01
5.677719275100000296e+00 2.753167905300000129e+01 6.813629820750000476e+01
5.812911186200000024e+00 2.747286403069999849e+01 6.776308855579999602e+01
5.948104613399999963e+00 2.741213734380000133e+01 6.739018287839999743e+01
6.083299540699999675e+00 2.734951930260000097e+01 6.701757794569999760e+01
6.218495951899999596e+00 2.728503021750000102e+01 6.664527052809999930e+01
6.353693831000000181e+00 2.721869039859999972e+01 6.627325739629999646e+01
6.488893161800000087e+00 2.715052015630000071e+01 6.590153532050000251e+01
6.624093928199999759e+00 2.708053980080000045e+01 6.553010107129999540e+01
6.759296114199999650e+00 2.700876964229999899e+01 6.515895141910000632e+01
6.894499703600000196e+00 2.693522999110000171e+01 6.478808313439999722e+01
7.029704680200000055e+00 2.685994115760000156e+01 6.441749298759999931e+01
7.164911028099999690e+00 2.678292345190000034e+01 6.404717774930000473e+01
7.300118731000000416e+00 2.670419718429999989e+01 6.367713418980000029e+01
7.435327772900000021e+00 2.662378266509999847e+01 6.330735907959999764e+01
7.570538137699999837e+00 2.654170020460000146e+01 6.293784918920000138e+01
7.705749809300000308e+00 2.645797011299999824e+01 6.256860128910000185e+01
4.078539752700000243e+00 2.794496916869999836e+01 7.137503947000000437e+01
4.213716720999999943e+00 2.790499484960000132e+01 7.099883395320000545e+01
4.348895350300000295e+00 2.786292607360000062e+01 7.062296147659999690e+01
4.484075624799999993e+00 2.781878315100000165e+01 7.024741881049999392e+01
4.619257528100000343e+00 2.777258639200000090e+01 6.987220272550000288e+01
4.754441044300000030e+00 2.772435610690000019e+01 6.949730999199999815e+01
4.889626157200000378e+00 2.767411260600000134e+01 6.912273738049999849e+01
5.024812850600000047e+00 2.762187619950000084e+01 6.874848166140000671e+01
5.160001108600000386e+00 2.756766719770000051e+01 6.837453960519999896e+01
5.295190914900000045e+00 2.751150591089999864e+01 6.800090798230000644e+01
5.430382253600000375e+00 2.745341264920000057e+01 6.762758356320000530e+01
5.565575108400000026e+00 2.739340772310000105e+01 6.725456311840000012e+01
5.700769463200000331e+00 2.733151144269999833e+01 6.688184341839999547e+01
5.835965301999999966e+00 2.726774411830000133e+01 6.650942123350000657e+01
5.971162608700000263e+00 2.720212606020000123e+01 6.613729333419999534e+01
6.106361366999999873e+00 2.713467757860000162e+01 6.576545649109999658e+01
6.241561561000000147e+00 2.706541898380000077e+01 6.539390747449999708e+01
6.376763174599999751e+00 2.699437058610000051e+01 6.502264305500000319e+01
6.511966191500000001e+00 2.692155269570000087e+01 6.465166000290000170e+01
7.052791971099999557e+00 2.661299241269999882e+01 6.317047687870000061e+01
7.188001763399999966e+00 2.653163171290000122e+01 6.280085222089999775e+01
7.323212862500000142e+00 2.644862338200000096e+01 6.243148955339999873e+01
7.458425252299999642e+00 2.636398773029999987e+01 6.206238564659999923e+01
3.831195891400000164e+00 2.787532678210000014e+01 7.086495351850000191e+01
3.966373948299999785e+00 2.783397976679999886e+01 7.048896627450000096e+01
4.101553650299999632e+00 2.779055860500000108e+01 7.011330884109999317e+01
4.236734981199999694e+00 2.774508360669999973e+01 6.973797798869999554e+01
4.371917924899999974e+00 2.769757508240000021e+01 6.936297048779999841e+01
4.507102465400000035e+00 2.764805334220000077e+01 6.898828310899999394e+01
4.642288586400000305e+00 2.759653869650000146e+01 6.861391262249999556e+01
4.777476271900000349e+00 2.754305145540000055e+01 6.823985579889999542e+01
4.912665505799999721e+00 2.748761192930000163e+01 6.786610940869999808e+01
5.047856271999999755e+00 2.743024042840000121e+01 6.749267022230000634e+01
5.183048554400000008e+00 2.737095726300000109e+01 6.711953501009999457e+01
5.318242336800000025e+00 2.730978274339999956e+01 6.674670054269999753e+01
5.453437603200000261e+00 2.724673717969999842e+01 6.637416359040000202e+01
5.588634337400000263e+00 2.718184088239999951e+01 6.600192092380000020e+01
5.723832523299999586e+00 2.711511416149999931e+01 6.562996931329999484e+01
5.859032144899999572e+00 2.704657732749999965e+01 6.525830552940000473e+01
5.994233185899999761e+00 2.697625069049999880e+01 6.488692634250000424e+01
6.129435630399999724e+00 2.690415456090000035e+01 6.451582852299999615e+01
6.264639462199999898e+00 2.683030924879999901e+01 6.414500884160000282e+01
6.399844665199999838e+00 2.675473506459999840e+01 6.377446406850000216e+01
6.535051223299999990e+00 2.667745231849999854e+01 6.340419097430000051e+01
6.940678866899999910e+00 2.643555581160000045e+01 6.229496946940000157e+01
7.075890684200000003e+00 2.635164192070000055e+01 6.192575079520000259e+01
3.583855539900000053e+00 2.780125896250000039e+01 7.035557125619999397e+01
3.719034669400000048e+00 2.775855956139999847e+01 6.997979905549999557e+01
3.854215427899999824e+00 2.771380632389999832e+01 6.960435343570000555e+01
3.989397799199999817e+00 2.766701956030000176e+01 6.922923116750000361e+01
4.124581767199999582e+00 2.761821958089999995e+01 6.885442902130000675e+01
4.259767315799999565e+00 2.756742669590000006e+01 6.847994376740000178e+01
4.394954428900000210e+00 2.751466121560000033e+01 6.810577217649999682e+01
4.530143090400000183e+00 2.745994345020000083e+01 6.773191101890000709e+01
4.665333284099999922e+00 2.740329371010000159e+01 6.735835706509999454e+01
4.800524993999999879e+00 2.734473230540000088e+01 6.698510708560000637e+01
4.935718203999999609e+00 2.728427954649999876e+01 6.661215785080000273e+01
5.070912897900000438e+00 2.722195574359999881e+01 6.623950613120000241e+01
5.206109059700000152e+00 2.715778120699999931e+01 6.586714869719999399e+01
5.341306673200000077e+00 2.709177624690000030e+01 6.549508231939999803e+01
5.476505722299999768e+00 2.702396117360000005e+01 6.512330376810000132e+01
5.611706190899999669e+00 2.695435629740000039e+01 6.475180981379999423e+01
5.746908063000000233e+00 2.688298192850000135e+01 6.438059722699999554e+01
5.882111322300000111e+00 2.680985837720000120e+01 6.400966277819999561e+01
6.017315952899999765e+00 2.673500595369999999e+01 6.363900323770000256e+01
6.152521938499999621e+00 2.665844496840000133e+01 6.326861537610000141e+01
6.287729263100000132e+00 2.658019573139999991e+01 6.289849596389999675e+01
6.693359109700000253e+00 2.633552161349999921e+01 6.178971612769999666e+01
2.795814430900000147e+00 2.787811680269999925e+01 7.135243764010000689e+01
2.930988004600000085e+00 2.784242253300000058e+01 7.097555155160000595e+01
3.201340167600000175e+00 2.776471000240000109e+01 7.022278495400000509e+01
3.336518724699999883e+00 2.772273236199999857e+01 6.984689798590000009e+01
3.471698910799999815e+00 2.767870088529999961e+01 6.947133759880000525e+01
3.606880709599999957e+00 2.763263588239999891e+01 6.909610056319999671e+01
3.742064105199999879e+00 2.758455766379999829e+01 6.872118364959999326e+01
3.877249081300000011e+00 2.753448653950000136e+01 6.834658362839999768e+01
4.012435621999999924e+00 2.748244281990000104e+01 6.797229727010000033e+01
4.147623710999999602e+00 2.742844681529999917e+01 6.759832134510000401e+01
4.282813332299999942e+00 2.737251883589999935e+01 6.722465262400000086e+01
4.418004469799999612e+00 2.731467919199999983e+01 6.685128787710000609e+01
4.553197107299999935e+00 2.725494819389999890e+01 6.647822387499999763e+01
4.688391228799999588e+00 2.719334615169999836e+01 6.610545738800000493e+01
4.823586818199999904e+00 2.712989337579999827e+01 6.573298518670000590e+01
4.958783859200000421e+00 2.706461017650000045e+01 6.536080404140000155e+01
5.093982335899999825e+00 2.699751686389999961e+01 6.498891072280000003e+01
5.229182232100000327e+00 2.692863374850000113e+01 6.461730200110000055e+01
5.364383531699999708e+00 2.685798114030000150e+01 6.424597464699999705e+01
5.769995689900000002e+00 2.663560946249999972e+01 6.313364849399999912e+01
5.905202442100000226e+00 2.655808198620000127e+01 6.276341431440000207e+01
6.040410517099999765e+00 2.647888656869999835e+01 6.239344535459999719e+01
6.175619898899999960e+00 2.639804352000000165e+01 6.202373838500000147e+01
6.310830571300000358e+00 2.631557315059999880e+01 6.165429017609999818e+01
2.413303854700000084e+00 2.783552074640000029e+01 7.122061288819999447e+01
2.818827874100000130e+00 2.772427922829999858e+01 7.009061590000000308e+01
2.954005858699999987e+00 2.768302334870000081e+01 6.971461416450000570e+01
3.089185472300000068e+00 2.763971363270000126e+01 6.933893901010000604e+01
3.224366698799999931e+00 2.759437039060000174e+01 6.896358720710000512e+01
3.359549521900000002e+00 2.754701393259999875e+01 6.858855552619999685e+01
3.494733925599999846e+00 2.749766456909999945e+01 6.821384073759999467e+01
3.629919893799999908e+00 2.744634261030000033e+01 6.783943961190000493e+01
3.765107410400000187e+00 2.739306836649999966e+01 6.746534891960000380e+01
3.900296459299999796e+00 2.733786214779999924e+01 6.709156543109999404e+01
4.035487024300000058e+00 2.728074426459999913e+01 6.671808591689999446e+01
4.170679089400000095e+00 2.722173502720000116e+01 6.634490714739999362e+01
4.305872638500000349e+00 2.716085474579999826e+01 6.597202589299999431e+01
4.441067655400000369e+00 2.709812373069999936e+01 6.559943892430000290e+01
4.576264123999999711e+00 2.703356229210000095e+01 6.522714301169999374e+01
4.711462028199999708e+00 2.696719074030000129e+01 6.485513492569999983e+01
4.846661351999999923e+00 2.689902938559999868e+01 6.448341143669999553e+01
5.387472520000000209e+00 2.660889214250000023e+01 6.299929886019999969e+01
5.522678699800000146e+00 2.653208642710000120e+01 6.262894991320000315e+01
5.657886202400000286e+00 2.645361277030000124e+01 6.225886618599999878e+01
5.793095011700000185e+00 2.637349148239999863e+01 6.188904444909999825e+01
5.928305111700000296e+00 2.629174287360000051e+01 6.151948147280000256e+01
2.165968828500000054e+00 2.775473846959999946e+01 7.071229829349999818e+01
2.301142934600000078e+00 2.771837295430000125e+01 7.033551893989999826e+01
2.436318701799999875e+00 2.767991298200000116e+01 6.995907262650000291e+01
2.571496113999999888e+00 2.763937886309999925e+01 6.958295612359999893e+01
2.706675155200000127e+00 2.759679090790000089e+01 6.920716620180000689e+01
2.841855809200000138e+00 2.755216942650000078e+01 6.883169963150000115e+01
2.977038059899999922e+00 2.750553472929999899e+01 6.845655318320000049e+01
3.112221891099999915e+00 2.745690712660000088e+01 6.808172362729999350e+01
3.247407286900000134e+00 2.740630692850000116e+01 6.770720773419999716e+01
3.382594231100000126e+00 2.735375444539999990e+01 6.733300227460000542e+01
3.517782707499999884e+00 2.729926998750000067e+01 6.695910401870000328e+01
3.652972700099999859e+00 2.724287386510000175e+01 6.658550973709999710e+01
3.788164192800000052e+00 2.718458638839999963e+01 6.621221620020000387e+01
3.923357169400000011e+00 2.712442786769999969e+01 6.583922017849999975e+01
4.058551613799999735e+00 2.706241861330000020e+01 6.546651844250000352e+01
4.193747509999999679e+00 2.699857893549999943e+01 6.509410776250000197e+01
4.328944841800000276e+00 2.693292914439999919e+01 6.472198490910000146e+01
4.464143593100000196e+00 2.686548955050000131e+01 6.435014665280000656e+01
5.410573245800000208e+00 2.634500397249999892e+01 6.175497629360000218e+01
5.545782773400000032e+00 2.626397712449999844e+01 6.138529855000000168e+01
1.783463964999999929e+00 2.770493957140000063e+01 7.058161886729999424e+01
2.053812693399999834e+00 2.763155760529999938e+01 6.982816366560000176e+01
2.324168001899999947e+00 2.754987905260000147e+01 6.907602770619999433e+01
2.459348083400000107e+00 2.750597933199999900e+01 6.870044636849999620e+01
2.594529761700000048e+00 2.746006639559999840e+01 6.832518515280000315e+01
2.729713020500000198e+00 2.741216055359999970e+01 6.795024082960000555e+01
2.864897843800000121e+00 2.736228211630000118e+01 6.757561016920000441e+01
3.000084215599999826e+00 2.731045139389999932e+01 6.720128994210000428e+01
3.135272119600000185e+00 2.725668869669999950e+01 6.682727691889999733e+01
3.270461539699999864e+00 2.720101433510000177e+01 6.645356786989999875e+01
3.405652459900000206e+00 2.714344861920000085e+01 6.608015956570000071e+01
3.540844864099999878e+00 2.708401185920000032e+01 6.570704877660000420e+01
3.676038736100000204e+00 2.702272436559999846e+01 6.533423227320000137e+01
3.811234059899999860e+00 2.695960644850000065e+01 6.496170682589999501e+01
3.946430819200000162e+00 2.689467841820000160e+01 6.458946920520000390e+01
4.081628998100000238e+00 2.682796058490000135e+01 6.421751618150000240e+01
4.216828580399999638e+00 2.675947325899999996e+01 6.384584452520000042e+01
4.487231890800000400e+00 2.661727137020000100e+01 6.310333239709999731e+01
1.536135269000000081e+00 2.761617589069999923e+01 7.007457339769999294e+01
1.671309891299999961e+00 2.757915944000000152e+01 6.969789754960000039e+01
1.941664054999999944e+00 2.749892440880000066e+01 6.894553205549999575e+01
2.076843564099999817e+00 2.745574644899999939e+01 6.856983595040000523e+01
2.212024669899999907e+00 2.741055527330000174e+01 6.819445996739999316e+01
2.347207356300000214e+00 2.736337119199999890e+01 6.781940087670000139e+01
2.482391607199999850e+00 2.731421451539999978e+01 6.744465544899999543e+01
2.617577406400000140e+00 2.726310555379999911e+01 6.707022045460000470e+01
2.752764738000000211e+00 2.721006461740000049e+01 6.669609266400000536e+01
2.887953585700000048e+00 2.715511201649999862e+01 6.632226884770000197e+01
3.023143933500000102e+00 2.709826806130000065e+01 6.594874577609999733e+01
3.158335765199999923e+00 2.703955306210000131e+01 6.557552021959999422e+01
3.563920003099999789e+00 2.685238490329999905e+01 6.445759634610000433e+01
3.834316619400000015e+00 2.671862326560000156e+01 6.371374213139999654e+01
1.018463899599999944e+00 2.759315975100000173e+01 7.032219708179999884e+01
1.153636288299999979e+00 2.755895951780000175e+01 6.994507342609999512e+01
1.559163357000000083e+00 2.744387331820000142e+01 6.881568778179999413e+01
1.694342293600000104e+00 2.740141711900000132e+01 6.843987690939999879e+01
1.964704940999999927e+00 2.731048538359999966e+01 6.768921230099999775e+01
2.099888619400000156e+00 2.726205046769999996e+01 6.731435210579999762e+01
2.235073846300000167e+00 2.721166326690000048e+01 6.693980234410000207e+01
2.370260605399999942e+00 2.715934409120000126e+01 6.656555978609999613e+01
2.505448880699999936e+00 2.710511325099999880e+01 6.619162120240000036e+01
2.640638656000000140e+00 2.704899105659999847e+01 6.581798336350000511e+01
2.911022642499999868e+00 2.693115384600000084e+01 6.507159700159999716e+01
3.316609469799999932e+00 2.674072062979999842e+01 6.395419230560000301e+01
1.311844314700000069e+00 2.734293768410000069e+01 6.831057777760000249e+01
1.582205817199999975e+00 2.725344947010000141e+01 6.755968363440000246e+01
1.717388923199999917e+00 2.720573631499999934e+01 6.718470867199999930e+01
1.987759764300000009e+00 2.710447346000000124e+01 6.643568681749999882e+01
2.122947467099999930e+00 2.705096438050000174e+01 6.606163346649999824e+01
2.393327356899999980e+00 2.693829246920000031e+01 6.531442576899999608e+01
2.663713117999999991e+00 2.681821762290000066e+01 6.456839521409999350e+01
1.334892560999999978e+00 2.714521839909999912e+01 6.705573367959999587e+01
1.470076643000000072e+00 2.709627471969999846e+01 6.668095438310000134e+01
1.740449387700000017e+00 2.699261174680000153e+01 6.593231417200000521e+01
2.010828132599999929e+00 2.688138335689999892e+01 6.518487693980000586e+01
2.146019714799999978e+00 2.682298290629999826e+01 6.481160136699999441e+01
9.523995754999999841e-01 2.708044306160000048e+01 6.692743566090000229e+01
1.087583084999999894e+00 2.703222114300000101e+01 6.655254159700000116e+01
1.357954684799999923e+00 2.693000169160000112e+01 6.580367185119999363e+01
-5.775377494000000222e-01 2.677769433310000124e+01 6.642118396690000282e+01
