8.682336787886267615e+00 2.881398770525899522e+01 6.944612069619802242e+01
8.821511067152155050e+00 2.875038631040625248e+01 6.906880462649894525e+01
8.960662598965249970e+00 2.868483118424256872e+01 6.869185898124734990e+01
8.014322444489597075e+00 2.894107022617167146e+01 7.006184640474731395e+01
8.153551975124502249e+00 2.888218293495829414e+01 6.968366364400971236e+01
8.292759613895841042e+00 2.882129910222266389e+01 6.930585719811841727e+01
8.431945075541021239e+00 2.875844003362043111e+01 6.892842408416376543e+01
8.571108090244511146e+00 2.869362702785364050e+01 6.855136129538703926e+01
8.710248404070528139e+00 2.862688137633198338e+01 6.817466580170520274e+01
8.849365778291483409e+00 2.855822436236362449e+01 6.779833455023450028e+01
8.988459989100864078e+00 2.848767726077781859e+01 6.742236446622275992e+01
7.484571779356079091e+00 2.899971543920840134e+01 7.030091537255358958e+01
7.623831135878405441e+00 2.894359161791930646e+01 6.992223556306710464e+01
7.763069278066879519e+00 2.888544974174293145e+01 6.954393489264826655e+01
7.902285894300551838e+00 2.882531111841644744e+01 6.916601040876362561e+01
8.041480688758037232e+00 2.876319704949988321e+01 6.878845913431513281e+01
8.180653381777803546e+00 2.869912883039858542e+01 6.841127806803683598e+01
8.319803709103146261e+00 2.863312774911855385e+01 6.803446418571220988e+01
8.458931422118158849e+00 2.856521508625096217e+01 6.765801443988831920e+01
8.598036286771380432e+00 2.849541211389002271e+01 6.728192576151224102e+01
8.737118084291312314e+00 2.842374009528003853e+01 6.690619505966441238e+01
8.876176610187638261e+00 2.835022028449439446e+01 6.653081922280321692e+01
9.015572245507273763e+00 2.827481579243977450e+01 6.615562857461182489e+01
6.952526605780446900e+00 2.905141510119374360e+01 7.054041220029705528e+01
7.091808926069546715e+00 2.899808114700247330e+01 7.016123001120141112e+01
7.231070849270442302e+00 2.894270764321876754e+01 6.978242972862348381e+01
7.370312035889713620e+00 2.888531589665690902e+01 6.940400843123158836e+01
7.509532162711548331e+00 2.882592720960996857e+01 6.902596317225639666e+01
7.648730922586273628e+00 2.876456287853721960e+01 6.864829098066972790e+01
7.787908024106633853e+00 2.870124419428130835e+01 6.827098886127019739e+01
7.927063191659131647e+00 2.863599244061905580e+01 6.789405379559514131e+01
8.066196164879345432e+00 2.856882889393992997e+01 6.751748274232649294e+01
8.205306698381935604e+00 2.849977482285809316e+01 6.714127263811923285e+01
8.344394561786993236e+00 2.842885148715325627e+01 6.676542039802833983e+01
8.483459539038488373e+00 2.835608013774277225e+01 6.638992291634804133e+01
8.622501428407433721e+00 2.828148201598375167e+01 6.601477706715331806e+01
8.761068911920206759e+00 2.820523413568715299e+01 6.564066609113581308e+01
6.421220667594840670e+00 2.909589179138729875e+01 7.077979417576653987e+01
6.559603985847147101e+00 2.904554017854164982e+01 7.040134373559205017e+01
6.698887603572481808e+00 2.899295710956825545e+01 7.002204146613458136e+01
6.838151324737782311e+00 2.893833431917292742e+01 6.964312093676828397e+01
6.977394798381077123e+00 2.888169310831503722e+01 6.926457923214613288e+01
7.116617690061896262e+00 2.882305477338049471e+01 6.888641341150220399e+01
7.255819680962257046e+00 2.876244060566602556e+01 6.850862050962636829e+01
7.395000468370759528e+00 2.869987189089212620e+01 6.813119753713935722e+01
7.534159765057241387e+00 2.863536990804857396e+01 6.775414148159622130e+01
7.673297299128622129e+00 2.856895592926791494e+01 6.737744930768187146e+01
7.812412813680214008e+00 2.850065121913224431e+01 6.700111795773713652e+01
7.951506066730810396e+00 2.843047703380855751e+01 6.662514435277996938e+01
8.090576830949146370e+00 2.835845462071310763e+01 6.624952539302810806e+01
8.229624892972337236e+00 2.828460521800868221e+01 6.587425795814641560e+01
8.368258423698561543e+00 2.820911728436771071e+01 6.550012956513705831e+01
5.890326561705232500e+00 2.913325886906224227e+01 7.102031474722194559e+01
6.028628195017676994e+00 2.908571523153449334e+01 7.064132704786931072e+01
6.166908493032017269e+00 2.903608843309356757e+01 7.026259981173397762e+01
6.305809780134588038e+00 2.898428539506705448e+01 6.988335907310731443e+01
6.445074494774906348e+00 2.893041369844218025e+01 6.950431853857027420e+01
6.584319462305291637e+00 2.887452341427790259e+01 6.912565666150494792e+01
6.723544336845860947e+00 2.881663583298663767e+01 6.874737050718516684e+01
6.862748788182801540e+00 2.875677224023605660e+01 6.836945711625581623e+01
7.001932502070979503e+00 2.869495391615984303e+01 6.799191350531198452e+01
7.141095180009802590e+00 2.863120213479703224e+01 6.761473666757771639e+01
7.280236538424692760e+00 2.856553816376289490e+01 6.723792357371090134e+01
7.419356309022091978e+00 2.849798326284899019e+01 6.686147117200881951e+01
7.558454238436906003e+00 2.842855868435387734e+01 6.648537638922775272e+01
7.697589362303498994e+00 2.835730341342535610e+01 6.610975685581558992e+01
7.836642457774861015e+00 2.828420331444289459e+01 6.573436702651670771e+01
7.975229651102348605e+00 2.820944135868709424e+01 6.535998476465015017e+01
5.497095371516853568e+00 2.911874872373783063e+01 7.088253691159593473e+01
5.635793715260945191e+00 2.907192120124366141e+01 7.050321612953506190e+01
5.774173484065430628e+00 2.902305511452019715e+01 7.012451672120494095e+01
5.913456674063230167e+00 2.897197106777178277e+01 6.974497594167638681e+01
6.052427132625031625e+00 2.891888130723804906e+01 6.936603794603598772e+01
6.191289623523378971e+00 2.886377233855513325e+01 6.898743846265681157e+01
6.330515899889271658e+00 2.880663601669528973e+01 6.860903243748731484e+01
6.469722236680715000e+00 2.874752350913682974e+01 6.823099900798487738e+01
6.608908308167473322e+00 2.868645609034209087e+01 6.785333519686453485e+01
6.748073804529147068e+00 2.862345502882110182e+01 6.747603800318633205e+01
6.887276875679485322e+00 2.855855921993637736e+01 6.709922520961865189e+01
7.026399914479168451e+00 2.849175478717717880e+01 6.672265119461205529e+01
7.165501538807603765e+00 2.842308046735832150e+01 6.634643465752553482e+01
7.304581498287166852e+00 2.835255750004315800e+01 6.597057251057326255e+01
7.443639556956439307e+00 2.828020711657143949e+01 6.559506164574442266e+01
7.582238921407482124e+00 2.820618924280105588e+01 6.522054769922185358e+01
5.104485373694462425e+00 2.910059455351994728e+01 7.074539536931357020e+01
5.242611287362580086e+00 2.905452046457598314e+01 7.036603702531550653e+01
5.381385460039005864e+00 2.900637178274137540e+01 6.998699543242804566e+01
5.520666871602045944e+00 2.895603774545239162e+01 6.960733620803566168e+01
5.659543215364306157e+00 2.890369054899732149e+01 6.922824023306554864e+01
5.798788334309201709e+00 2.884929955283430658e+01 6.884933992645264311e+01
5.938014314340554378e+00 2.879291097895080398e+01 6.847081502641005102e+01
6.076343237161868416e+00 2.873459157492401062e+01 6.809288231781397371e+01
6.215591191283000860e+00 2.867429374384864360e+01 6.771522349683294806e+01
6.354758037857529018e+00 2.861204385817754314e+01 6.733780501896919191e+01
6.493904479775634009e+00 2.854788140749370484e+01 6.696074997894750425e+01
6.633030226080262715e+00 2.848182764210887896e+01 6.658405533738695681e+01
6.772135000426910523e+00 2.841390380510074820e+01 6.620771803323719951e+01
6.911218541246089586e+00 2.834413113166186804e+01 6.583173498438780769e+01
7.050280601094792488e+00 2.827253084887732015e+01 6.545610308848409886e+01
7.188889854088052367e+00 2.819925676331772024e+01 6.508145280414829870e+01
7.327408980847282649e+00 2.812417895880879470e+01 6.470699363689544725e+01
4.710967707789032843e+00 2.907870579221574303e+01 7.060867828365645948e+01
4.849636385542220651e+00 2.903336964862560876e+01 7.022910027731053617e+01
4.988384372186536631e+00 2.898597071840063677e+01 6.984996290618911985e+01
5.127664163323336410e+00 2.893638695190893628e+01 6.947018490691684178e+01
5.266410823005905684e+00 2.888476667547866228e+01 6.909083134236121282e+01
5.405265890519535432e+00 2.883115147804546297e+01 6.871199529430842290e+01
5.544551317307074179e+00 2.877553354919025708e+01 6.833347819775391940e+01
5.683757408750980566e+00 2.871792051391108203e+01 6.795520503436097215e+01
5.822559087939960243e+00 2.865838405109247589e+01 6.757748360101527396e+01
5.961228756319427724e+00 2.859689597352794621e+01 6.719998627969805227e+01
6.100376605985690759e+00 2.853348476339365192e+01 6.682281100423173825e+01
6.239504224760669793e+00 2.846818206923067152e+01 6.644599597323235685e+01
6.378611325186605008e+00 2.840100912875403694e+01 6.606953813159877598e+01
6.517697634165171117e+00 2.833198717251661236e+01 6.569343440276058743e+01
6.656762893023087990e+00 2.826113742288345421e+01 6.531768169019674986e+01
6.795381339344708671e+00 2.818860758697169189e+01 6.494289522076464038e+01
6.933911170536135593e+00 2.811427221763649698e+01 6.456829650078047678e+01
4.317305744324216654e+00 2.905303729834834670e+01 7.047250427497014869e+01
4.455978261106195326e+00 2.900844697688236451e+01 7.009278854328043451e+01
4.594729165294143769e+00 2.896179499881754182e+01 6.971351671827459029e+01
4.734006025911448923e+00 2.891296369030785129e+01 6.933361997187412840e+01
4.873326340904317711e+00 2.886211131651677420e+01 6.895423402801344537e+01
5.012567668912420338e+00 2.880922079596595609e+01 6.857509520065829633e+01
5.151268710732294309e+00 2.875433543268513148e+01 6.819637606991638279e+01
5.290085297340802128e+00 2.869749925371045052e+01 6.781816848608031023e+01
5.429271687754218867e+00 2.863868288869997158e+01 6.744014497059114888e+01
5.568438915439211989e+00 2.857793243579119036e+01 6.706248760295594025e+01
5.707200925011273185e+00 2.851530159722404179e+01 6.668537584766397686e+01
5.845824496862785047e+00 2.845075997711177251e+01 6.630848275018607296e+01
5.984933062619835376e+00 2.838433832912444288e+01 6.593190461541688308e+01
6.124021289693971859e+00 2.831606749601621331e+01 6.555568044347359091e+01
6.263088908352058226e+00 2.824596869536190979e+01 6.517980714323662994e+01
6.401770442790894577e+00 2.817420852434712586e+01 6.480502624496364206e+01
6.540305525303285350e+00 2.810062124238651293e+01 6.443031356770362095e+01
3.923502658291774470e+00 2.902353123196541773e+01 7.033688286246622567e+01
4.062178156095130888e+00 2.897968702096069293e+01 6.995702966522893007e+01
4.200993890441399259e+00 2.893380226891017060e+01 6.957775777604052792e+01
4.340266419213545390e+00 2.888572390396056377e+01 6.919774167671663179e+01
4.479522154430448211e+00 2.883560509276235706e+01 6.881810624164398860e+01
4.618760682032815090e+00 2.878346709407862392e+01 6.843884858639452773e+01
4.757981603905736989e+00 2.872933116397647524e+01 6.805996580212556069e+01
4.897184537356237044e+00 2.867321855570032341e+01 6.768145495559450353e+01
5.036369115080160164e+00 2.861515051847337787e+01 6.730331308969549298e+01
5.174617252728731742e+00 2.855517970766544167e+01 6.692576681172178610e+01
5.313764684759129331e+00 2.849326833556528982e+01 6.654835285864652406e+01
5.452892799034009030e+00 2.842946521250105008e+01 6.617129884823178543e+01
5.591673695119790288e+00 2.836384643450816156e+01 6.579490972340222754e+01
5.730762805968866225e+00 2.829632541349037922e+01 6.541856460816445917e+01
5.869319133524977694e+00 2.822698847538777045e+01 6.504261199725935683e+01
6.007951544225140772e+00 2.815595264591227576e+01 6.466757479123738506e+01
6.146495692018031143e+00 2.808310870184516261e+01 6.429272296985116952e+01
3.668303394070514756e+00 2.894705681412218823e+01 6.982199975900202560e+01
3.807057441476604076e+00 2.890189589781242319e+01 6.944242972317746876e+01
3.946325051382821858e+00 2.885457050088475484e+01 6.906229554544245275e+01
4.085576435373035054e+00 2.880520457389360445e+01 6.868254181846909034e+01
4.224811169283054113e+00 2.875381936684318518e+01 6.830316566311957160e+01
4.364028844447265243e+00 2.870043612777987008e+01 6.792416417592987443e+01
4.503229067599692215e+00 2.864507610186524644e+01 6.754553442880991554e+01
4.642411460648853350e+00 2.858776053097605541e+01 6.716727347016455951e+01
4.781640823918761107e+00 2.852853385965013899e+01 6.678951243261762727e+01
4.920397016359108200e+00 2.846739740980499889e+01 6.641216439406231586e+01
5.059524263722754434e+00 2.840434463949352661e+01 6.603499012234185273e+01
5.198092050338273040e+00 2.833942531612055760e+01 6.565821586842103841e+01
5.337180368101927641e+00 2.827265430728061091e+01 6.528175163684832683e+01
5.475860999326024547e+00 2.820408835784971657e+01 6.490581948515725230e+01
5.614526963561218942e+00 2.813378921348540018e+01 6.453060845825287117e+01
5.752533686607858243e+00 2.806170547866493692e+01 6.415569915087307606e+01
3.274475067611791079e+00 2.891049347055528429e+01 6.968760538212116273e+01
3.413228640448041418e+00 2.886607964431145845e+01 6.930789675282392182e+01
3.552490589373574981e+00 2.881950760146849788e+01 6.892764511717007281e+01
3.691736882046818824e+00 2.877089495213641257e+01 6.854777370492467981e+01
3.830967084123303668e+00 2.872026293718046830e+01 6.816827964235014292e+01
3.970252666648756090e+00 2.866765787955698386e+01 6.778930584778700563e+01
4.109448980847194122e+00 2.861305103651373116e+01 6.741055678758084468e+01
4.248627994609210923e+00 2.855648852699236429e+01 6.703217630529658777e+01
4.387789334543420239e+00 2.849799158110690200e+01 6.665416143192446441e+01
4.526932642051946232e+00 2.843758142451081383e+01 6.627650917617945936e+01
4.666057573479220899e+00 2.837527927757678015e+01 6.589921652445654843e+01
4.804774345335264485e+00 2.831113317046364841e+01 6.552246526277903627e+01
4.943862473881644348e+00 2.824511254213065214e+01 6.514588192294633018e+01
5.082374811468596043e+00 2.817726553443796078e+01 6.476968859859606198e+01
5.220647782477354504e+00 2.810774768042261940e+01 6.439455214427485430e+01
5.359237987824037042e+00 2.803638686610954878e+01 6.401940574190157918e+01
2.880275526230178240e+00 2.886987981318231533e+01 6.955356891995539570e+01
3.019028501978326950e+00 2.882621391231497299e+01 6.917372676482479221e+01
3.158357907678935650e+00 2.878042105944773255e+01 6.879350884157227597e+01
3.297597301430326144e+00 2.873256194910234385e+01 6.841351889304500844e+01
3.436821178828670220e+00 2.868268339899365316e+01 6.803390606456871126e+01
3.576029111058108612e+00 2.863080663958036354e+01 6.765466746335917492e+01
3.715220684409055618e+00 2.857695289931353955e+01 6.727580017247997546e+01
3.854395500186154511e+00 2.852114340363607070e+01 6.689730125133584693e+01
3.993553174501199621e+00 2.846339937480924220e+01 6.651916773639099745e+01
4.132693338449381137e+00 2.840374203086513560e+01 6.614139664150093267e+01
4.271815637670553834e+00 2.834219258498427152e+01 6.576398495855214321e+01
4.410919732199600318e+00 2.827877224510037024e+01 6.538692965821756786e+01
4.550005296498551566e+00 2.821350221313027262e+01 6.501022769011728997e+01
4.688682174853136431e+00 2.814643092917476608e+01 6.463406105744753916e+01
4.827363354098470616e+00 2.807762211819410680e+01 6.425858537514719160e+01
2.486021710002223717e+00 2.882522528514456894e+01 6.942028347812660627e+01
2.624776382597378888e+00 2.878230733813317954e+01 6.904030283046475347e+01
2.764022737879185510e+00 2.873724242403585905e+01 6.865981593966118623e+01
2.903254610595984442e+00 2.869013680057955185e+01 6.827970880152788880e+01
3.042471547110116248e+00 2.864101169008314685e+01 6.789997855239647606e+01
3.181673109082747697e+00 2.858988831360494132e+01 6.752062230416923683e+01
3.320858872817863627e+00 2.853678789072078104e+01 6.714163714509565750e+01
3.460028429485088264e+00 2.848173163832546351e+01 6.676302013945925751e+01
3.599181385222919527e+00 2.842474077026009738e+01 6.638476832898723501e+01
3.738317360733136585e+00 2.836583649646430416e+01 6.600687873276902451e+01
3.877435991155459227e+00 2.830504002255431573e+01 6.562934834809180984e+01
4.016536926125580109e+00 2.824237254912555173e+01 6.525217415088157225e+01
4.155619829628125927e+00 2.817785527118212840e+01 6.487535309605927125e+01
2.369562688155165908e+00 2.868993855729090470e+01 6.852672493732556802e+01
2.508785922573132154e+00 2.864358655689960997e+01 6.814650101290749262e+01
2.647994807341192303e+00 2.859521503826309896e+01 6.776665373866859454e+01
2.787188894580710397e+00 2.854484521299058741e+01 6.738718023114130062e+01
2.926367751179339116e+00 2.849249829112970644e+01 6.700807758322268626e+01
3.065530958426308850e+00 2.843819548066878156e+01 6.662934286454377286e+01
3.204678112435958681e+00 2.838195798686628990e+01 6.625097312157147655e+01
3.343808823948767106e+00 2.832380701120400701e+01 6.587296537872060753e+01
3.482922718023075959e+00 2.826376375116416995e+01 6.549531663827232819e+01
3.622019433909791086e+00 2.820184939983327865e+01 6.511802388151446053e+01
2.395511569654740658e+00 2.849598757121100334e+01 6.725527671831657983e+01
2.534689656039087247e+00 2.844438925539495955e+01 6.687605960070247590e+01
2.673852539010900475e+00 2.839083497396748967e+01 6.649721021152572575e+01
2.812999806279565806e+00 2.833534592472603819e+01 6.611872560211301675e+01
2.952131060280395847e+00 2.827794330217077245e+01 6.574060280140811585e+01
3.091245917576170843e+00 2.821864829708250255e+01 6.536283881658746964e+01
2.422359717580267802e+00 2.828466582611898517e+01 6.598728835261262304e+01
2.561493361635623245e+00 2.822800910583889333e+01 6.560905164750434437e+01
