8.655841968224178729e+00 2.841872850090599556e+01 6.950151190403201440e+01
8.793689807168103556e+00 2.835544185980416998e+01 6.912576828536596452e+01
8.931522991876834183e+00 2.829020873959504456e+01 6.875037401759823297e+01
7.992854414459731771e+00 2.854509474704778071e+01 7.011421570509820356e+01
8.130737859216335295e+00 2.848649972210553116e+01 6.973764800453980683e+01
8.268607230863894486e+00 2.842591613768177439e+01 6.936143573484561387e+01
8.406462333927347430e+00 2.836336496768029036e+01 6.898557583087584533e+01
8.544302983096340398e+00 2.829886718130242684e+01 6.861006521162468630e+01
8.682129003747020235e+00 2.823244374292132264e+01 6.823490078053680463e+01
8.819940231360989813e+00 2.816411561147575071e+01 6.786007942582300245e+01
8.957736511333909135e+00 2.809390374028521364e+01 6.748559802118184336e+01
7.467108894870719382e+00 2.860335850487226494e+01 7.035186856940239863e+01
7.605011505852270481e+00 2.854751068197953856e+01 6.997482561641140819e+01
7.742900500811253472e+00 2.848965318726195406e+01 6.959814105359883740e+01
7.880775666667035217e+00 2.842980699604429873e+01 6.922181183610908306e+01
8.018636800772025452e+00 2.836799307939992332e+01 6.884583490271009509e+01
8.156483711351867782e+00 2.830423240439905896e+01 6.847020717599122008e+01
8.294316216835429856e+00 2.823854593307903471e+01 6.809492556337480096e+01
8.432134146178773548e+00 2.817095462263397465e+01 6.771998695662554724e+01
8.569937337880919159e+00 2.810147942452668346e+01 6.734538823327483215e+01
8.707725640794206967e+00 2.803014128432002394e+01 6.697112625614293790e+01
8.845498913225092963e+00 2.795696114152959666e+01 6.659719787436881688e+01
8.983497403771515621e+00 2.788192117349318266e+01 6.622348889387455984e+01
6.939835501220298575e+00 2.865472457226249503e+01 7.059016720126470545e+01
7.077752698346364113e+00 2.860164831960164733e+01 7.021264436543427223e+01
7.215656829646961867e+00 2.854654129527917661e+01 6.983548284124898942e+01
7.353547663426476255e+00 2.848942447390460586e+01 6.945867960468771685e+01
7.491424978841032534e+00 2.843031882713997760e+01 6.908223161467093121e+01
7.629288565757516238e+00 2.836924532262481335e+01 6.870613581404647618e+01
7.767138224504422261e+00 2.830622492442087079e+01 6.833038912948012467e+01
7.904973766006087921e+00 2.824127859177936983e+01 6.795498847216343563e+01
8.042795011319563869e+00 2.817442727902662014e+01 6.757993073801765149e+01
8.180601791454623850e+00 2.810569193537206090e+01 6.720521280831282240e+01
8.318393947491328433e+00 2.803509350403550471e+01 6.683083154988555918e+01
8.456171329992324459e+00 2.796265292239518274e+01 6.645678381576536253e+01
8.593933799104954474e+00 2.788839112145583599e+01 6.608306644550221165e+01
8.731380470846804798e+00 2.781243288052477070e+01 6.571013385639054150e+01
6.413056748963227527e+00 2.869898334585819910e+01 7.082875371314435142e+01
6.550373882964764860e+00 2.864881374972776484e+01 7.045157267029470916e+01
6.688291754248321119e+00 2.859647867414550504e+01 7.007393152512305790e+01
6.826196893391854204e+00 2.854211271231528713e+01 6.969665158061218335e+01
6.964089061020717786e+00 2.848573683501002662e+01 6.931972981676409518e+01
7.101968028874598104e+00 2.842737200988699797e+01 6.894316319653479752e+01
7.239833578974837813e+00 2.836703920121068379e+01 6.856694866661757715e+01
7.377685504180506726e+00 2.830475936959475192e+01 6.819108315752623639e+01
7.515523607638161074e+00 2.824055347106571645e+01 6.781556358449748245e+01
7.653347702719082157e+00 2.817444245714527540e+01 6.744038684748791468e+01
7.791157612753476513e+00 2.810644727435482793e+01 6.706554983149142402e+01
7.928953171053873206e+00 2.803658886353904123e+01 6.669104940735331866e+01
8.066734220732763916e+00 2.796488815970873887e+01 6.631688243208540712e+01
8.204500614114891732e+00 2.789136609170578751e+01 6.594304574889761739e+01
8.341991126532374068e+00 2.781615506881180622e+01 6.557006329265803402e+01
5.886554388936821702e+00 2.873618574240816059e+01 7.106846765784796105e+01
6.023816332545117724e+00 2.868881332885633029e+01 7.069078132604620635e+01
6.161064595588011450e+00 2.863936752922904461e+01 7.031337749678931459e+01
6.298727388956391948e+00 2.858779306121137154e+01 6.993573911633821183e+01
6.436632999583271619e+00 2.853416841549478633e+01 6.955834091264685526e+01
6.574525972336861201e+00 2.847853374288526851e+01 6.918130077803662914e+01
6.712406071297240651e+00 2.842091000709109139e+01 6.880461567955677538e+01
6.850273070888534654e+00 2.836131816865736965e+01 6.842828256780387619e+01
6.988126756247320159e+00 2.829977918440656381e+01 6.805229837730799147e+01
7.125966923073201009e+00 2.823631400709802364e+01 6.767666002701847106e+01
7.263793376883128872e+00 2.817094358530859921e+01 6.730136442090727655e+01
7.401605933448061059e+00 2.810368886223266216e+01 6.692640844797254829e+01
7.539404418524604523e+00 2.803457077620258531e+01 6.655178898285183209e+01
7.677228183835666186e+00 2.796362208738356969e+01 6.617758336934372210e+01
7.814997742049907714e+00 2.789084014212859586e+01 6.580362683411114233e+01
7.952457172034899102e+00 2.781635369139139513e+01 6.543043687616676607e+01
5.496889278511235766e+00 2.872171734599188753e+01 7.093117889563062306e+01
5.634415504907297034e+00 2.867506292939577506e+01 7.055323225295670397e+01
5.771729891010287439e+00 2.862636485784679863e+01 7.017580871973663648e+01
5.909647095508820058e+00 2.857551030421452154e+01 6.979793205625092867e+01
6.047356344616687807e+00 2.852264753615870063e+01 6.942056395602399732e+01
6.184994142148919849e+00 2.846777432747008874e+01 6.904352716143787916e+01
6.322874984792847819e+00 2.841089201819685783e+01 6.866672389325820802e+01
6.460743050553809930e+00 2.835204149012455588e+01 6.829027249998992488e+01
6.598598116844982542e+00 2.829124369632805980e+01 6.791416992027635047e+01
6.736439971819430994e+00 2.822851958584740117e+01 6.753841307689089035e+01
6.874307376619657184e+00 2.816390185902425003e+01 6.716307941521243663e+01
7.012121921186111884e+00 2.809738803498478532e+01 6.678800411094137246e+01
7.149922678738402482e+00 2.802901070833888042e+01 6.641326522048369441e+01
7.287709476958111665e+00 2.795879080882877332e+01 6.603885960881549977e+01
7.425482153170959165e+00 2.788674926084762618e+01 6.566478412746295135e+01
7.562949506404987865e+00 2.781299945170070131e+01 6.529146812394790800e+01
5.107639237462975323e+00 2.870363297807996616e+01 7.079450301400905232e+01
5.244783653008386892e+00 2.865772143741732236e+01 7.041649307424366100e+01
5.382360784192670167e+00 2.860974222272758638e+01 7.003880316221869862e+01
5.520276612268030902e+00 2.855962826233492891e+01 6.966080927969044012e+01
5.657922927342871056e+00 2.850750112389821567e+01 6.928329760411035920e+01
5.795815619439467881e+00 2.845334715045620300e+01 6.890602200490175733e+01
5.933696073727036335e+00 2.839720392676720095e+01 6.852910123104003048e+01
6.070979006007911849e+00 2.833912272128267418e+01 6.815267872927597637e+01
6.208875136588667409e+00 2.827907857286576032e+01 6.777654122048862462e+01
6.346717700871685963e+00 2.821709583321836234e+01 6.740066526524613266e+01
6.484547162050422919e+00 2.815320759879580237e+01 6.702513185009834729e+01
6.622363320820174870e+00 2.808743480657258829e+01 6.664993787232464229e+01
6.760165987551273403e+00 2.801979838870050088e+01 6.627508021472479527e+01
6.897954982530726475e+00 2.795031927204124500e+01 6.590055574602520494e+01
7.035730135396527807e+00 2.787901837811821082e+01 6.552636132148940362e+01
7.173203890158701412e+00 2.780600501464514807e+01 6.515291617029886595e+01
7.310618028631521881e+00 2.773119934103919704e+01 6.477969221969696889e+01
4.717785039659355029e+00 2.868185437514382841e+01 7.065830163253762919e+01
4.855291107128146599e+00 2.863667538495040432e+01 7.028010699540702433e+01
4.992850590157691393e+00 2.858943659156708961e+01 6.990231497542607997e+01
5.130765147115557312e+00 2.854006339863929043e+01 6.952420365387789047e+01
5.268324815337270373e+00 2.848866146045244108e+01 6.914648199610746815e+01
5.405957282313023526e+00 2.843526527309697371e+01 6.876921098017227507e+01
5.543877176971383491e+00 2.837987639966017284e+01 6.839225715283595264e+01
5.681744697533987143e+00 2.832250669360738726e+01 6.801556942540732109e+01
5.819343120693306837e+00 2.826321071096165127e+01 6.763935191927684798e+01
5.956854042012952100e+00 2.820197643028529910e+01 6.726338514593203399e+01
6.094684250890460397e+00 2.813882960979577064e+01 6.688773331805448663e+01
6.232501467140446394e+00 2.807379811865378016e+01 6.651242082485489959e+01
6.370305493791070361e+00 2.800690288536935668e+01 6.613744455316584947e+01
6.508096143376780773e+00 2.793816483377774063e+01 6.576280137534040193e+01
6.645873238082058876e+00 2.786760488218897081e+01 6.538848815056449837e+01
6.783352930963139293e+00 2.779532827208112877e+01 6.501491395354310043e+01
6.920774014890756831e+00 2.772125814212433426e+01 6.464155871198697412e+01
4.327835612982811497e+00 2.865633355676556704e+01 7.052265667551343142e+01
4.465344049004130511e+00 2.861189236825491022e+01 7.014433196568694484e+01
4.602905286229429294e+00 2.856539212987836152e+01 6.976641205401638501e+01
4.740817698707632033e+00 2.851676116250523307e+01 6.938818331191608024e+01
4.878759613002878304e+00 2.846611174634451658e+01 6.901040181217562974e+01
5.016649396141612982e+00 2.841343926381063767e+01 6.863289068757219979e+01
5.154179510021529964e+00 2.835877935435675568e+01 6.825576391501093099e+01
5.291787169860534767e+00 2.830216813944030108e+01 6.787908165148687090e+01
5.429641876369479370e+00 2.824359280886664791e+01 6.750262450146077242e+01
5.567484313092808001e+00 2.818309086489412607e+01 6.712651277477063161e+01
5.705057104407515567e+00 2.812070487904935945e+01 6.675086503790932113e+01
5.842538098575190020e+00 2.805642135750784760e+01 6.637546224462404609e+01
5.980342911313223375e+00 2.799026757281629685e+01 6.600036752167792997e+01
6.118134648795980901e+00 2.792227085687747845e+01 6.562560579268239280e+01
6.255913125901372496e+00 2.785245212484127109e+01 6.525117392032441899e+01
6.393434686727262672e+00 2.778092921159808526e+01 6.487756518164242436e+01
6.530859080702190234e+00 2.770759839349100773e+01 6.450409571276908594e+01
3.937793088294516242e+00 2.862701407691027811e+01 7.038757733314415077e+01
4.075303320830086840e+00 2.858331088230712780e+01 7.000912272385262725e+01
4.212907587360932737e+00 2.853756271484011364e+01 6.963116451359368853e+01
4.350816921109029956e+00 2.848967429677371044e+01 6.925281794707775873e+01
4.488715591420298523e+00 2.843975450924157400e+01 6.887483186409599512e+01
4.626603316821876533e+00 2.838782429488574977e+01 6.849720326509634560e+01
4.764479826570491738e+00 2.833390459445098486e+01 6.811992913438369612e+01
4.902344860170824603e+00 2.827801634690021615e+01 6.774300643996299698e+01
5.040198167386773065e+00 2.822018048844891780e+01 6.736643213389699270e+01
5.177427686619154201e+00 2.816043889277695911e+01 6.699035621118117945e+01
5.315257235439419858e+00 2.809877313817685973e+01 6.661446875333101048e+01
5.453074400422672774e+00 2.803522253490070071e+01 6.623892042895452903e+01
5.590660575879859984e+00 2.796984458380543970e+01 6.586391345686814702e+01
5.728452711745910975e+00 2.790258832949358592e+01 6.548903284320962825e+01
5.865890137316651654e+00 2.783351809275851352e+01 6.511450984130624420e+01
6.003378758116760139e+00 2.776271866077485129e+01 6.474069197499159145e+01
6.140809004812020966e+00 2.769012398819677401e+01 6.436709148756743559e+01
3.685213819180343187e+00 2.855089106321479164e+01 6.987459952450134892e+01
3.822776770284402659e+00 2.850586603984161371e+01 6.949640429401830488e+01
3.960682633988547696e+00 2.845872018735650499e+01 6.911794075279496496e+01
4.098578212648689600e+00 2.840954290956240413e+01 6.873983755274605301e+01
4.236463218122035634e+00 2.835835514319545680e+01 6.836209169787971973e+01
4.374337372598176898e+00 2.830517782371991586e+01 6.798470017611991523e+01
4.512200408533128204e+00 2.825003188464349790e+01 6.760765995883994606e+01
4.650052068465901911e+00 2.819293825735070413e+01 6.723096800180971400e+01
4.787935547279174031e+00 2.813393334156675962e+01 6.685471065027842030e+01
4.925504078906072003e+00 2.807302478870333218e+01 6.647882887964155429e+01
5.063320475115169472e+00 2.801021500752901616e+01 6.610316212529457403e+01
5.200764386792181782e+00 2.794554394641370365e+01 6.572786014468069027e+01
5.338555803134618749e+00 2.787902828715374071e+01 6.535286186436555056e+01
5.476075906984016584e+00 2.781071262976647773e+01 6.497831424613816864e+01
5.613586706007479776e+00 2.774064490812359907e+01 6.460434224343524079e+01
5.750658478738572832e+00 2.766879762860995839e+01 6.423066517624870642e+01
3.295156286641193866e+00 2.851457310103685572e+01 6.974070291671411326e+01
3.432718730565360588e+00 2.847028672464097099e+01 6.936237703481594963e+01
3.570620629449049677e+00 2.842388369511233392e+01 6.898379693251338551e+01
3.708512623097879324e+00 2.837544918935760663e+01 6.860557701981645096e+01
3.846394416515535930e+00 2.832500413795364835e+01 6.822771430436675644e+01
3.984313651765837516e+00 2.827258619300465625e+01 6.785030298855801334e+01
4.122173890898129578e+00 2.821818296277582050e+01 6.747314497342055972e+01
4.260023107172807855e+00 2.816183196329490812e+01 6.709633507819772547e+01
4.397861046295613363e+00 2.810355411807126558e+01 6.671987024698297830e+01
4.535687463801297170e+00 2.804337034764054337e+01 6.634374740911964352e+01
4.673502125252813499e+00 2.798130156895118859e+01 6.596796347897104340e+01
4.811045169623509032e+00 2.791738657224243170e+01 6.559263857075268334e+01
4.948836268987762743e+00 2.785161175358710040e+01 6.521752262909754450e+01
5.086243986279064266e+00 2.778401597759197372e+01 6.484276263999737466e+01
5.223492599018236149e+00 2.771470970311507998e+01 6.446880209654989358e+01
5.360953169116024597e+00 2.764358495750636635e+01 6.409492871026770899e+01
2.904852303720118822e+00 2.847426099168821167e+01 6.960725066813694184e+01
3.042414158752217990e+00 2.843071381910998241e+01 6.922879751324985875e+01
3.180360838052624040e+00 2.838507083649848894e+01 6.885020163008151428e+01
3.318248041586884245e+00 2.833737927693489311e+01 6.847186443742999984e+01
3.456125427752446910e+00 2.828767712236243526e+01 6.809388428891246292e+01
3.593992705305405710e+00 2.823598529648690914e+01 6.771625817953945159e+01
3.731849593072703808e+00 2.818232472170902625e+01 6.733898308818665157e+01
3.869695819890769606e+00 2.812671631835738140e+01 6.696205597792389597e+01
4.007531124434133396e+00 2.806918100473949451e+01 6.658547379656066312e+01
4.145355255432921382e+00 2.800973969631008842e+01 6.620923347680061966e+01
4.283167971280369635e+00 2.794841330525618162e+01 6.583333193670142691e+01
4.420969039933067002e+00 2.788522274030024661e+01 6.545776608024503673e+01
4.558758238999033985e+00 2.782018890612018325e+01 6.508253279731152929e+01
4.696275459302091448e+00 2.775335086621651115e+01 6.470775234686502131e+01
4.833796020065646459e+00 2.768475787399607313e+01 6.433352739566480238e+01
2.514513178001482441e+00 2.842994314446304571e+01 6.947450769328439435e+01
2.652075973464919301e+00 2.838713519472211999e+01 6.909592395424317601e+01
2.789967094986123719e+00 2.834221809152390747e+01 6.871711050360745787e+01
2.927849093697322935e+00 2.829526944348636874e+01 6.833865692875191655e+01
3.065721661773410656e+00 2.824631016892209701e+01 6.796056024403098661e+01
3.203584501688498509e+00 2.819536118523662793e+01 6.758281744751282361e+01
3.341437325578575646e+00 2.814244340894718732e+01 6.720542552159710681e+01
3.479279855490058804e+00 2.808757775471697471e+01 6.682838143253951557e+01
3.617111823515279490e+00 2.803078513520673098e+01 6.645168213169149851e+01
3.754932971422090926e+00 2.797208646044286695e+01 6.607532455524601289e+01
3.892743050570306007e+00 2.791150263760287586e+01 6.569930562489454928e+01
4.030541822017053022e+00 2.784905457051703337e+01 6.532362224808771600e+01
4.168329056418750511e+00 2.778476315928808305e+01 6.494827131820618149e+01
2.399491153236777308e+00 2.829528548219393613e+01 6.858463208105037268e+01
2.537367202282088119e+00 2.824907983646640730e+01 6.820606239287167227e+01
2.675234211727461897e+00 2.820086354337539802e+01 6.782784943564573155e+01
2.813091877653806971e+00 2.815065751409372297e+01 6.744999021049420662e+01
2.950939905986226020e+00 2.809848265871980288e+01 6.707248170284846367e+01
3.088778012150872776e+00 2.804435988601252205e+01 6.669532088266251435e+01
3.226605921523972409e+00 2.798831010294419386e+01 6.631850470434764588e+01
3.364423369265844510e+00 2.793035421386933947e+01 6.594203010771374807e+01
3.502230100048717265e+00 2.787051312050944674e+01 6.556589401771489634e+01
3.640025867973194273e+00 2.780880772175551741e+01 6.519009334540963607e+01
2.424471582169827055e+00 2.810206321927400097e+01 6.731840296187772310e+01
2.562318906159391840e+00 2.805062802152997392e+01 6.694077988533499024e+01
2.700156605340600535e+00 2.799724485511165994e+01 6.656350436235048562e+01
2.837984399419710702e+00 2.794193462198402500e+01 6.618657335064200709e+01
2.975802018020263784e+00 2.788471822188051519e+01 6.580998379297207634e+01
3.113609200117447351e+00 2.782561655208833429e+01 6.543373261759164450e+01
2.450056105286845032e+00 2.789148163441265638e+01 6.605539930254174408e+01
2.587875126423749172e+00 2.783500308942592838e+01 6.567869555283623129e+01
