9.383423488602067764e+00 2.780216995873848518e+01 6.986576436410088320e+01
9.655194033894382244e+00 2.767169745422927107e+01 6.911975145776850127e+01
1.006281609182816972e+01 2.746168142613870700e+01 6.800311752284311240e+01
9.271494491813431438e+00 2.768658277654057187e+01 6.897869878763167151e+01
9.950865837216964493e+00 2.733087327570891389e+01 6.711857116636551268e+01
1.008670313383370498e+01 2.725421424629542599e+01 6.674745850622146293e+01
8.480239102743823310e+00 2.788669812842170970e+01 6.995830459181243555e+01
8.616099738731044511e+00 2.782583969437649785e+01 6.958459871578300238e+01
8.751957917192026315e+00 2.776302518390104268e+01 6.921121377366648630e+01
8.887813581244209615e+00 2.769827507262376187e+01 6.883814657212455757e+01
9.023666676895420125e+00 2.763160983459701470e+01 6.846539391403699426e+01
9.159517152296839271e+00 2.756304994279634002e+01 6.809295259830500413e+01
7.553130597270255819e+00 2.811351069772161893e+01 7.131699226592941443e+01
7.960652369414932927e+00 2.795113152836194459e+01 7.019276965562454507e+01
8.096516685354083975e+00 2.789297490282638492e+01 6.981862454533495566e+01
8.232378656315972876e+00 2.783284169087044191e+01 6.944480353993640165e+01
8.368238221506835828e+00 2.777075236877007214e+01 6.907130345094395807e+01
8.504095322374086052e+00 2.770672741147560814e+01 6.869812108598117106e+01
8.639949903261754827e+00 2.764078729280533153e+01 6.832525324878419326e+01
8.775801910965247643e+00 2.757295248514393649e+01 6.795269673920574860e+01
8.911651294683476721e+00 2.750324345954630445e+01 6.758044835362045433e+01
9.183402138357902089e+00 2.735827515893092965e+01 6.683683716837794009e+01
9.319243141506603934e+00 2.728306603883352466e+01 6.646549404864208554e+01
9.726408316499545847e+00 2.704686520728639465e+01 6.535358323621454701e+01
9.862126603439611117e+00 2.696464106973983021e+01 6.498350009131405614e+01
7.305044924908031589e+00 2.806223935428413085e+01 7.080321647891564396e+01
7.440914568142679819e+00 2.800882310336806569e+01 7.042829836467559801e+01
7.576782060813067154e+00 2.795338927806988494e+01 7.005371069642785642e+01
7.712647334927813070e+00 2.789595835554048620e+01 6.967945029502470788e+01
7.848510325216758510e+00 2.783655081248607743e+01 6.930551397712727635e+01
7.984370968793006007e+00 2.777518712424998171e+01 6.893189855530252430e+01
8.120229205712966802e+00 2.771188776539976217e+01 6.855860083792281046e+01
8.256084978433857913e+00 2.764667320901975955e+01 6.818561762986870178e+01
8.391938232269692932e+00 2.757956392720849337e+01 6.781294573173138929e+01
8.527788914545229915e+00 2.751058039048167103e+01 6.744058194091870462e+01
8.663636975548552499e+00 2.743974306788000561e+01 6.706852305086073329e+01
8.799482367781273240e+00 2.736707242708240173e+01 6.669676585171720262e+01
8.935385141167877521e+00 2.729257924507329491e+01 6.632527937276863383e+01
6.920798844380074755e+00 2.805968877886562396e+01 7.066479970271618072e+01
7.056668356761591099e+00 2.800699907850041015e+01 7.028976589678356390e+01
7.192535800211740771e+00 2.795229177336979376e+01 6.991506251018724072e+01
7.328401104731618432e+00 2.789558733977614935e+01 6.954068636487193089e+01
7.464264203035257950e+00 2.783690625343499292e+01 6.916663427829273303e+01
7.600125030514378821e+00 2.777626898875620398e+01 6.879290306411162703e+01
7.735983525101105762e+00 2.771369601963021623e+01 6.841948953179502269e+01
7.871839627526521888e+00 2.764920781851984444e+01 6.804639048701585580e+01
8.007693280979891526e+00 2.758282485665665718e+01 6.767360273155441064e+01
8.143544431063656219e+00 2.751456760414301428e+01 6.730112306360319963e+01
8.279393026047833004e+00 2.744445652935887736e+01 6.692894827767138111e+01
8.415239016423081253e+00 2.737251209937379670e+01 6.655707516489134434e+01
8.551082355151239156e+00 2.729875477966395891e+01 6.618550051302554493e+01
8.686847809236700968e+00 2.722323099778119015e+01 6.581433550427263413e+01
8.958404179999121197e+00 2.706687855758915617e+01 6.507282157660010569e+01
9.094099613448843655e+00 2.698609863709527801e+01 6.470246819147877204e+01
6.400810871015806924e+00 2.810362067756454962e+01 7.090219301921109718e+01
6.536528728641191499e+00 2.805372410650694093e+01 7.052691607234866922e+01
6.672397980262080530e+00 2.800176102101137587e+01 7.015176661360575849e+01
6.808265246372963375e+00 2.794778030202882135e+01 6.977694754637803953e+01
6.944130454980179223e+00 2.789180242505250362e+01 6.940245569369102441e+01
7.079993537093649536e+00 2.783384786464674931e+01 6.902828787408370204e+01
7.215854425993709853e+00 2.777393709452767112e+01 6.865444090210439754e+01
7.351713057895127079e+00 2.771209058764868871e+01 6.828091158810656225e+01
7.487569371509540161e+00 2.764832881559143019e+01 6.790769673884938129e+01
7.623423308104770868e+00 2.758267224896131964e+01 6.753479315719698661e+01
7.759274811363368940e+00 2.751514135718870691e+01 6.716219764212284815e+01
7.895123827538467864e+00 2.744575660813476148e+01 6.678990698921333546e+01
8.030970305408191123e+00 2.737453846820218573e+01 6.641791799067135571e+01
8.166814195828724365e+00 2.730150740225144901e+01 6.604622743502440585e+01
8.302590180783093743e+00 2.722671174547795303e+01 6.567496388393951179e+01
8.438341493096070067e+00 2.715013897020901723e+01 6.530394850834331066e+01
8.574142012586397854e+00 2.707180649342823742e+01 6.493319203716453103e+01
8.709839364525263861e+00 2.699175071712340568e+01 6.456271893104072035e+01
8.845481099362684674e+00 2.690999472783401814e+01 6.419255520370585089e+01
5.880896129784205506e+00 2.814057605242703985e+01 7.114069702378699844e+01
6.016598538836279708e+00 2.809346047483908393e+01 7.076496274331154268e+01
6.152298749422002722e+00 2.804428617343226193e+01 7.038954402437232716e+01
6.288103802189097813e+00 2.799305456042784002e+01 7.001430918118455793e+01
6.423970756795817749e+00 2.793980049107369368e+01 6.963937447376171974e+01
6.559835737384215548e+00 2.788454923579631739e+01 6.926476695283416518e+01
6.695698672974310206e+00 2.782732126824777197e+01 6.889048343811420239e+01
6.831559494947133437e+00 2.776813706128934101e+01 6.851652074512595902e+01
6.967418137511829812e+00 2.770701708677663788e+01 6.814287568530200190e+01
7.103274537668299971e+00 2.764398181554950540e+01 6.776954506617961727e+01
7.239128634570782594e+00 2.757905171762714858e+01 6.739652569170181096e+01
7.374980370087015125e+00 2.751224726130816478e+01 6.702381436191814146e+01
7.510829688656150971e+00 2.744358891397564904e+01 6.665140787328796534e+01
7.646686416133916531e+00 2.737310009832089364e+01 6.627932313963593458e+01
7.782530668462476875e+00 2.730079538365714598e+01 6.590751654550278715e+01
7.918298453433725292e+00 2.722672219044784825e+01 6.553611504344169703e+01
8.054051369485639711e+00 2.715087437311632357e+01 6.516498067916896275e+01
8.189789702113413838e+00 2.707327808159316618e+01 6.479414181556984431e+01
8.325486593778071764e+00 2.699394770215315731e+01 6.442355291437965548e+01
8.461196951171201519e+00 2.691290334754360813e+01 6.405322891256257378e+01
5.496580139002809062e+00 2.812617027937297465e+01 7.100414187168264846e+01
5.632348189376823910e+00 2.807977552162394375e+01 7.062825643808918130e+01
5.768064501427572210e+00 2.803132947283669907e+01 7.025274671753415134e+01
5.903932727677204895e+00 2.798081915887862792e+01 6.987736622811273435e+01
6.039750162604172523e+00 2.792829687953967621e+01 6.950235297100600462e+01
6.175550920087229834e+00 2.787377731084252375e+01 6.912766020960947344e+01
6.311413612148212060e+00 2.781727602044921710e+01 6.875326107691455491e+01
6.447274271363451881e+00 2.775881846160613975e+01 6.837918273799748192e+01
6.583132829861245483e+00 2.769842510530701674e+01 6.800542200539408100e+01
6.718989222754857771e+00 2.763611642138685198e+01 6.763197568744773491e+01
6.854853128029914089e+00 2.757191581765606259e+01 6.725886072360310663e+01
6.990704931246527920e+00 2.750583790669619688e+01 6.688603348543534821e+01
7.126554388634600556e+00 2.743790606980972058e+01 6.651351106492091958e+01
7.262401444964527997e+00 2.736814077200719453e+01 6.614129025617887692e+01
7.398246047492739841e+00 2.729656247726190799e+01 6.576936785004073727e+01
7.534015383901246921e+00 2.722321476505017657e+01 6.539784876103698252e+01
5.112370033115744228e+00 2.810819061491999094e+01 7.086816448105226129e+01
5.248042201477096214e+00 2.806252289667932942e+01 7.049217714763591403e+01
5.383823770423167510e+00 2.801479788270689752e+01 7.011651475690467805e+01
5.519691223267007452e+00 2.796501403765873306e+01 6.974101888717260067e+01
5.655492495310717516e+00 2.791321698624955516e+01 6.936588366067758216e+01
5.791356547134867583e+00 2.785941854688904940e+01 6.899104512257544286e+01
5.927218712806759271e+00 2.780364334849179997e+01 6.861653053798501389e+01
6.062932659276977887e+00 2.774591944082067130e+01 6.824237334646899455e+01
6.198801054547166345e+00 2.768625581639144073e+01 6.786851780597216077e+01
6.334657195392921381e+00 2.762467379577958937e+01 6.749495563466153669e+01
6.470511185462605397e+00 2.756119688574895221e+01 6.712170465682459053e+01
6.606362962930043992e+00 2.749584555326814694e+01 6.674876167473115629e+01
6.742212468237818612e+00 2.742864026410012457e+01 6.637612348695620312e+01
6.878059644457681365e+00 2.735960148261030866e+01 6.600378688848130082e+01
7.013904436849132118e+00 2.728874967197955215e+01 6.563174867099735366e+01
7.149674944264675425e+00 2.721612739163628802e+01 6.526011121952471683e+01
7.285431600307880728e+00 2.714172991438480054e+01 6.488874009389924424e+01
4.592270130676978646e+00 2.812944473949153590e+01 7.110920356210849036e+01
4.728011037464838751e+00 2.808657724953595647e+01 7.073273665585941217e+01
4.863773189507036854e+00 2.804163398943759944e+01 7.035661707255175656e+01
4.999549917114422648e+00 2.799463540131677064e+01 6.998084307928151304e+01
5.135416622803889553e+00 2.794557806873482164e+01 6.960523177431947772e+01
5.271195803834316962e+00 2.789450363791311105e+01 6.922995797672686535e+01
5.406994370003255668e+00 2.784143596567424339e+01 6.885503450896806044e+01
5.542865966467846128e+00 2.778639067536504470e+01 6.848042558545898828e+01
5.678725630708497008e+00 2.772938596315184867e+01 6.810611601197683740e+01
5.814519169823326727e+00 2.767045070076541080e+01 6.773215439666921611e+01
5.950291970553237775e+00 2.760959711542132666e+01 6.735848344528299947e+01
6.086145718247614411e+00 2.754684687939894161e+01 6.698511678878861630e+01
6.221997330710111740e+00 2.748222219278844491e+01 6.661205810228872792e+01
6.357846746697767948e+00 2.741574352029233808e+01 6.623930418551645971e+01
6.493693907194194814e+00 2.734743132566943657e+01 6.586685183421009526e+01
6.629538755670514760e+00 2.727730607114724393e+01 6.549469784111612114e+01
6.765310318390784339e+00 2.720540929974528055e+01 6.512294205271078340e+01
6.901068281422689132e+00 2.713173702885608307e+01 6.475145202879674855e+01
7.036813273748314224e+00 2.705631589204449838e+01 6.438025817096800552e+01
4.343630415970703318e+00 2.806127794439139223e+01 7.059788527632835553e+01
4.479392730851032844e+00 2.801706045531372880e+01 7.022164709929673165e+01
4.615169467632357581e+00 2.797078782646959283e+01 6.984575505762910552e+01
4.751035207901908031e+00 2.792245737080130752e+01 6.947002832197901512e+01
4.886909521150720082e+00 2.787211239108613015e+01 6.909465348841889920e+01
5.022771986985403281e+00 2.781976696557766005e+01 6.871958391794305498e+01
5.158545708955382558e+00 2.776544523686418842e+01 6.834484568265273197e+01
5.294339978640134170e+00 2.770917146803507336e+01 6.797045139959672611e+01
5.430197159292370124e+00 2.765095768911666241e+01 6.759634379776520063e+01
5.566052409573202020e+00 2.759082850854853319e+01 6.722255053249266155e+01
5.701841373501879140e+00 2.752880980178733950e+01 6.684909882327733044e+01
5.837608501143797035e+00 2.746491342810196201e+01 6.647593148628101289e+01
5.973457684353306263e+00 2.739916143835407425e+01 6.610306188106947900e+01
6.109304687448995352e+00 2.733157589816936905e+01 6.573049381649559564e+01
6.245149452225343012e+00 2.726217726906032013e+01 6.535822408595610966e+01
6.380931052631815703e+00 2.719101024247452258e+01 6.498637358666060493e+01
6.516689413800548003e+00 2.711806412014775347e+01 6.461476893036727631e+01
3.959228733298628899e+00 2.803223834432757045e+01 7.046361903916104552e+01
4.094991067932521212e+00 2.798874667432678365e+01 7.008726231178815169e+01
4.230778132740232955e+00 2.794320338373502821e+01 6.971127461992341523e+01
4.366642673952257248e+00 2.789559988599342688e+01 6.933543235261943494e+01
4.502505746905074879e+00 2.784597863396039230e+01 6.895992029777399068e+01
4.638367269005469140e+00 2.779436009609643676e+01 6.858473528314908663e+01
4.774227160567622974e+00 2.774076474016274574e+01 6.820987413277092060e+01
4.910085344392705942e+00 2.768521303370005526e+01 6.783533366651575136e+01
5.045941745846692861e+00 2.762772544341223124e+01 6.746111070019925648e+01
5.181643337454788778e+00 2.756832767044424060e+01 6.708724031037029079e+01
5.317496061459855206e+00 2.750703034209421460e+01 6.671364259535775432e+01
5.453346802505667945e+00 2.744385851850017488e+01 6.634035280003863022e+01
5.589140897019965415e+00 2.737884180775136045e+01 6.596741905706703335e+01
5.724987570411477655e+00 2.731198270349839774e+01 6.559473519577740319e+01
5.860746643004162593e+00 2.724331251881462634e+01 6.522235660737656815e+01
5.996519578954189633e+00 2.717286768306871281e+01 6.485036775062290815e+01
6.132278974003004812e+00 2.710064691772419465e+01 6.447864426414186312e+01
3.574816755433487092e+00 2.799940898992407412e+01 7.032998088677696558e+01
3.710579456845085833e+00 2.795664243685369499e+01 6.995349917275034102e+01
3.846355763496100533e+00 2.791182125288540306e+01 6.957736615027958749e+01
3.982219007897136898e+00 2.786494471706412668e+01 6.920140856382374750e+01
4.118080878562172309e+00 2.781605041306560011e+01 6.882578115416151832e+01
4.253941291380508360e+00 2.776515880772386424e+01 6.845048075001993482e+01
4.389800164824544382e+00 2.771229036762997922e+01 6.807550417640497642e+01
4.525657419933282632e+00 2.765746555881087332e+01 6.770084825388499894e+01
4.661512980191475641e+00 2.760070484691267723e+01 6.732650979927741730e+01
4.797377632319792973e+00 2.754203256444169057e+01 6.695250797676960985e+01
4.933164672726517708e+00 2.748146585705083211e+01 6.657882560801039062e+01
5.069014792203792474e+00 2.741902055958225404e+01 6.620542012972364887e+01
5.204772891473045782e+00 2.735472189185342629e+01 6.583232655907016806e+01
5.340618955683654967e+00 2.728858925696343718e+01 6.545952720564139327e+01
5.476398268471004194e+00 2.722064903764161770e+01 6.508705638760953605e+01
5.612176319676869696e+00 2.715092845008090094e+01 6.471494292120880232e+01
5.747845666934643383e+00 2.707943585352749238e+01 6.434311421431218037e+01
6.019294905281844521e+00 2.693120176195352045e+01 6.360023097221012023e+01
6.154947955370881019e+00 2.685451553165219352e+01 6.322923963905154210e+01
6.290668328995881353e+00 2.677613944579857375e+01 6.285852819339237385e+01
3.326178115185298267e+00 2.792069254675921286e+01 6.982034921860352483e+01
3.461953865741340230e+00 2.787659734513524157e+01 6.944409745780399135e+01
3.597815689562262609e+00 2.783044783557808088e+01 6.906802465552834747e+01
3.733676234674469629e+00 2.778228054518940127e+01 6.869228199215410768e+01
3.869535415103884102e+00 2.773211593911341311e+01 6.831686629739168382e+01
4.005405129441458989e+00 2.767997866317616484e+01 6.794179869971449648e+01
4.141261255974532318e+00 2.762588085216895450e+01 6.756702725218013939e+01
4.277115776018201920e+00 2.756984711774872565e+01 6.719257323754943911e+01
4.412968613923903050e+00 2.751189792351781804e+01 6.681843346957074914e+01
4.548819696425324466e+00 2.745205373233513413e+01 6.644460475852990555e+01
4.684668952913202844e+00 2.739033500601279414e+01 6.607108391074275744e+01
4.820451406055877186e+00 2.732676667491060485e+01 6.569789853271318236e+01
4.956296961646940780e+00 2.726136057077177455e+01 6.532498368832439439e+01
5.092047748494765713e+00 2.719414164232299314e+01 6.495237370209935079e+01
5.227759823829559060e+00 2.712515273715376907e+01 6.458017702496248091e+01
5.363525941054006374e+00 2.705438209460159271e+01 6.420821316281693214e+01
2.805956165391132462e+00 2.792214765356785122e+01 7.006449300971324590e+01
2.941717469955029696e+00 2.788083275944705264e+01 6.968777329040923973e+01
3.077492643913054771e+00 2.783746367930249477e+01 6.931140363588747277e+01
3.213365233613155958e+00 2.779204550207462532e+01 6.893524081284537885e+01
3.349224151821720952e+00 2.774460526868372412e+01 6.855938275400750115e+01
3.485081801138111501e+00 2.769516770741560663e+01 6.818385162542811884e+01
3.620938096676351581e+00 2.764375328184672753e+01 6.780864425380987370e+01
3.756792956068176093e+00 2.759038245530225453e+01 6.743375746174666574e+01
3.892646299447692027e+00 2.753507569043934566e+01 6.705918806780597663e+01
4.028498049333533615e+00 2.747785344963487475e+01 6.668493288681516162e+01
4.164348130908230416e+00 2.741873619447752475e+01 6.631098872975015013e+01
4.300196471695092448e+00 2.735774438566404498e+01 6.593735240392535957e+01
4.436043001533266583e+00 2.729489848310006295e+01 6.556402071328626846e+01
4.571887652749758502e+00 2.723021894560504563e+01 6.519099045810287407e+01
4.707665385975522199e+00 2.716373077177912876e+01 6.481828928099125164e+01
4.843445019016411557e+00 2.709546150769901729e+01 6.444594042644119725e+01
2.557250380000370527e+00 2.783701993344076087e+01 6.955584401602109779e+01
2.693025359766230142e+00 2.779437697960553066e+01 6.917935563991079562e+01
2.828883630646530811e+00 2.774968159275597657e+01 6.880305234952686533e+01
2.964740818349330898e+00 2.770296840784659054e+01 6.842707911958798661e+01
3.100596833768352489e+00 2.765425788718052402e+01 6.805143278148274533e+01
3.236451590597124728e+00 2.760357049268415608e+01 6.767611016252820377e+01
3.372305004719644117e+00 2.755092668628679675e+01 6.730110808634927366e+01
3.508156994497514614e+00 2.749634692930424507e+01 6.692642337215987425e+01
3.644007480953819655e+00 2.743985168262668495e+01 6.655205283574787245e+01
3.779856387455522881e+00 2.738146140641071824e+01 6.617799328896150257e+01
3.915703639692576399e+00 2.732119656017571785e+01 6.580424154009863003e+01
4.051549165854263279e+00 2.725907760260425761e+01 6.543079439389693164e+01
4.187392896604687387e+00 2.719512499144702034e+01 6.505764865142654685e+01
2.308527596095569123e+00 2.774727418169733539e+01 6.904791115031346749e+01
2.444383850859194407e+00 2.770330586954848329e+01 6.867149279663759387e+01
2.580239121845522288e+00 2.765731975581660151e+01 6.829540446281791333e+01
2.716093318306865623e+00 2.760933630104385017e+01 6.791964298111143705e+01
2.851946352263451612e+00 2.755937596574843340e+01 6.754420517952355851e+01
2.987798138196556152e+00 2.750745921010495110e+01 6.716908788228711558e+01
3.123648592737718221e+00 2.745360649402812925e+01 6.679428790984063369e+01
3.259497635155992779e+00 2.739783827706105157e+01 6.641980207851190698e+01
3.395345187241461282e+00 2.734017501786733462e+01 6.604562720120343045e+01
3.531191173087179447e+00 2.728063717452736014e+01 6.567176008687872013e+01
3.667035519068298832e+00 2.721924520463887731e+01 6.529819754125240650e+01
1.924428839778790978e+00 2.769616842951652202e+01 6.891728769946450939e+01
2.060351374766864474e+00 2.765292782640107561e+01 6.854072388937343874e+01
2.467911600942456651e+00 2.751117669136850097e+01 6.741309232721943090e+01
2.603762781339848065e+00 2.745998617073249193e+01 6.703786031228375464e+01
2.739612704835150403e+00 2.740685967682791713e+01 6.666294558858761832e+01
2.875461289129927600e+00 2.735181766787100344e+01 6.628834497343549970e+01
3.011308454630066134e+00 2.729488060144512929e+01 6.591405528031800998e+01
3.147154123929361891e+00 2.723606893459708544e+01 6.554007331909791390e+01
1.540570275756147245e+00 2.764097448075506591e+01 6.878730769988852956e+01
2.084051625394596208e+00 2.745888693667503588e+01 6.728265677329957839e+01
2.219902530602973378e+00 2.740842223967625912e+01 6.690731022487005930e+01
2.355752245497999553e+00 2.735602155734091312e+01 6.653228093688093736e+01
2.491600686846711099e+00 2.730170534685316142e+01 6.615756572743543984e+01
2.627447773605937176e+00 2.724549406480647917e+01 6.578316141083406876e+01
2.899137571737527175e+00 2.712746810893886718e+01 6.503527269486552598e+01
1.971926783901577940e+00 2.730102422352777580e+01 6.640226356080123082e+01
1.068417932303373785e+00 2.722855475360142918e+01 6.651958996167908822e+01
