8.708831607548356502e+00 2.920924690961199133e+01 6.939072948836403043e+01
8.849332327136206544e+00 2.914533076100833497e+01 6.901184096763192599e+01
8.989802206053665756e+00 2.907945362889009289e+01 6.863334394489646684e+01
8.035790474519464155e+00 2.933704570529555866e+01 7.000947710439641014e+01
8.176366091032669203e+00 2.927786614781105712e+01 6.962967928347963209e+01
8.316911996927789374e+00 2.921668206676355339e+01 6.925027866139122068e+01
8.457427817154695049e+00 2.915351509956057541e+01 6.887127233745168553e+01
8.597913197392680118e+00 2.908838687440485415e+01 6.849265737914937802e+01
8.738367804394037819e+00 2.902131900974264767e+01 6.811443082287360085e+01
8.878791325221977004e+00 2.895233311325150183e+01 6.773658967464599812e+01
9.019183466867820798e+00 2.888145078127042353e+01 6.735913091126369068e+01
7.502034663841438800e+00 2.939607237354453417e+01 7.024996217570479473e+01
7.642650765904541288e+00 2.933967255385907436e+01 6.986964550972281529e+01
7.783238055322506455e+00 2.928124629622390884e+01 6.948972873169768150e+01
7.923796121934069348e+00 2.922081524078859971e+01 6.911020898141816815e+01
8.064324576744050788e+00 2.915840101959984310e+01 6.873108336592018475e+01
8.204823052203737532e+00 2.909402525639811543e+01 6.835234896008243766e+01
8.345291201370860890e+00 2.902770956515807299e+01 6.797400280804960460e+01
8.485728698057545927e+00 2.895947554986795325e+01 6.759604192315109117e+01
8.626135235661839928e+00 2.888934480325336551e+01 6.721846328974966411e+01
8.766510527788415885e+00 2.881733890624004957e+01 6.684126386318587265e+01
8.906854307150183558e+00 2.874347942745919227e+01 6.646444057123761695e+01
9.047647087243031905e+00 2.866771041138636633e+01 6.608776825534910415e+01
6.965217710340596113e+00 2.944810563012498861e+01 7.049065719932940510e+01
7.105865153792729316e+00 2.939451397440329572e+01 7.010981565696855000e+01
7.246484868893923625e+00 2.933887399115835848e+01 6.972937661599797821e+01
7.387076408352951873e+00 2.928120731940921218e+01 6.934933725777544566e+01
7.527639346582064128e+00 2.922153559207995599e+01 6.896969472984186211e+01
7.668173279415031907e+00 2.915988043444962585e+01 6.859044614729296541e+01
7.808677823708845445e+00 2.909626346414174591e+01 6.821158859306027011e+01
7.949152617312176261e+00 2.903070628945874176e+01 6.783311911902686120e+01
8.089597318439128770e+00 2.896323050885324335e+01 6.745503474663532018e+01
8.230011605309245581e+00 2.889385771034412187e+01 6.707733246792562909e+01
8.370395176082658040e+00 2.882260947027100784e+01 6.670000924617112048e+01
8.510747748084650510e+00 2.874950735309036531e+01 6.632306201693072012e+01
8.651069057709911192e+00 2.867457291051166735e+01 6.594648768880442447e+01
8.790757352993606943e+00 2.859803539084953883e+01 6.557119832588108466e+01
6.429384586226454701e+00 2.949280023691639840e+01 7.073083463838871410e+01
6.568834088729528453e+00 2.944226660735553480e+01 7.035111480088940539e+01
6.709483452896643385e+00 2.938943554499100586e+01 6.997015140714611903e+01
6.850105756083709529e+00 2.933455592603057127e+01 6.958959029292438458e+01
6.990700535741435573e+00 2.927764938162005137e+01 6.920942864752817059e+01
7.131267351249195308e+00 2.921873753687399144e+01 6.882966362646961045e+01
7.271805782949675390e+00 2.915784201012136734e+01 6.845029235263515943e+01
7.412315432561013218e+00 2.909498441218950049e+01 6.807131191675247806e+01
7.552795922476322588e+00 2.903018634503142792e+01 6.769271937869496014e+01
7.693246895538162988e+00 2.896346940139055093e+01 6.731451176787582824e+01
7.833668014606952390e+00 2.889485516390966069e+01 6.693668608398284903e+01
7.974058962407746698e+00 2.882436520407807734e+01 6.655923929820662011e+01
8.114419441165527047e+00 2.875202108171747639e+01 6.618216835397080899e+01
8.254749171829784515e+00 2.867784434431157337e+01 6.580547016739521382e+01
8.394525720864749019e+00 2.860207949992361520e+01 6.543019583761608260e+01
5.894098734473643297e+00 2.953033199571632395e+01 7.097216183659591593e+01
6.033440057490235375e+00 2.948261713421265995e+01 7.059187276969241509e+01
6.172752390476023976e+00 2.943280933695809409e+01 7.021182212667864064e+01
6.312892171312784129e+00 2.938077772892274098e+01 6.983097902987641703e+01
6.453515989966541966e+00 2.932665898138957417e+01 6.945029616449369314e+01
6.594112952273721184e+00 2.927051308567053667e+01 6.907001254497326670e+01
6.734682602394481243e+00 2.921236165888218750e+01 6.869012533481354410e+01
6.875224505477069314e+00 2.915222631181474000e+01 6.831063166470774206e+01
7.015738247894639734e+00 2.909012864791312580e+01 6.793152863331597757e+01
7.156223436946403282e+00 2.902609026249604440e+01 6.755281330813696172e+01
7.296679699966256649e+00 2.896013274221719414e+01 6.717448272651454033e+01
7.437106684596122008e+00 2.889227766346532178e+01 6.679653389604509073e+01
7.577504058349208371e+00 2.882254659250516937e+01 6.641896379560367336e+01
7.717950540771331802e+00 2.875098473946714250e+01 6.604193034228744352e+01
7.858287173499815204e+00 2.867756648675719333e+01 6.566510721892227309e+01
7.998002130169798107e+00 2.860252902598278979e+01 6.528953265313353427e+01
5.497301464522471370e+00 2.951578010148377373e+01 7.083389492756123218e+01
5.637171925614594237e+00 2.946877947309154777e+01 7.045320000611341982e+01
5.776617077120573818e+00 2.941974537119359567e+01 7.007322472267325963e+01
5.917266252617640276e+00 2.936843183132904400e+01 6.969201982710185916e+01
6.057497920633375443e+00 2.931511507831739749e+01 6.931151193604797811e+01
6.197585104897838981e+00 2.925977034964017776e+01 6.893134976387575819e+01
6.338156814985695497e+00 2.920238001519371807e+01 6.855134098171643586e+01
6.478701422807619181e+00 2.914300552814910716e+01 6.817172551597984409e+01
6.619218499489964103e+00 2.908166848435612195e+01 6.779250047345270502e+01
6.759707637238863143e+00 2.901839047179480247e+01 6.741366292948177374e+01
6.900246374739313460e+00 2.895321658084850114e+01 6.703537100402486715e+01
7.040677907772225019e+00 2.888612153936957228e+01 6.665729827828273812e+01
7.181080398876805937e+00 2.881715022637776258e+01 6.627960409456737523e+01
7.321453519616222927e+00 2.874632419125754268e+01 6.590228541233101112e+01
7.461796960741918561e+00 2.867366497229525280e+01 6.552533916402590819e+01
7.601528336409975495e+00 2.859937903390140690e+01 6.514962727449579916e+01
5.101331509925950414e+00 2.949755612895992840e+01 7.069628772461810229e+01
5.240438921716773280e+00 2.945131949173464392e+01 7.031558097638733784e+01
5.380410135885340672e+00 2.940300134275516797e+01 6.993518770263739270e+01
5.521057130936061874e+00 2.935244722856985433e+01 6.955386313638086904e+01
5.661163503385741258e+00 2.929987997409642730e+01 6.917318286202072386e+01
5.801761049178935536e+00 2.924525195521241017e+01 6.879265784800351469e+01
5.942332554954072421e+00 2.918861803113440345e+01 6.841252882178007155e+01
6.081707468315824094e+00 2.913006042856534705e+01 6.803308590635195685e+01
6.222307245977334311e+00 2.906950891483152333e+01 6.765390577317725729e+01
6.362798374843372962e+00 2.900699188313672039e+01 6.727494477269226536e+01
6.503261797500845987e+00 2.894255521619160376e+01 6.689636810779667542e+01
6.643697131340349671e+00 2.887622047764517319e+01 6.651817280244928554e+01
6.784104013302547642e+00 2.880800922150099908e+01 6.614035585174960374e+01
6.924482099961452697e+00 2.873794299128249108e+01 6.576291422275042464e+01
7.064831066793056280e+00 2.866604331963642593e+01 6.538584485547879410e+01
7.204575818017402433e+00 2.859250851199029597e+01 6.500998943799773144e+01
7.344199933063043417e+00 2.851715857657839237e+01 6.463429505409393983e+01
4.704150375918709770e+00 2.947555720928765766e+01 7.055905493477527557e+01
4.843981663956293815e+00 2.943006391230080965e+01 7.017809355921404801e+01
4.983918154215381868e+00 2.938250484523418038e+01 6.979761083695214552e+01
5.124563179531114621e+00 2.933271050517858214e+01 6.941616615995579309e+01
5.264496830674540995e+00 2.928087189050488348e+01 6.903518068861494328e+01
5.404574498726047338e+00 2.922703768299395222e+01 6.865477960844457073e+01
5.545225457642765754e+00 2.917119069872034487e+01 6.827469924267190038e+01
5.685770119967973990e+00 2.911333433421477324e+01 6.789484064331463742e+01
5.825775055186613649e+00 2.905355739122330050e+01 6.751561528275369994e+01
5.965603470625904237e+00 2.899181551677059687e+01 6.713658741346407055e+01
6.106068961080921120e+00 2.892813991699153675e+01 6.675788869040897566e+01
6.246506982380894080e+00 2.886256601980755931e+01 6.637957112160979989e+01
6.386917156582139654e+00 2.879511537213871364e+01 6.600163171003170248e+01
6.527299124953560572e+00 2.872580951125548054e+01 6.562406743018078714e+01
6.667652547964117105e+00 2.865466996357793761e+01 6.524687522982900134e+01
6.807409747726278937e+00 2.858188690186225855e+01 6.487087648798619455e+01
6.947048326181513467e+00 2.850728629314866325e+01 6.449503428957396522e+01
4.306775875665622699e+00 2.944974103993112990e+01 7.042235187442688016e+01
4.446612473208261029e+00 2.940500158550982235e+01 7.004124512087390997e+01
4.586553044358858244e+00 2.935819786775672213e+01 6.966062138253278135e+01
4.727194353115264924e+00 2.930916621811046952e+01 6.927905663183216234e+01
4.867893068805757117e+00 2.925811088668903537e+01 6.889806624385126099e+01
5.008485941683226805e+00 2.920500232812127450e+01 6.851729971374437866e+01
5.148357911443059542e+00 2.914989151101350728e+01 6.813698822482184880e+01
5.288383424821069489e+00 2.909283036798059996e+01 6.775725532067373535e+01
5.428901499138958364e+00 2.903377296853329170e+01 6.737766543972153954e+01
5.569393517785615089e+00 2.897277400668825109e+01 6.699846243114124889e+01
5.709344745615031691e+00 2.890989831539872412e+01 6.661988665741864679e+01
5.849110895150379186e+00 2.884509859671569743e+01 6.624150325574809983e+01
5.989523213926447376e+00 2.877840908543258891e+01 6.586344170915585039e+01
6.129907930591962817e+00 2.870986413515495173e+01 6.548575509426478902e+01
6.270264690802743957e+00 2.863948526588254495e+01 6.510844036614885511e+01
6.410106198854525594e+00 2.856748783709616646e+01 6.473248730828484554e+01
6.549751969904380466e+00 2.849364409128201459e+01 6.435653142263815596e+01
3.909212228289032698e+00 2.942004838702055736e+01 7.028618839178831479e+01
4.049052991360174936e+00 2.937606315961425807e+01 6.990493660660524711e+01
4.189080193521865780e+00 2.933004182298023110e+01 6.952435103848738152e+01
4.329715917318059937e+00 2.928177351114742066e+01 6.914266540635550484e+01
4.470328717440597899e+00 2.923145567628314367e+01 6.876138061919199629e+01
4.610918047243752760e+00 2.917910989327149451e+01 6.838049390769270985e+01
4.751483381240982240e+00 2.912475773350196562e+01 6.800000246986741104e+01
4.892024214541649485e+00 2.906842076450043066e+01 6.761990347122601008e+01
5.032540062773547263e+00 2.901012054849783439e+01 6.724019404549397905e+01
5.171806818838308395e+00 2.894992052255392068e+01 6.686117741226237854e+01
5.312272134078839692e+00 2.888776353295371990e+01 6.648223696396203763e+01
5.452711197645344399e+00 2.882370789010139944e+01 6.610367726750904183e+01
5.592686814359720593e+00 2.875784828521088343e+01 6.572590598993629385e+01
5.733072900191822363e+00 2.869006249748717607e+01 6.534809637311927588e+01
5.872748129733303735e+00 2.862045885801702383e+01 6.497071415321246945e+01
6.012524330333521405e+00 2.854918663104970022e+01 6.459445760748319287e+01
6.152182379224041320e+00 2.847609341549354767e+01 6.421835445213488924e+01
3.651392968960685881e+00 2.934322256502958481e+01 6.976939999350270227e+01
3.791338112668805493e+00 2.929792575578323266e+01 6.938845515233661843e+01
3.931967468777096020e+00 2.925042081441300823e+01 6.900665033808994053e+01
4.072574658097380507e+00 2.920086623822480831e+01 6.862524608419211347e+01
4.213159120444071704e+00 2.914928359049091355e+01 6.824423962835942348e+01
4.353720316296353587e+00 2.909569443183982784e+01 6.786362817573984785e+01
4.494257726666256225e+00 2.904012031908699498e+01 6.748340889877988502e+01
4.634770852831804788e+00 2.898258280460140668e+01 6.710357893851941924e+01
4.775346100558347295e+00 2.892313437773352192e+01 6.672431421495683423e+01
4.915289953812144397e+00 2.886177003090666204e+01 6.634549990848309164e+01
5.055728052330338507e+00 2.879847427145803351e+01 6.596681811938914564e+01
5.195419713884363411e+00 2.873330668582740799e+01 6.558857159216138655e+01
5.335804933069236533e+00 2.866628032740748466e+01 6.521064140933110309e+01
5.475646091668033399e+00 2.859746408593295541e+01 6.483332472417633596e+01
5.615467221114958996e+00 2.852693351884720130e+01 6.445687467307050156e+01
5.754408894477144543e+00 2.845461332871991544e+01 6.408073312549743150e+01
3.253793848582388293e+00 2.930641384007371286e+01 6.963450784752822642e+01
3.393738550330721804e+00 2.926187256398194592e+01 6.925341647083189400e+01
3.534360549298099841e+00 2.921513150782466539e+01 6.887149330182677431e+01
3.674961140995758768e+00 2.916634071491521496e+01 6.848997039003290865e+01
3.815539751731071849e+00 2.911552173640729180e+01 6.810884498033351520e+01
3.956191681531675108e+00 2.906272956610931146e+01 6.772830870701601214e+01
4.096724070796259554e+00 2.900791911025164183e+01 6.734796860174111544e+01
4.237232882045614879e+00 2.895114509068982045e+01 6.696801753239545008e+01
4.377717622791227114e+00 2.889242904414253488e+01 6.658845261686595052e+01
4.518177820302594405e+00 2.883179250138108785e+01 6.620927094323928941e+01
4.658613021705627411e+00 2.876925698620237526e+01 6.583046956994206766e+01
4.798503521047019049e+00 2.870487976868486513e+01 6.545229195480537498e+01
4.938888678775525953e+00 2.863861333067420389e+01 6.507424121679510165e+01
5.078505636658128708e+00 2.857051509128394784e+01 6.469661455719474930e+01
5.217802965936472859e+00 2.850078565773015526e+01 6.432030219199980081e+01
5.357522806532050375e+00 2.842918877471272765e+01 6.394388277353543515e+01
2.855698748740237658e+00 2.926549863467641899e+01 6.949988717177386377e+01
2.995642845204435911e+00 2.922171400551996356e+01 6.911865601639971146e+01
3.136354977305247704e+00 2.917577128239697615e+01 6.873681605306302345e+01
3.276946561273768488e+00 2.912774462126979103e+01 6.835517334866000283e+01
3.417516929904893530e+00 2.907768967562487106e+01 6.797392784022494538e+01
3.558065516810811513e+00 2.902562798267381794e+01 6.759307674717891246e+01
3.698591775745407428e+00 2.897158107691805284e+01 6.721261725677329935e+01
3.839095180481539415e+00 2.891557048891476356e+01 6.683254652474779789e+01
3.979575224568265845e+00 2.885761774487898990e+01 6.645286167622131757e+01
4.120031421465841781e+00 2.879774436542017924e+01 6.607355980620124569e+01
4.260463304060738920e+00 2.873597186471236498e+01 6.569463798040285951e+01
4.400870424466133635e+00 2.867232174990049387e+01 6.531609323619008478e+01
4.541252353998068259e+00 2.860681552014036200e+01 6.493792258292306485e+01
4.681088890404182301e+00 2.853951099213301745e+01 6.456036976803004279e+01
4.820930688131293884e+00 2.847048636239214403e+01 6.418364335462959502e+01
2.457530242002964993e+00 2.922050742582609573e+01 6.936605926296880398e+01
2.597476791729838475e+00 2.917747948154423909e+01 6.898468170668634514e+01
2.738078380772247300e+00 2.913226675654781417e+01 6.860252137571491460e+01
2.878660127494645948e+00 2.908500415767273850e+01 6.822076067430384683e+01
3.019221432446821396e+00 2.903571321124419313e+01 6.783939686076197972e+01
3.159761716476996884e+00 2.898441544197325470e+01 6.745842716082566426e+01
3.300280420057151609e+00 2.893113237249437475e+01 6.707784876859419398e+01
3.440777003480118168e+00 2.887588552193395230e+01 6.669765884637901365e+01
3.581250946930559120e+00 2.881869640531346377e+01 6.631785452628298572e+01
3.721701750044182244e+00 2.875958653248573782e+01 6.593843291029202192e+01
3.862128931740612003e+00 2.869857740750575559e+01 6.555939107128908461e+01
4.002532030234106308e+00 2.863569052773407009e+01 6.518072605367541428e+01
4.142910602837501344e+00 2.857094738307617021e+01 6.480243487391236101e+01
2.339634223073554953e+00 2.908459163238786971e+01 6.846881779360076337e+01
2.480204642864176190e+00 2.903809327733281620e+01 6.808693963294332718e+01
2.620755402954923152e+00 2.898956653315079990e+01 6.770545804169145754e+01
2.761285911507613378e+00 2.893903291188744831e+01 6.732437025178839463e+01
2.901795596372452213e+00 2.888651392353961000e+01 6.694367346359690885e+01
3.042283904701745367e+00 2.883203107532504106e+01 6.656336484642503137e+01
3.182750303347944509e+00 2.877560587078838594e+01 6.618344153879529301e+01
3.323194278631689258e+00 2.871725980853867455e+01 6.580390064972748121e+01
3.463615335997434652e+00 2.865701438181889316e+01 6.542473925882977426e+01
3.604012999846388343e+00 2.859489107791103990e+01 6.504595441761928498e+01
2.366551557139654260e+00 2.888991192314800216e+01 6.719215047475545077e+01
2.507060405918783097e+00 2.883815048925994518e+01 6.681133931606996157e+01
2.647548472681200415e+00 2.878442509282331940e+01 6.643091606070095168e+01
2.788015213139420911e+00 2.872875722746805138e+01 6.605087785358401220e+01
2.928460102540527910e+00 2.867116838246102617e+01 6.567122180984415536e+01
3.068882635034894779e+00 2.861168004207666726e+01 6.529194501558329478e+01
2.394663329873690127e+00 2.867785001782531396e+01 6.591917740268350201e+01
2.535111596847497761e+00 2.862101512225185829e+01 6.553940774217247167e+01
