8.722079017379401833e+00 2.940687651178848938e+01 6.936303388444703444e+01
8.863242957128232291e+00 2.934280298630937622e+01 6.898335913819840925e+01
9.004372009597874538e+00 2.927676485121385497e+01 6.860408642672102530e+01
8.046524489534396807e+00 2.953503344485750404e+01 6.998329245422097245e+01
8.187773148986753569e+00 2.947570775423744038e+01 6.960268710321457775e+01
8.328988188443762652e+00 2.941437354903399637e+01 6.922248939302761528e+01
8.470169187961531065e+00 2.935105263253064933e+01 6.884269646409563848e+01
8.611315750966765492e+00 2.928576679768046276e+01 6.846330542103055450e+01
8.752427504555793547e+00 2.921853782644797803e+01 6.808431333345779990e+01
8.893504098687223802e+00 2.914938748869543872e+01 6.770571723685173993e+01
9.034545205751298269e+00 2.907833754151672778e+01 6.732751413378414895e+01
7.510766106084118654e+00 2.959425084071260059e+01 7.022448557728039020e+01
7.652060580917608767e+00 2.953771302182896008e+01 6.984335048305065641e+01
7.793322443950319922e+00 2.947914457346439576e+01 6.946262565122239607e+01
7.934551235750828546e+00 2.941856730197467229e+01 6.908230826774544653e+01
8.075746520737057565e+00 2.935600300464982482e+01 6.870239548172270361e+01
8.216907887416704526e+00 2.929147346939787866e+01 6.832288440610524560e+01
8.358034947504718204e+00 2.922500047317782901e+01 6.794377211921830906e+01
8.499127336027239465e+00 2.915660578167644701e+01 6.756505566478247715e+01
8.640184710107069677e+00 2.908631114793503514e+01 6.718673205386836855e+01
8.781206749536966782e+00 2.901413831172005686e+01 6.680879826494661700e+01
8.922193155631456207e+00 2.894010899894159294e+01 6.643125124545481697e+01
9.063684508110910087e+00 2.886415772085966225e+01 6.605383809571775089e+01
6.971563262620670720e+00 2.964645089459061467e+01 7.046577969884558001e+01
7.112893267654320617e+00 2.959273038810371048e+01 7.008410847985211944e+01
7.254191878705664287e+00 2.953695716512815395e+01 6.970285005968521830e+01
7.395458594584571443e+00 2.947915303078536198e+01 6.932200167104737432e+01
7.536692938517322915e+00 2.941933978331495325e+01 6.894156050863459484e+01
7.677894457829411046e+00 2.935753921240582898e+01 6.856152373060459126e+01
7.819062723509951240e+00 2.929377309907196292e+01 6.818188845895529937e+01
7.960197330138697680e+00 2.922806321387858119e+01 6.780265178074272114e+01
8.101297895219019551e+00 2.916043131630989649e+01 6.742381074878973379e+01
8.242364058772901458e+00 2.909089915408713622e+01 6.704536238282884142e+01
8.383395483230490441e+00 2.901948846182988362e+01 6.666730367024250370e+01
8.524391852607731579e+00 2.894622096076415829e+01 6.628963156722204531e+01
8.665352872361150816e+00 2.887111835777562874e+01 6.591234299962997056e+01
8.805601573530308812e+00 2.879443601843073353e+01 6.553646444325372045e+01
6.433466545542261272e+00 2.969125445968094823e+01 7.070635486969980832e+01
6.573449140170719573e+00 2.964062982176247729e+01 7.032600033353807589e+01
6.714781377558723285e+00 2.958767476270238106e+01 6.994420637765188076e+01
6.856082971756673139e+00 2.953266672945939320e+01 6.956282497100242779e+01
6.997353404421615686e+00 2.947562751827256022e+01 6.918185335521918944e+01
7.138592181842844830e+00 2.941657891862073981e+01 6.880128873395329947e+01
7.279798833943385006e+00 2.935554271234903823e+01 6.842112827413956211e+01
7.420972914656140063e+00 2.929254067283818941e+01 6.804136910655904558e+01
7.562114001185862300e+00 2.922759456352285667e+01 6.766200832724433667e+01
7.703221693742933418e+00 2.916072613745187070e+01 6.728304299797281374e+01
7.844295615070321581e+00 2.909195713629836888e+01 6.690447014710569817e+01
7.985335410246215737e+00 2.902130928921283726e+01 6.652628677091995257e+01
8.126340746273717386e+00 2.894880431221966077e+01 6.614848983444215946e+01
8.267311311258506379e+00 2.887446390746302072e+01 6.577107627201961293e+01
8.407659369447843645e+00 2.879856060770156745e+01 6.539522897385558053e+01
5.895984820857848696e+00 2.972886855904336301e+01 7.094808538128290820e+01
6.035845988726515010e+00 2.968106808555174325e+01 7.056714563060396017e+01
6.175674339198026885e+00 2.963116978889035380e+01 7.018643328415096505e+01
6.316433366901882174e+00 2.957902389585058245e+01 6.980478900826096833e+01
6.457736737562360219e+00 2.952478162286326935e+01 6.942328497745540972e+01
6.599009697257936402e+00 2.946850792136685371e+01 6.904219048670742609e+01
6.740251735168791392e+00 2.941022457182995709e+01 6.866150274862773983e+01
6.881462364124202757e+00 2.934995334760408525e+01 6.828121893893371919e+01
7.022641120806469850e+00 2.928771601378976541e+01 6.790133619731797410e+01
7.163787565414703629e+00 2.922353432634555048e+01 6.752185162841658439e+01
7.304901280737039038e+00 2.915743003144434553e+01 6.714276230291635272e+01
7.445981872383137912e+00 2.908942486377348757e+01 6.676406525806322634e+01
7.587028968305359555e+00 2.901954054658081716e+01 6.638575749879161947e+01
7.728131130005248650e+00 2.894782540248803215e+01 6.600801708552337743e+01
7.869109531362291854e+00 2.887424807291434092e+01 6.563047731512506289e+01
8.009388369703522415e+00 2.879907285963064112e+01 6.525430659737523342e+01
5.497404511025280271e+00 2.971429579035674706e+01 7.080957393554389512e+01
5.637861030791418315e+00 2.966720860901549273e+01 7.042819194440259878e+01
5.777838873648145857e+00 2.961809049953029316e+01 7.004757872340741187e+01
5.919171041894845331e+00 2.956666221310767284e+01 6.966554176981458113e+01
6.060033314637547797e+00 2.951323196385707348e+01 6.928424893105398041e+01
6.200732845585068986e+00 2.945776935518270179e+01 6.890330541448521728e+01
6.341977272533907417e+00 2.940025201444293046e+01 6.852249525383098216e+01
6.483191015871072160e+00 2.934074653765524587e+01 6.814208876997732034e+01
6.624373595151209493e+00 2.927927468136313749e+01 6.776208311174680432e+01
6.765524553593721180e+00 2.921585819328165456e+01 6.738247539262950170e+01
6.906731124269228417e+00 2.915054526130456480e+01 6.700344390122796767e+01
7.047816904418752415e+00 2.908330491546577079e+01 6.662462182011807954e+01
7.188869828911406579e+00 2.901418510588748489e+01 6.624618881308830964e+01
7.329889530280750520e+00 2.894320753686473680e+01 6.586814186320988540e+01
7.470875662634658632e+00 2.887039390015716123e+01 6.549047792316663674e+01
7.611173043911222180e+00 2.879597392945158063e+01 6.511416706213277905e+01
5.099754578041693520e+00 2.969603691667991896e+01 7.067173390227036123e+01
5.239352738893869876e+00 2.964971900531397253e+01 7.029035295192325350e+01
5.379922473808508521e+00 2.960131612276206425e+01 6.990928383774206623e+01
5.521252260603069395e+00 2.955065197012858746e+01 6.952712660055348692e+01
5.661973647396458809e+00 2.949797468664598199e+01 6.914565417649831147e+01
5.803247406613802895e+00 2.944322815640146018e+01 6.876431680877895758e+01
5.944491675260831443e+00 2.938647155722620496e+01 6.838338571946508182e+01
6.084389583892802378e+00 2.932779485538601705e+01 6.800318770062095552e+01
6.225665273324501925e+00 2.926711650032296319e+01 6.762324691134941190e+01
6.366818543336294489e+00 2.920446589561631257e+01 6.724351464955380209e+01
6.507940456363451531e+00 2.913989212054055500e+01 6.686417717222126100e+01
6.649030583970393593e+00 2.907341689541332030e+01 6.648523153498044280e+01
6.790088519740365314e+00 2.900506192970112451e+01 6.610667476100580586e+01
6.931113879319133808e+00 2.893484892109280082e+01 6.572850384193172601e+01
7.072106299642188176e+00 2.886279955501597883e+01 6.535071573897614883e+01
7.212418799982078355e+00 2.878913438632658384e+01 6.497425775492246203e+01
7.352595409170923801e+00 2.871364838546319120e+01 6.459794576269317190e+01
4.700741709983548233e+00 2.967398291782361497e+01 7.053424326033467651e+01
4.841154303163330397e+00 2.962841104413841009e+01 7.015259020016581815e+01
4.981685045229805375e+00 2.958077190865095574e+01 6.977143480233367256e+01
5.123012687635004170e+00 2.953087228181340507e+01 6.938915678647525453e+01
5.263539834508858206e+00 2.947892449801799586e+01 6.900735536174181561e+01
5.404228802829303291e+00 2.942498078546819684e+01 6.862617176551263753e+01
5.545562527810611542e+00 2.936901927348538877e+01 6.824530976513088376e+01
5.686776475576470702e+00 2.931104124436662062e+01 6.786465844779147005e+01
5.827383038809940352e+00 2.925114406128871281e+01 6.748468112362292004e+01
5.967790827779142049e+00 2.918927528839191865e+01 6.710488798034707258e+01
6.108915138628535857e+00 2.912546749379048094e+01 6.672542753349759437e+01
6.250008361191005335e+00 2.905975799509600677e+01 6.634635869579852852e+01
6.391070072279907421e+00 2.899216849383105554e+01 6.596767849924815152e+01
6.532099870347756188e+00 2.892272068062491641e+01 6.558938394389089410e+01
6.673097375434632106e+00 2.885143623392518109e+01 6.521147199964512708e+01
6.813423951917063626e+00 2.877852655930754011e+01 6.483486712159697163e+01
6.953616904004202404e+00 2.870379333090474461e+01 6.445840318397070234e+01
4.301510941336324834e+00 2.964809291072252151e+01 7.039727567415523879e+01
4.441929579259292993e+00 2.960327888982354949e+01 7.001547340967064770e+01
4.582464983891215482e+00 2.955639930222631406e+01 6.963417371466186978e+01
4.723788516717172925e+00 2.950726748201177685e+01 6.925177496181117931e+01
4.865176432756476821e+00 2.945611067177516418e+01 6.886998235177016170e+01
5.006445078068630039e+00 2.940289309419893016e+01 6.848840197028742693e+01
5.146902511798441715e+00 2.934766955017769519e+01 6.810729430227458181e+01
5.287532488561203614e+00 2.929049592511567468e+01 6.772679873797045502e+01
5.428716404831328113e+00 2.923131800844995354e+01 6.734642567428672066e+01
5.569870818958817082e+00 2.917019479213678324e+01 6.696644984523391031e+01
5.710416655916910500e+00 2.910719667448606529e+01 6.658714206229596755e+01
5.850754094294177143e+00 2.904226790651765810e+01 6.620801350852910616e+01
5.991818289579753376e+00 2.897544446358666193e+01 6.582921025602533405e+01
6.132851251040957408e+00 2.890676245472432271e+01 6.545079241966038808e+01
6.273852582028086822e+00 2.883624355114286075e+01 6.507275697760495348e+01
6.414274076886341547e+00 2.876412749347068853e+01 6.469621783994546149e+01
6.554475192204928469e+00 2.869015551572976719e+01 6.431964035010543057e+01
3.902067013287661812e+00 2.961830696454812895e+01 7.026084115644934514e+01
4.042490408992696516e+00 2.957425122894104064e+01 6.987889007729340562e+01
4.183123345062099041e+00 2.952816160001525958e+01 6.949764766971080121e+01
4.324440666370318098e+00 2.947979831474084733e+01 6.911512727117494137e+01
4.465731998945672743e+00 2.942938096804353876e+01 6.873301780796599303e+01
4.606996729849222483e+00 2.937693129286793337e+01 6.835131656834180092e+01
4.748234269908604865e+00 2.932247101826471436e+01 6.797002080373833621e+01
4.889444053134355705e+00 2.926602186890048429e+01 6.758912772904176336e+01
5.030625536620240368e+00 2.920760556351006443e+01 6.720863452339322919e+01
5.170401601893097165e+00 2.914729092999816018e+01 6.682888271253267476e+01
5.311525858738693984e+00 2.908501113164793139e+01 6.644917901661979442e+01
5.452620396951012971e+00 2.902082922890157590e+01 6.606986647714767003e+01
5.593193373979685745e+00 2.895484921056224437e+01 6.569140412320334121e+01
5.734227947303299544e+00 2.888693103948557095e+01 6.531286225559668424e+01
5.874462627837466755e+00 2.881719404933165407e+01 6.493476523118903287e+01
6.014810723387711278e+00 2.874580362361841424e+01 6.455789901560608257e+01
6.155025722827047296e+00 2.867258577231774197e+01 6.418117019327674200e+01
3.642937756405771665e+00 2.954130544048328133e+01 6.974310011075304772e+01
3.783478448264906202e+00 2.949594068476863740e+01 6.936146786691618615e+01
3.924788677474233101e+00 2.944834597117713315e+01 6.897882773441367021e+01
4.066073769459552345e+00 2.939869707039040847e+01 6.859659821705362504e+01
4.207333096024580499e+00 2.934701570231477774e+01 6.821477661097935652e+01
4.348566052220897760e+00 2.929332358386980673e+01 6.783336017564482745e+01
4.489772056199538675e+00 2.923764242769786748e+01 6.745234613376487687e+01
4.630950548923280508e+00 2.917999394141408231e+01 6.707173167269684200e+01
4.772198738878141278e+00 2.912043463677521160e+01 6.669171510612643772e+01
4.912736422538661607e+00 2.905895634145749540e+01 6.631216766569347953e+01
5.053829946634130543e+00 2.899553908744028874e+01 6.593273211791279209e+01
5.194083545657409040e+00 2.893024737068083496e+01 6.555374945403156062e+01
5.335117215552891423e+00 2.886309333747091799e+01 6.517508629557249833e+01
5.475538637839036937e+00 2.879415194997457306e+01 6.479707734368587069e+01
5.615937349891829022e+00 2.872350567152809830e+01 6.442000778047930964e+01
5.755346498411787692e+00 2.865106725374740648e+01 6.404325011280960211e+01
3.243453239067686678e+00 2.950437402483292715e+01 6.960795908023175116e+01
3.383993505272062219e+00 2.945976902381718787e+01 6.922617632983588010e+01
3.525295529260362049e+00 2.941294346100274737e+01 6.884341739415512507e+01
3.666573270470228518e+00 2.936406359630461793e+01 6.846106873258702308e+01
3.807826085534955940e+00 2.931315113602070355e+01 6.807912764932520133e+01
3.949161188973134173e+00 2.926026540938547527e+01 6.769781013663052249e+01
4.090361615770792270e+00 2.920535314712059716e+01 6.731667450882125081e+01
4.231535325763816857e+00 2.914847337253854676e+01 6.693593814594488833e+01
4.372681766915130552e+00 2.908964777566034954e+01 6.655559820933669357e+01
4.513800409427918936e+00 2.902889803981622308e+01 6.617565182676919733e+01
4.654890745818831554e+00 2.896624584051517459e+01 6.579609609268483439e+01
4.795368108902896331e+00 2.890175306779547171e+01 6.541720530081853724e+01
4.936401781222466312e+00 2.883536372494597799e+01 6.503842086371949449e+01
5.076571049252894596e+00 2.876713986970694137e+01 6.466007753649410006e+01
5.216380557666031592e+00 2.869730464638392675e+01 6.428317721586228117e+01
5.356665215886056153e+00 2.862558972901431886e+01 6.390612128935236314e+01
2.843410359995267367e+00 2.946330804542347082e+01 6.947304629768309781e+01
2.983950016817490614e+00 2.941946405212245708e+01 6.909112064218717819e+01
3.125353512118403732e+00 2.937344639387159972e+01 6.870846965880839718e+01
3.266621191195489438e+00 2.932533595735351284e+01 6.832600057646750713e+01
3.407864805443005629e+00 2.927519281394047823e+01 6.794393872805305534e+01
3.549083719687163185e+00 2.922303865422054514e+01 6.756228138908876701e+01
3.690277321413583334e+00 2.916889516572030772e+01 6.718102579891996129e+01
3.831445020629231646e+00 2.911278403155410999e+01 6.680016916145378048e+01
3.972586249601799402e+00 2.905472692991386552e+01 6.641970864613648473e+01
4.113700462974072103e+00 2.899474553269769928e+01 6.603964138855140220e+01
4.254787137255831020e+00 2.893286150457640815e+01 6.565996449132822477e+01
4.395845770599399849e+00 2.886909650230055746e+01 6.528067502517633613e+01
4.536875882747827049e+00 2.880347217364540668e+01 6.490177002932594519e+01
4.677292248179705680e+00 2.873605102361214492e+01 6.452352412332130882e+01
4.817714355147705518e+00 2.866691848449116264e+01 6.414617234437079674e+01
2.443284508003335631e+00 2.941814849616685734e+01 6.933894715538990283e+01
2.583826996296068490e+00 2.937506555324976887e+01 6.895687114479713387e+01
2.725106202218777973e+00 2.932977892280378995e+01 6.857387409374176457e+01
2.866362885943976924e+00 2.928243783621933005e+01 6.819128661069183295e+01
3.007596375115174414e+00 2.923306397182471983e+01 6.780910601494471734e+01
3.148806020174121478e+00 2.918167900615740962e+01 6.742732958915387087e+01
3.289991193676795600e+00 2.912830461338117161e+01 6.704595458034347644e+01
3.431151290477632898e+00 2.907296246373819670e+01 6.666497819983889883e+01
3.572285727784379361e+00 2.901567422284014697e+01 6.628439762493086107e+01
3.713393944699704630e+00 2.895646155049645287e+01 6.590420999905352062e+01
3.854475402033188391e+00 2.889534609998147374e+01 6.552441243288771489e+01
3.995529582288370296e+00 2.883234951703832749e+01 6.514500200507234240e+01
4.136555989442189052e+00 2.876749343902319112e+01 6.476597576283890589e+01
2.324669990532749253e+00 2.928191816993635399e+01 6.843986422173836104e+01
2.465914003009698430e+00 2.923534663754941931e+01 6.805715894296125157e+01
2.607135700761788577e+00 2.918674228059465037e+01 6.767486019320288904e+01
2.748334419971065312e+00 2.913612676133587698e+01 6.729296526211194873e+01
2.889509518969008539e+00 2.908352173974456178e+01 6.691147140378402014e+01
3.030660377839463404e+00 2.902894887265317436e+01 6.653037583736566773e+01
3.171786398803937868e+00 2.897242981274943574e+01 6.614967574740721545e+01
3.312887005973150334e+00 2.891398620720600832e+01 6.576936828523092515e+01
3.453961644984614221e+00 2.885363969714625298e+01 6.538945056910850440e+01
3.595009782814686528e+00 2.879141191694991875e+01 6.500991968567169010e+01
2.352071550882111062e+00 2.908687409911650334e+01 6.716058735297488624e+01
2.493245780858631022e+00 2.903503110619243799e+01 6.677897917375371151e+01
2.634396439516350608e+00 2.898122015225123604e+01 6.639776898528857885e+01
2.775522916569348464e+00 2.892546287883905620e+01 6.601695397931952414e+01
2.916624623670593497e+00 2.886778092260615480e+01 6.563653131406216801e+01
3.057700993764256303e+00 2.880819591457375139e+01 6.525649811508121445e+01
2.380815136020401734e+00 2.887444211367847657e+01 6.588512192771892728e+01
2.521920714453435242e+00 2.881751813045833899e+01 6.550458578950652111e+01
