8.642594558393133397e+00 2.822109889872949751e+01 6.952920750794901039e+01
8.779779177176077809e+00 2.815796963450312518e+01 6.915425011479946704e+01
8.916953188332625402e+00 2.809289751727128603e+01 6.877963153577367450e+01
7.982120399444799119e+00 2.834710700748583534e+01 7.014040035527365546e+01
8.119330801262250930e+00 2.828865811567914790e+01 6.976464018480486118e+01
8.256531039347921208e+00 2.822822465541133141e+01 6.938922500320920506e+01
8.393720963120509637e+00 2.816582743471021644e+01 6.901415170423187817e+01
8.530900429522255024e+00 2.810148725802682179e+01 6.863941716974350982e+01
8.668069303585264507e+00 2.803522492621599227e+01 6.826501826995259137e+01
8.805227457895741239e+00 2.796706123603181382e+01 6.789095186361724643e+01
8.942374772450431664e+00 2.789701698003890940e+01 6.751721479866138509e+01
7.458377452628039528e+00 2.840518003770419853e+01 7.037734516782680316e+01
7.595601690839203002e+00 2.834947021400965284e+01 7.000112064308355286e+01
7.732816112183440005e+00 2.829175491002146359e+01 6.962524413407412283e+01
7.870020552850276019e+00 2.823205493485822615e+01 6.924971254978181889e+01
8.007214856779018675e+00 2.817039109434994160e+01 6.887452278690757623e+01
8.144398876138900789e+00 2.810678419139929218e+01 6.849967172996841214e+01
8.281572470701572541e+00 2.804125502505927869e+01 6.812515625220609650e+01
8.418735508209080010e+00 2.797382439082548089e+01 6.775097321499416125e+01
8.555887863435689411e+00 2.790451307984501383e+01 6.737711946915612771e+01
8.693029419045656070e+00 2.783334187884001665e+01 6.700359185438220777e+01
8.830160064743818538e+00 2.776033157004719953e+01 6.663038720015160266e+01
8.967459982903635662e+00 2.768547386401988675e+01 6.625741905350591310e+01
6.933489948940223968e+00 2.845637930779687252e+01 7.061504470174853054e+01
7.070724584484773700e+00 2.840343190590123612e+01 7.023835154255070279e+01
7.207949819835221206e+00 2.834845812130938469e+01 6.986200939756173511e+01
7.345165477194856685e+00 2.829147876252845251e+01 6.948601519141578819e+01
7.482371386905774635e+00 2.823251463590498389e+01 6.911036583587819848e+01
7.619567387343137099e+00 2.817158654466861023e+01 6.873505823073486454e+01
7.756753324703317354e+00 2.810871528949065379e+01 6.836008926358509541e+01
7.893929053179565614e+00 2.804392166735952685e+01 6.798545581044757569e+01
8.031094434539673088e+00 2.797722647156996700e+01 6.761115473586323787e+01
8.168249337990967973e+00 2.790865049162904654e+01 6.723718289340961007e+01
8.305393640343497808e+00 2.783821451247662893e+01 6.686353712581416175e+01
8.442527225469243390e+00 2.776593931472138621e+01 6.649021426547402314e+01
8.579649984453716627e+00 2.769184567419187459e+01 6.611721113467665134e+01
8.716536250310102929e+00 2.761603225294357600e+01 6.574486773901790571e+01
8.990376781797360550e+00 2.745906711656746424e+01 6.500094747180033039e+01
6.408974789647420955e+00 2.850052912309364928e+01 7.085323348183327141e+01
6.545758831523573740e+00 2.845045053532082591e+01 7.047668713764602444e+01
6.682993829586241219e+00 2.839823945643412628e+01 7.009987655461729616e+01
6.820219677718890594e+00 2.834400190888646520e+01 6.972341690253414015e+01
6.957436192340538561e+00 2.828775869835751777e+01 6.934730510907306211e+01
7.094643198280948582e+00 2.822953062814024605e+01 6.897153808905109429e+01
7.231840527981128197e+00 2.816933849898301290e+01 6.859611274511318868e+01
7.369028022085379881e+00 2.810720310894606300e+01 6.822102596771968308e+01
7.506205528928620474e+00 2.804314525257428770e+01 6.784627463594812014e+01
7.643372904514311728e+00 2.797718572108395563e+01 6.747185561739094339e+01
7.780530012290107322e+00 2.790934530196612329e+01 6.709776576836856066e+01
7.917676723215405055e+00 2.783964477840428131e+01 6.672400193463998619e+01
8.054812915624573577e+00 2.776810492920655449e+01 6.635056095161405665e+01
8.191938474686169869e+00 2.769474652855434016e+01 6.597743964427320407e+01
8.328857477949281218e+00 2.761967396103385752e+01 6.560503015641852187e+01
5.884668302552616304e+00 2.853764917908112153e+01 7.109254411316096878e+01
6.021410401308838090e+00 2.849036237751724698e+01 7.071550846513464705e+01
6.158142646866008540e+00 2.844100707729678490e+01 7.033876633931699018e+01
6.295186193367293903e+00 2.838954689428352651e+01 6.996192913795366053e+01
6.432412251987453367e+00 2.833604577402108760e+01 6.958535209968513868e+01
6.569629227352645984e+00 2.828053890718895147e+01 6.920912283630248396e+01
6.706836938522930502e+00 2.822304709414331825e+01 6.883323826574257964e+01
6.844035212241401211e+00 2.816359113286802796e+01 6.845769529357789906e+01
6.981223883335490044e+00 2.810219181852992065e+01 6.808249081330599495e+01
7.118402794604900663e+00 2.803886994324851756e+01 6.770762170673886260e+01
7.255571796112346483e+00 2.797364629608144782e+01 6.733308484450544995e+01
7.392730745661046043e+00 2.790654166192449637e+01 6.695887708595441268e+01
7.529879508568453339e+00 2.783757682212694107e+01 6.658499527966387177e+01
7.667047594601749338e+00 2.776678142436267649e+01 6.621149662610778819e+01
7.804175384187431064e+00 2.769415855597144471e+01 6.583825673790835253e+01
7.941070932501174795e+00 2.761980985774354735e+01 6.546566293192508112e+01
5.496786232008426865e+00 2.852320165711891775e+01 7.095549988764796012e+01
5.633726399730472956e+00 2.847663379347183010e+01 7.057824031466753922e+01
5.770508094482715400e+00 2.842801972951009759e+01 7.020145471900247003e+01
5.907742306231615004e+00 2.837727992243588915e+01 6.982441011353819249e+01
6.044820950612516341e+00 2.832453065061902464e+01 6.944782696101799502e+01
6.181846401461689844e+00 2.826977532192756826e+01 6.907157151082840585e+01
6.319054527244635899e+00 2.821302001894764544e+01 6.869556962114366172e+01
6.456253457490356951e+00 2.815430048061841717e+01 6.831990924599244863e+01
6.593443021183736263e+00 2.809363749932104781e+01 6.794458728198226538e+01
6.730623055464573845e+00 2.803105186436055263e+01 6.756960061374317661e+01
6.867822627089743115e+00 2.796657317856818636e+01 6.719500651800932189e+01
7.004982924539583600e+00 2.790020465888859036e+01 6.682068056910603104e+01
7.142133248703801840e+00 2.783197582882916166e+01 6.644668050196277420e+01
7.279273466293584072e+00 2.776190746322157921e+01 6.607300315793662548e+01
7.416403451278219094e+00 2.769002033298572130e+01 6.569964536832220858e+01
7.553304798903741180e+00 2.761640455615052758e+01 6.532692833631092810e+01
5.109216169347231329e+00 2.850515219035997205e+01 7.081905683635679338e+01
5.245869835831289407e+00 2.845932192383799020e+01 7.044172109870774534e+01
5.382848446269502318e+00 2.841142744272069010e+01 7.006470702711402510e+01
5.520081482601023382e+00 2.836142352077619577e+01 6.968754581551782223e+01
5.657112783332152617e+00 2.830940641134866098e+01 6.931082628963277159e+01
5.794329262004601411e+00 2.825537094926715298e+01 6.893436304412631443e+01
5.931536953420277314e+00 2.819935040067539944e+01 6.855824433335503443e+01
6.068296890430933566e+00 2.814138829446200774e+01 6.818257693500697769e+01
6.205517109241499796e+00 2.808147098737432046e+01 6.780720008231647000e+01
6.342697532378764436e+00 2.801962182073877017e+01 6.743209538838459594e+01
6.479868503187817375e+00 2.795587069444685113e+01 6.705732278567376170e+01
6.617029868190130948e+00 2.789023838880444117e+01 6.668287913979348502e+01
6.754181481113454844e+00 2.782274568050037544e+01 6.630876130546860736e+01
6.891323203173044476e+00 2.775341334223093170e+01 6.593496612684390357e+01
7.028454902547395911e+00 2.768226214273865793e+01 6.556149043799204890e+01
7.165360908194026379e+00 2.760937914030886020e+01 6.518864785337414958e+01
7.302222552523641497e+00 2.753470953215439820e+01 6.481604151109772260e+01
4.721193705594516565e+00 2.848342866660787109e+01 7.068311330697822825e+01
4.858118467921110017e+00 2.843832825311280388e+01 7.030561035445526841e+01
4.995083699143268774e+00 2.839116952815031780e+01 6.992849101004455292e+01
5.132315639011667763e+00 2.834190162200446750e+01 6.955121302735841482e+01
5.269281811502952273e+00 2.829060885293933225e+01 6.917430732298059581e+01
5.406302978209767574e+00 2.823732217062273264e+01 6.879781882310420826e+01
5.543540106803537704e+00 2.818204782489512894e+01 6.842164663037696926e+01
5.680738341925490431e+00 2.812479978345553988e+01 6.804575162093048846e+01
5.817735137069980134e+00 2.806562404089623541e+01 6.767028607840764209e+01
5.954666684859714287e+00 2.800451665866397377e+01 6.729508457904901775e+01
6.091838073342844773e+00 2.794150203299682644e+01 6.692019447496586793e+01
6.229000088330335139e+00 2.787660614336533627e+01 6.654563325066617097e+01
6.366152578093302594e+00 2.780984976367701833e+01 6.617139776394938622e+01
6.503295397982585158e+00 2.774125366440830476e+01 6.579748486163029497e+01
6.640428410611543875e+00 2.767083861184172733e+01 6.542389138074837263e+01
6.777338726772354605e+00 2.759868861463584722e+01 6.505092331993232335e+01
6.914205437068067894e+00 2.752475110436824934e+01 6.467818981759023700e+01
4.333100547312108475e+00 2.845798168597417543e+01 7.054773287578507279e+01
4.470026942953097659e+00 2.841361506394118308e+01 7.017010367689020711e+01
4.606993346697072056e+00 2.836719069540877314e+01 6.979285972188729659e+01
4.744223535105724032e+00 2.831865989860392574e+01 6.941546498193706327e+01
4.881476249052159488e+00 2.826811196125838777e+01 6.903848570425671483e+01
5.018690259756209748e+00 2.821554849773297846e+01 6.866178843102915152e+01
5.155634909666147792e+00 2.816100131519256422e+01 6.828545783755819798e+01
5.292638106120401531e+00 2.810450258230522280e+01 6.790953823419015123e+01
5.429826970677109621e+00 2.804604776894998608e+01 6.753386426689557709e+01
5.567007011919606008e+00 2.798567007944559393e+01 6.715852536067797018e+01
5.703985194105636758e+00 2.792340651996202183e+01 6.678360963303198616e+01
5.840894899431392062e+00 2.785925204770588692e+01 6.640895199184303976e+01
5.978047835659918263e+00 2.779323219466222383e+01 6.603459897480844631e+01
6.115191328346985422e+00 2.772537253730810747e+01 6.566056846728679375e+01
6.252325234676028742e+00 2.765569383958095528e+01 6.528685730886832062e+01
6.389266808695446720e+00 2.758428955522356318e+01 6.491383464998182262e+01
6.526135858401643119e+00 2.751108696904325512e+01 6.454098678530181132e+01
3.944938303295887128e+00 2.842875549938271007e+01 7.041292456848312042e+01
4.081865903197565260e+00 2.838512281298034878e+01 7.003516925316446873e+01
4.218864435820699477e+00 2.833944293780508517e+01 6.965786788237026883e+01
4.356092172056772682e+00 2.829164949318028377e+01 6.928035608225830799e+01
4.493312309915224567e+00 2.824182921748117892e+01 6.890319467532199837e+01
4.630524634216407698e+00 2.819000289528931091e+01 6.852638060444726875e+01
4.767728937902868225e+00 2.813619130968823612e+01 6.814991080051277095e+01
4.904925021578118383e+00 2.808041524250016252e+01 6.777378218214725791e+01
5.042112693540079960e+00 2.802269547343668776e+01 6.739799165599774255e+01
5.178832903564365431e+00 2.796306848533271960e+01 6.702265091091088323e+01
5.316003510779564678e+00 2.790152553948264469e+01 6.664752670067326790e+01
5.453165201117004202e+00 2.783810119610052425e+01 6.627273121931588662e+01
5.590154016259895720e+00 2.777284365845408232e+01 6.589841532360111387e+01
5.727297664634432905e+00 2.770571978749519104e+01 6.552426696073221990e+01
5.864175639212488633e+00 2.763678290144388328e+01 6.515045876332968078e+01
6.001092365062570266e+00 2.756610166820613728e+01 6.477725056686870175e+01
6.137965661209015877e+00 2.749363163137257970e+01 6.440427574642558284e+01
3.693669031735257402e+00 2.835280818776109157e+01 6.990089940725101769e+01
3.830636434688301950e+00 2.830785111085621253e+01 6.952339157943873715e+01
3.967861425291411059e+00 2.826079503059238007e+01 6.914576335647122107e+01
4.105079101286516874e+00 2.821171207739680398e+01 6.876848541988454144e+01
4.242289242541526839e+00 2.816062303137159262e+01 6.839155471525978669e+01
4.379491636673632726e+00 2.810754867168993698e+01 6.801496817621493562e+01
4.516686078999846643e+00 2.805250977603262186e+01 6.763872272385496842e+01
4.653872372374427080e+00 2.799552712053802850e+01 6.726281526763227703e+01
4.791082908959380049e+00 2.793663308252506994e+01 6.688730975910881682e+01
4.928057610179553905e+00 2.787583847815249882e+01 6.651216112243116640e+01
5.065218580811377436e+00 2.781315019154676094e+01 6.613724812677092757e+01
5.202100555019136152e+00 2.774860326156027668e+01 6.576268228281051620e+01
5.339243520650963859e+00 2.768221527709030738e+01 6.538841697812416953e+01
5.476183360813012158e+00 2.761402476572485654e+01 6.501456162662861971e+01
5.613116577230609749e+00 2.754407275544269851e+01 6.464120913602643270e+01
5.749720874803929682e+00 2.747234370358247091e+01 6.426814818893653580e+01
3.305496896155895481e+00 2.831661291627764143e+01 6.976725168401058852e+01
3.442463775624020617e+00 2.827239026480572903e+01 6.938961717581196353e+01
3.579685649486787469e+00 2.822607174193424839e+01 6.901187284018503476e+01
3.716900493623409574e+00 2.817772630796820366e+01 6.863447867726233653e+01
3.854108082711651839e+00 2.812737473834023660e+01 6.825743163537507030e+01
3.991344144324378007e+00 2.807505034972849245e+01 6.788080155894350298e+01
4.128536345923596862e+00 2.802074892590686517e+01 6.750443906634042435e+01
4.265720663454605877e+00 2.796450368144618182e+01 6.712841446464830142e+01
4.402896902171709925e+00 2.790633538655345092e+01 6.675272465451223525e+01
4.540064874675972639e+00 2.784626480920540814e+01 6.637736652558973560e+01
4.677224401139610244e+00 2.778431271463838925e+01 6.600233695622827668e+01
4.814180581767631750e+00 2.772051327313182156e+01 6.562772522473952108e+01
4.951323166540822385e+00 2.765486135931532630e+01 6.525334298217316586e+01
5.088178573684298378e+00 2.758739119916898019e+01 6.487929966069803811e+01
5.224915007288677415e+00 2.751819071446130849e+01 6.450592707268742743e+01
5.361810759762018819e+00 2.744718400320477514e+01 6.413269019445078811e+01
2.917140692465089113e+00 2.827645158094115629e+01 6.963409154222770781e+01
3.054106987139163287e+00 2.823296377250748534e+01 6.925633288746239202e+01
3.191362303239468012e+00 2.818739572502386892e+01 6.887854802433614054e+01
3.328573411665163295e+00 2.813978794085117130e+01 6.850103720962249554e+01
3.465777552214335255e+00 2.809017398404682453e+01 6.812387340108435296e+01
3.602974502429054482e+00 2.803857462494018193e+01 6.774705353762959703e+01
3.740164047404527903e+00 2.798501063290676782e+01 6.737057454603998963e+01
3.877345979743076931e+00 2.792950277571803497e+01 6.699443334121792759e+01
4.014520099400599840e+00 2.787207181970462244e+01 6.661862682664549595e+01
4.151686213924691060e+00 2.781273852903256838e+01 6.624315189445046315e+01
4.288844138085277535e+00 2.775152366539213489e+01 6.586800542577607587e+01
4.425993693799799900e+00 2.768844798790018658e+01 6.549318429125878538e+01
4.563134710249275194e+00 2.762353225261513501e+01 6.511868535090864896e+01
4.700072101526568069e+00 2.755681083473738369e+01 6.474459799157376949e+01
4.837012353049234825e+00 2.748832575189705452e+01 6.437099840592360067e+01
2.528758912001111803e+00 2.823230207412228410e+01 6.950161980086329550e+01
2.665725768898689729e+00 2.818954912301659022e+01 6.912373451613238728e+01
2.802939273539592602e+00 2.814470592526793169e+01 6.874575778558059369e+01
2.940146335247992404e+00 2.809783576493977719e+01 6.836813099236394464e+01
3.077346719105058082e+00 2.804895940834157386e+01 6.799085108984823478e+01
3.214540197991373915e+00 2.799809762105247302e+01 6.761391501918461699e+01
3.351726551958932099e+00 2.794527116806039047e+01 6.723731970984782436e+01
3.488905568492544074e+00 2.789050081291273386e+01 6.686106207907963039e+01
3.626077042661459693e+00 2.783380731768005134e+01 6.648513903304362316e+01
3.763240776766568096e+00 2.777521144243215190e+01 6.610954746648451419e+01
3.900396580277729619e+00 2.771473394512715771e+01 6.573428426329590479e+01
4.037544269962789478e+00 2.765239558121277597e+01 6.535934629669078788e+01
4.174683669814062803e+00 2.758821710334106214e+01 6.498473042927963661e+01
2.277246784486707476e+00 2.814206443989199968e+01 6.899167803854041381e+01
2.414455385777583007e+00 2.809795894464545185e+01 6.861358565291278921e+01
2.551657842136566323e+00 2.805182647624980419e+01 6.823584308285374789e+01
2.688853913920596472e+00 2.800368779593155111e+01 6.785844728413430005e+01
2.826043369190355037e+00 2.795356366464529430e+01 6.748139520017065252e+01
2.963225983389669249e+00 2.790147484251485466e+01 6.710468376266133816e+01
3.100401539013154739e+00 2.784744208868439230e+01 6.672830989172189220e+01
3.237569826067979051e+00 2.779148616098314761e+01 6.635227049573573765e+01
3.374730641924383434e+00 2.773362781520200215e+01 6.597656247221030412e+01
3.511883791061538140e+00 2.767388780518208335e+01 6.560118270743616620e+01
3.649029085004895645e+00 2.761228688271663856e+01 6.522612807735723095e+01
2.438951588427370254e+00 2.790510104330549979e+01 6.734996608365828763e+01
2.576133531219543915e+00 2.785374740459747755e+01 6.697314002765124030e+01
2.713308638505450343e+00 2.780044979568374686e+01 6.659665143776285845e+01
2.850476695989782705e+00 2.774522897061301663e+01 6.622049722490650936e+01
2.987637496890197752e+00 2.768810568173538655e+01 6.584467428875404948e+01
3.124790841388085383e+00 2.762910067959125016e+01 6.546917951809373903e+01
2.189559899208919358e+00 2.780194018522877641e+01 6.684232598641018797e+01
2.463904299140133869e+00 2.769488953855949376e+01 6.608945477750630459e+01
2.601066008817811692e+00 2.763850008121944413e+01 6.571351750550218185e+01
1.940260823104734023e+00 2.769412575058332493e+01 6.633541704740369482e+01
