8.735326427210445388e+00 2.960450611396499099e+01 6.933533828053003845e+01
8.877153587120258038e+00 2.954027521161041747e+01 6.895487730876490673e+01
9.018941813142083319e+00 2.947407607353761705e+01 6.857482890854558377e+01
8.057258504549329459e+00 2.973302118441944941e+01 6.995710780404552054e+01
8.199180206940836158e+00 2.967354936066382010e+01 6.957569492294953761e+01
8.341064379959735930e+00 2.961206503130444290e+01 6.919470012466400988e+01
8.482910558768368858e+00 2.954859016550071971e+01 6.881412059073960563e+01
8.624718304540850866e+00 2.948314672095606781e+01 6.843395346291173098e+01
8.766487204717547499e+00 2.941575664315330840e+01 6.805419584404199895e+01
8.908216872152472376e+00 2.934644186413937916e+01 6.767484479905749595e+01
9.049906944634775741e+00 2.927522430176303203e+01 6.729589735630460723e+01
7.519497548326798508e+00 2.979242930788066701e+01 7.019900897885598567e+01
7.661470395930676247e+00 2.973575348979884225e+01 6.981705545637851174e+01
7.803406832578133390e+00 2.967704285070488623e+01 6.943552257074711065e+01
7.945306349567586857e+00 2.961631936316074842e+01 6.905440755407271070e+01
8.087168464730062567e+00 2.955360498969980654e+01 6.867370759752522247e+01
8.228992722629671519e+00 2.948892168239764544e+01 6.829341985212805355e+01
8.370778693638575518e+00 2.942229138119758858e+01 6.791354143038701352e+01
8.512525973996933004e+00 2.935373601348494077e+01 6.753406940641386313e+01
8.654234184552299425e+00 2.928327749261670476e+01 6.715500081798707299e+01
8.795902971285519456e+00 2.921093771720006416e+01 6.677633266670734713e+01
8.937532004112728856e+00 2.913673857042399007e+01 6.639806191967201698e+01
9.079721928978790046e+00 2.906060503033295817e+01 6.601990793608638342e+01
6.977908814900745327e+00 2.984479615905623717e+01 7.044090219836175493e+01
7.119921381515911918e+00 2.979094680180412169e+01 7.005840130273568889e+01
7.261898888517404060e+00 2.973504033909794941e+01 6.967632350337247260e+01
7.403840780816190126e+00 2.967709874216151178e+01 6.929466608431930297e+01
7.545746530452580814e+00 2.961714397454994696e+01 6.891342628742732757e+01
7.687615636243790185e+00 2.955519799036203210e+01 6.853260131391620291e+01
7.829447623311056148e+00 2.949128273400217992e+01 6.815218832485034284e+01
7.971242042965219987e+00 2.942542013829842418e+01 6.777218444245858109e+01
8.112998471998910333e+00 2.935763212376655318e+01 6.739258675094414741e+01
8.254716512236557335e+00 2.928794059783015413e+01 6.701339229773203954e+01
8.396395790378322843e+00 2.921636745338875940e+01 6.663459809431388692e+01
8.538035957130812648e+00 2.914293456843795482e+01 6.625620111751338470e+01
8.679636687012388663e+00 2.906766380503958658e+01 6.587819831045553087e+01
8.820445794067008904e+00 2.899083664601192467e+01 6.550173056062635624e+01
6.437548504858067844e+00 2.988970868244549806e+01 7.068187510101088833e+01
6.578064191611910694e+00 2.983899303616941978e+01 7.030088586618676061e+01
6.720079302220804074e+00 2.978591398041375626e+01 6.991826134815764249e+01
6.862060187429636748e+00 2.973077753288821512e+01 6.953605964908047099e+01
7.004006273101794910e+00 2.967360565492506552e+01 6.915427806291020829e+01
7.145917012436494353e+00 2.961442030036748818e+01 6.877291384143700270e+01
7.287791884937094622e+00 2.955324341457670911e+01 6.839196419564395057e+01
7.429630396751266019e+00 2.949009693348687833e+01 6.801142629636561310e+01
7.571432079895402900e+00 2.942500278201428543e+01 6.763129727579369899e+01
7.713196491947703848e+00 2.935798287351319047e+01 6.725157422806978502e+01
7.854923215533690772e+00 2.928905910868707707e+01 6.687225421022856153e+01
7.996611858084683888e+00 2.921825337434759717e+01 6.649333424363327083e+01
8.138262051381909501e+00 2.914558754272184515e+01 6.611481131491350993e+01
8.279873450687230019e+00 2.907108347061446807e+01 6.573668237664401204e+01
8.420793018030936494e+00 2.899504171547951970e+01 6.536026211009509268e+01
5.897870907242054095e+00 2.992740512237040207e+01 7.092400892596990047e+01
6.038251919962794645e+00 2.987951903689082300e+01 7.054241849151551946e+01
6.178596287920029795e+00 2.982953024082261706e+01 7.016104444162330367e+01
6.319974562490980219e+00 2.977727006277842747e+01 6.977859898664551963e+01
6.461957485158177583e+00 2.972290426433696808e+01 6.939627379041712629e+01
6.603906442242151620e+00 2.966650275706317075e+01 6.901436842844158548e+01
6.745820867943101540e+00 2.960808748477773378e+01 6.863288016244193557e+01
6.887700222771336200e+00 2.954768038339342695e+01 6.825180621315968210e+01
7.029543993718299966e+00 2.948530337966640857e+01 6.787114376131997062e+01
7.171351693883003975e+00 2.942097839019505656e+01 6.749088994869619285e+01
7.313122861507821426e+00 2.935472732067149337e+01 6.711104187931817933e+01
7.454857060170152927e+00 2.928657206408165337e+01 6.673159662008136195e+01
7.596553878261510739e+00 2.921653450065646140e+01 6.635255120197957979e+01
7.738311719239164610e+00 2.914466606550892536e+01 6.597410382875931134e+01
7.879931889224768504e+00 2.907092965907149207e+01 6.559584741132783847e+01
8.020774609237248498e+00 2.899561669327848890e+01 6.521908054161691837e+01
5.497507557528089173e+00 2.991281147922971684e+01 7.078525294352654385e+01
5.638550135968242394e+00 2.986563774493943768e+01 7.040318388269177774e+01
5.779060670175717895e+00 2.981643562786699420e+01 7.002193272414157832e+01
5.921075831172050385e+00 2.976489259488630523e+01 6.963906371252731731e+01
6.062568708641719262e+00 2.971134884939674947e+01 6.925698592605996851e+01
6.203880586272298991e+00 2.965576836072522227e+01 6.887526106509469059e+01
6.345797730082120225e+00 2.959812401369214641e+01 6.849364952594554268e+01
6.487680608934524251e+00 2.953848754716138458e+01 6.811245202397479659e+01
6.629528690812454883e+00 2.947688087837014947e+01 6.773166575004088941e+01
6.771341469948578329e+00 2.941332591476850666e+01 6.735128785577722965e+01
6.913215873799142486e+00 2.934787394176062847e+01 6.697151679843108241e+01
7.054955901065280699e+00 2.928048829156196575e+01 6.659194536195342096e+01
7.196659258946007220e+00 2.921121998539720366e+01 6.621277353160922985e+01
7.338325540945278114e+00 2.914009088247193091e+01 6.583399831408875968e+01
7.479954364527398702e+00 2.906712282801906611e+01 6.545561668230737951e+01
7.620817751412469754e+00 2.899256882500175792e+01 6.507870684976974474e+01
5.098177646157437515e+00 2.989451770439990952e+01 7.064718007992262017e+01
5.238266556070967361e+00 2.984811851889330470e+01 7.026512492745916916e+01
5.379434811731676369e+00 2.979963090276896054e+01 6.988337997284673975e+01
5.521447390270076916e+00 2.974885671168732060e+01 6.950039006472609060e+01
5.662783791407177247e+00 2.969606939919553668e+01 6.911812549097591329e+01
5.804733764048669364e+00 2.964120435759051375e+01 6.873597576955440047e+01
5.946650795567590464e+00 2.958432508331800648e+01 6.835424261715007788e+01
6.087071699469780661e+00 2.952552928220668349e+01 6.797328949488995420e+01
6.229023300671668650e+00 2.946472408581440305e+01 6.759258804952156652e+01
6.370838711829216017e+00 2.940193990809590119e+01 6.721208452641532460e+01
6.512619115226057076e+00 2.933722902488950268e+01 6.683198623664584659e+01
6.654364036600437515e+00 2.927061331318146742e+01 6.645229026751160006e+01
6.796073026178183873e+00 2.920211463790124995e+01 6.607299367026199377e+01
6.937745658676815808e+00 2.913175485090311057e+01 6.569409346111302739e+01
7.079381532491320073e+00 2.905955579039553172e+01 6.531558662247350355e+01
7.220261781946753388e+00 2.898576026066287170e+01 6.493852607184717840e+01
7.360990885278804186e+00 2.891013819434799004e+01 6.456159647129241819e+01
4.697333044048387585e+00 2.987240862635957228e+01 7.050943158589409165e+01
4.838326942370366979e+00 2.982675817597601053e+01 7.012708684111757407e+01
4.979451936244227994e+00 2.977903897206772754e+01 6.974525876771518540e+01
5.121462195738893719e+00 2.972903405844822800e+01 6.936214741299473019e+01
5.262582838343176306e+00 2.967697710553110468e+01 6.897953003486868795e+01
5.403883106932559244e+00 2.962292388794244147e+01 6.859756392258070434e+01
5.545899597978457329e+00 2.956684784825043266e+01 6.821592028758986714e+01
5.687782831184967414e+00 2.950874815451846800e+01 6.783447625226828848e+01
5.828991022433267055e+00 2.944873073135412511e+01 6.745374696449214014e+01
5.969978184932379861e+00 2.938673506001324398e+01 6.707318854723007462e+01
6.111761316176151482e+00 2.932279507058942158e+01 6.669296637658622728e+01
6.253509740001117478e+00 2.925694997038445067e+01 6.631314626998725714e+01
6.395222987977674300e+00 2.918922161552339389e+01 6.593372528846461478e+01
6.536900615741950915e+00 2.911963184999435228e+01 6.555470045760098685e+01
6.678542202905147107e+00 2.904820250427242101e+01 6.517606876946125283e+01
6.819438156107848314e+00 2.897516621675282167e+01 6.479885775520773450e+01
6.960185481826892229e+00 2.890030036866082952e+01 6.442177207836745367e+01
4.296246007007027856e+00 2.984644478151391311e+01 7.037219947388359742e+01
4.437246685310325844e+00 2.980155619413727663e+01 6.998970169846738543e+01
4.578376923423572720e+00 2.975460073669590244e+01 6.960772604679097242e+01
4.720382680319080926e+00 2.970536874591308418e+01 6.922449329179021049e+01
4.862459796707196524e+00 2.965411045686129299e+01 6.884189845968907662e+01
5.004404214454033273e+00 2.960078386027658937e+01 6.845950422683047520e+01
5.145447112153823888e+00 2.954544758934188664e+01 6.807760037972731482e+01
5.286681552301336851e+00 2.948816148225074940e+01 6.769634215526717469e+01
5.428531310523697861e+00 2.942886304836661537e+01 6.731518590885191600e+01
5.570348120132019076e+00 2.936761557758531538e+01 6.693443725932657173e+01
5.711488566218789309e+00 2.930449503357340291e+01 6.655439746717330252e+01
5.852397293437974213e+00 2.923943721631961878e+01 6.617452376131011249e+01
5.994113365233058488e+00 2.917247984174073849e+01 6.579497880289481770e+01
6.135794571489952887e+00 2.910366077429369014e+01 6.541582974505598713e+01
6.277440473253430575e+00 2.903300183640318011e+01 6.503707358906106606e+01
6.418441954918157499e+00 2.896076714984520706e+01 6.465994837160606323e+01
6.559198414505475583e+00 2.888666694017751979e+01 6.428274927757270518e+01
3.894921798286290926e+00 2.981656554207570053e+01 7.023549392111038969e+01
4.035927826625218096e+00 2.977243929826781965e+01 6.985284354798156414e+01
4.177166496602332302e+00 2.972628137705028806e+01 6.947094430093422091e+01
4.319165415422575371e+00 2.967782311833427400e+01 6.908758913599437790e+01
4.461135280450746698e+00 2.962730625980393029e+01 6.870465499673998977e+01
4.603075412454691318e+00 2.957475269246436866e+01 6.832213922899087777e+01
4.744985158576227491e+00 2.952018430302745955e+01 6.794003913760926139e+01
4.886863891727061926e+00 2.946362297330053792e+01 6.755835198685751664e+01
5.028711010466933473e+00 2.940509057852229446e+01 6.717707500129247933e+01
5.168996384947885936e+00 2.934466133744239968e+01 6.679658801280297098e+01
5.310779583398549164e+00 2.928225873034214644e+01 6.641612106927753700e+01
5.452529596256680655e+00 2.921795056770174881e+01 6.603605568678631244e+01
5.593699933599650009e+00 2.915185013591360530e+01 6.565690225647037437e+01
5.735382994414777613e+00 2.908379958148396938e+01 6.527762813807409259e+01
5.876177125941629775e+00 2.901392924064628076e+01 6.489881630916559629e+01
6.017097116441902038e+00 2.894242061618712469e+01 6.452134042372898648e+01
6.157869066430052385e+00 2.886907812914193627e+01 6.414398593441860896e+01
3.634482543850857450e+00 2.973938831593698140e+01 6.971680022800337895e+01
3.775618783861006911e+00 2.969395561375403858e+01 6.933448058149576809e+01
3.917609886171369737e+00 2.964627112794125807e+01 6.895100513073741411e+01
4.059572880821725072e+00 2.959652790255600863e+01 6.856795034991513660e+01
4.201507071605090182e+00 2.954474781413864193e+01 6.818531359359928956e+01
4.343411788145441932e+00 2.949095273589978561e+01 6.780309217554980705e+01
4.485286385732820236e+00 2.943516453630874352e+01 6.742128336874985450e+01
4.627130245014756227e+00 2.937740507822675795e+01 6.703988440687427897e+01
4.769051377197934372e+00 2.931773489581690129e+01 6.665911599729604120e+01
4.910182891265179705e+00 2.925614265200832875e+01 6.627883542290386742e+01
5.051931840937923468e+00 2.919260390342254397e+01 6.589864611643642434e+01
5.192747377430454669e+00 2.912718805553426193e+01 6.551892731590173469e+01
5.334429498036546313e+00 2.905990634753435486e+01 6.513953118181387936e+01
5.475431184010041363e+00 2.899083981401619425e+01 6.476082996319541962e+01
5.616407478668699049e+00 2.892007782420899886e+01 6.438314088788811773e+01
5.756284102346430842e+00 2.884752117877489397e+01 6.400576710012178694e+01
3.233112629552985506e+00 2.970233420959214143e+01 6.958141031293527590e+01
3.374248460213402190e+00 2.965766548365242983e+01 6.919893618883986619e+01
3.516230509222624701e+00 2.961075541418083290e+01 6.881534148648346161e+01
3.658185399944698268e+00 2.956178647769402090e+01 6.843216707514113750e+01
3.800112419338839587e+00 2.951078053563411530e+01 6.804941031831690168e+01
3.942130696414593682e+00 2.945780125266163907e+01 6.766731156624501864e+01
4.083999160745324097e+00 2.940278718398955249e+01 6.728538041590140040e+01
4.225837769482018835e+00 2.934580165438727306e+01 6.690385875949431238e+01
4.367645911039034878e+00 2.928686650717816775e+01 6.652274380180743663e+01
4.509422998553243467e+00 2.922600357825135831e+01 6.614203271029910525e+01
4.651168469932034810e+00 2.916323469482797037e+01 6.576172261542758690e+01
4.792232696758773614e+00 2.909862636690608184e+01 6.538211864683171370e+01
4.933914883669406670e+00 2.903211411921775209e+01 6.500260051064387312e+01
5.074636461847660485e+00 2.896376464812993490e+01 6.462354051579343661e+01
5.214958149395591214e+00 2.889382363503769469e+01 6.424605223972474732e+01
5.355807625240062819e+00 2.882199068331591008e+01 6.386835980516929112e+01
2.831121971250297076e+00 2.966111745617052264e+01 6.944620542359233184e+01
2.972257188430544872e+00 2.961721409872495414e+01 6.906358526797464492e+01
3.114352046931559759e+00 2.957112150534621975e+01 6.868012326455378513e+01
3.256295821117210387e+00 2.952292729343723821e+01 6.829682780427501143e+01
3.398212680981117284e+00 2.947269595225608896e+01 6.791394961588117951e+01
3.540101922563514414e+00 2.942044932576727234e+01 6.753148603099863578e+01
3.681962867081759239e+00 2.936620925452256614e+01 6.714943434106662323e+01
3.823794860776924320e+00 2.930999757419345286e+01 6.676779179815974885e+01
3.965597274635332514e+00 2.925183611494873759e+01 6.638655561605165190e+01
4.107369504482302425e+00 2.919174669997522287e+01 6.600572297090155871e+01
4.249110970450923119e+00 2.912975114444045488e+01 6.562529100225359002e+01
4.390821116732666951e+00 2.906587125470061750e+01 6.524525681416260170e+01
4.532499411497585839e+00 2.900012882715045492e+01 6.486561747572882553e+01
4.673495605955228172e+00 2.893259105509127238e+01 6.448667847861256064e+01
4.814498022164117152e+00 2.886335060659018126e+01 6.410870133411199845e+01
2.429038774003706269e+00 2.961578956650761896e+01 6.931183504781100169e+01
2.570177200862298061e+00 2.957265162495529864e+01 6.892906058290792259e+01
2.712134023665309090e+00 2.952729108905976574e+01 6.854522681176862875e+01
2.854065644393307899e+00 2.947987151476592160e+01 6.816181254707980486e+01
2.995971317783526988e+00 2.943041473240524297e+01 6.777881516912746918e+01
3.137850323871245628e+00 2.937894257034156809e+01 6.739623201748207748e+01
3.279701967296439591e+00 2.932547685426796846e+01 6.701406039209274468e+01
3.421525577475147628e+00 2.927003940554244110e+01 6.663229755329876980e+01
3.563320508638199158e+00 2.921265204036682661e+01 6.625094072357873642e+01
3.705086139355227459e+00 2.915333656850717148e+01 6.586998708781503353e+01
3.846821872325765224e+00 2.909211479245719190e+01 6.548943379448635937e+01
3.988527134342633396e+00 2.902900850634258845e+01 6.510927795646927052e+01
4.130201376046876760e+00 2.896403949497021202e+01 6.472951665176545077e+01
2.309705757991943553e+00 2.947924470748483827e+01 6.841091064987594450e+01
2.451623363155220225e+00 2.943259999776601887e+01 6.802737825297916174e+01
2.593515998568654002e+00 2.938391802803850084e+01 6.764426234471432053e+01
2.735382928434516803e+00 2.933322061078430920e+01 6.726156027243548863e+01
2.877223441565565309e+00 2.928052955594951356e+01 6.687926934397114564e+01
3.019036850977181441e+00 2.922586666998130411e+01 6.649738682830628989e+01
3.160822494259930782e+00 2.916925375471048199e+01 6.611590995601912368e+01
3.302579733314611410e+00 2.911071260587334564e+01 6.573483592073435489e+01
3.444307953971793346e+00 2.905026501247361637e+01 6.535416187938722032e+01
3.586006565782985156e+00 2.898793275598880115e+01 6.497388495372410944e+01
2.337591544624567863e+00 2.928383627508500453e+01 6.712902423119430750e+01
2.479431155798478947e+00 2.923191172312493080e+01 6.674661903143746144e+01
2.621244406351500800e+00 2.917801521167915269e+01 6.636462190987619181e+01
2.763030619999276460e+00 2.912216853021006102e+01 6.598303010505502186e+01
2.904789144800659528e+00 2.906439346275128344e+01 6.560184081828019487e+01
3.046519352493618271e+00 2.900471178707083553e+01 6.522105121457911991e+01
2.366966942167112897e+00 2.907103420953164274e+01 6.585106645275436676e+01
2.508729832059372278e+00 2.901402113866482324e+01 6.546976383684058476e+01
