8.669089378055222284e+00 2.861635810308249361e+01 6.947381630011501841e+01
8.807600437160129303e+00 2.855291408510521123e+01 6.909728645593244778e+01
8.946092795421041188e+00 2.848751996191880664e+01 6.872111649942279143e+01
8.003588429474664423e+00 2.874308248660972609e+01 7.008803105492275165e+01
8.142144917170417884e+00 2.868434132853191088e+01 6.971065582427476670e+01
8.280683422379867764e+00 2.862360761995222092e+01 6.933364646648200846e+01
8.419203704734183447e+00 2.856090250065036074e+01 6.895699995751979827e+01
8.557705536670425772e+00 2.849624710457803545e+01 6.858071325350586278e+01
8.696188703908774187e+00 2.842966255962665301e+01 6.820478329112100369e+01
8.834653004826236611e+00 2.836116998691968760e+01 6.782920698802874426e+01
8.973098250217386607e+00 2.829079050053151434e+01 6.745398124370230164e+01
7.475840337113399237e+00 2.880153697204033492e+01 7.032639197097799411e+01
7.614421320865337961e+00 2.874555114994942073e+01 6.994853058973926352e+01
7.752984889439066940e+00 2.868755146450244098e+01 6.957103797312355198e+01
7.891530780483793528e+00 2.862755905723037486e+01 6.919391112243636144e+01
8.030058744765032230e+00 2.856559506444990149e+01 6.881714701851261395e+01
8.168568546564836552e+00 2.850168061739882219e+01 6.844074262201402803e+01
8.307059962969288947e+00 2.843583684109879428e+01 6.806469487454350542e+01
8.445532784148467087e+00 2.836808485444246841e+01 6.768900069825693322e+01
8.583986812326150684e+00 2.829844576920835308e+01 6.731365699739353659e+01
8.722421862542759641e+00 2.822694068980003124e+01 6.693866065790368225e+01
8.860837761706365612e+00 2.815359071301199734e+01 6.656400854858601690e+01
8.999534824639393804e+00 2.807836848296647858e+01 6.618955873424319236e+01
6.946181053500372293e+00 2.885306983672811754e+01 7.056528970078088037e+01
7.084780812207955414e+00 2.879986473330206209e+01 7.018693718831784167e+01
7.223363839458702529e+00 2.874462446924897208e+01 6.980895628493622951e+01
7.361929849658094938e+00 2.868737018528075566e+01 6.943134401795965971e+01
7.500478570776290432e+00 2.862812301837497131e+01 6.905409739346366393e+01
7.639009744171894489e+00 2.856690410058101648e+01 6.867721339735810204e+01
7.777523124305528057e+00 2.850373455935109135e+01 6.830068899537516813e+01
7.916018478832609340e+00 2.843863551619921282e+01 6.792452113387929558e+01
8.054495588099454650e+00 2.837162808648327683e+01 6.754870674017207932e+01
8.192954244918279727e+00 2.830273337911507525e+01 6.717324272321602052e+01
8.331394254639160835e+00 2.823197249559438049e+01 6.679812597395694240e+01
8.469815434515405528e+00 2.815936653006897572e+01 6.642335336605670193e+01
8.608217613756194098e+00 2.808493656871979383e+01 6.604892175632775775e+01
8.746224691383504890e+00 2.800883350810596184e+01 6.567539997376317729e+01
6.417138708279034098e+00 2.889743756862274893e+01 7.080427394445544564e+01
6.554988934405955980e+00 2.884717696413470733e+01 7.042645820294337966e+01
6.693589678910401908e+00 2.879471789185688024e+01 7.004798649562881963e+01
6.832174109064818701e+00 2.874022351574410550e+01 6.966988625869024077e+01
6.970741929700897899e+00 2.868371497166253192e+01 6.929215452445511403e+01
7.109292859468247627e+00 2.862521339163374634e+01 6.891478830401850075e+01
7.247826629968547429e+00 2.856473990343835467e+01 6.853778458812197982e+01
7.386342986275633571e+00 2.850231563024343728e+01 6.816114034733280391e+01
7.524841686347701675e+00 2.843796168955714521e+01 6.778485253304685898e+01
7.663322500923852587e+00 2.837169919320659517e+01 6.740891807758490017e+01
7.801785213216845705e+00 2.830354924674353612e+01 6.703333389461427316e+01
7.940229618892342245e+00 2.823353294867379759e+01 6.665809688006663691e+01
8.078655525840954255e+00 2.816167139021092325e+01 6.628320391255675759e+01
8.217062753543615372e+00 2.808798565485723486e+01 6.590865185352201649e+01
8.355124775115468694e+00 2.801263617658975846e+01 6.553509642889754616e+01
5.888440475321027101e+00 2.893472230573520321e+01 7.104439120253495332e+01
6.026222263781397359e+00 2.888726428019541359e+01 7.066605418695775143e+01
6.163986544310014359e+00 2.883772798116130787e+01 7.028798865426165321e+01
6.302268584545489993e+00 2.878603922813921301e+01 6.990954909472276313e+01
6.440853747179088984e+00 2.873229105696848151e+01 6.953132972560855762e+01
6.579422717321076419e+00 2.867652857858158555e+01 6.915347871977078853e+01
6.717975204071550799e+00 2.861877292003886453e+01 6.877599309337097111e+01
6.856510929535668097e+00 2.855904520444671135e+01 6.839886984202983911e+01
6.995029629159150275e+00 2.849736655028320342e+01 6.802210594130998800e+01
7.133531051541501355e+00 2.843375807094752616e+01 6.764569834729809372e+01
7.272014957653910372e+00 2.836824087453574705e+01 6.726964399730908895e+01
7.410481121235076074e+00 2.830083606254082440e+01 6.689393980999068390e+01
7.548929328480754819e+00 2.823156473027823310e+01 6.651858268603979241e+01
7.687408773069582146e+00 2.816046275040446289e+01 6.614367011257965601e+01
7.825820099912384364e+00 2.808752172828574345e+01 6.576899693031391791e+01
7.963843411568624298e+00 2.801289752503924291e+01 6.539521082040846522e+01
5.496992325014044667e+00 2.892023303486486085e+01 7.090685790361327179e+01
5.635104610084121113e+00 2.887349206531971646e+01 7.052822419124588293e+01
5.772951687537858589e+00 2.882470998618349611e+01 7.015016272047078871e+01
5.911551884786025113e+00 2.877374068599315038e+01 6.977145399896365063e+01
6.049891738620860160e+00 2.872076442169837307e+01 6.939330095102998541e+01
6.188141882836148966e+00 2.866577333301261277e+01 6.901548281204733826e+01
6.326695442341059739e+00 2.860876401744607378e+01 6.863787816537276854e+01
6.465232643617262021e+00 2.854978249963069104e+01 6.826063575398740113e+01
6.603753212506227932e+00 2.848884989333507534e+01 6.788375255857043555e+01
6.742256888174289031e+00 2.842598730733425327e+01 6.750722554003861831e+01
6.880792126149571253e+00 2.836123053948031369e+01 6.713115231241553715e+01
7.019260917832640168e+00 2.829457141108098384e+01 6.675532765277671388e+01
7.157712108773003123e+00 2.822604558784860274e+01 6.637984993900461461e+01
7.296145487622639259e+00 2.815567415443596389e+01 6.600471605969438826e+01
7.434560855063699236e+00 2.808347818870953461e+01 6.562992288660369411e+01
7.572594213906234550e+00 2.800959434725087860e+01 6.525600791158487368e+01
5.106062305578718430e+00 2.890211376579995672e+01 7.076994919166131126e+01
5.243697470185483489e+00 2.885612095099665098e+01 7.039126504977959087e+01
5.381873122115838015e+00 2.880805700273447911e+01 7.001289929732337214e+01
5.520471741935038423e+00 2.875783300389365849e+01 6.963407274386304380e+01
5.658733071353588606e+00 2.870559583644776680e+01 6.925576891858794681e+01
5.797301976874335239e+00 2.865132335164525657e+01 6.887768096567720022e+01
5.935855194033795357e+00 2.859505745285900247e+01 6.849995812872504075e+01
6.073661121584890132e+00 2.853685714810334417e+01 6.812278052354497504e+01
6.212233163935834135e+00 2.847668615835720018e+01 6.774588235866077923e+01
6.350737869364607491e+00 2.841456984569795097e+01 6.736923514210766939e+01
6.489225820913028464e+00 2.835054450314475361e+01 6.699294091452291866e+01
6.627696773450218792e+00 2.828463122434073185e+01 6.661699660485579955e+01
6.766150493989091963e+00 2.821685109690062276e+01 6.624139912398099739e+01
6.904586761888407587e+00 2.814722520185155474e+01 6.586614536520650631e+01
7.043005368245660591e+00 2.807577461349776726e+01 6.549123220498674414e+01
7.181046872123377334e+00 2.800263088898143593e+01 6.511718448722358232e+01
7.319013504739402265e+00 2.792768914992399587e+01 6.474334292829620097e+01
4.714376373724193492e+00 2.888028008367978572e+01 7.063348995809704434e+01
4.852463746335184069e+00 2.883502251678800476e+01 7.025460363635878025e+01
4.990617481172114012e+00 2.878770365498386141e+01 6.987613894080759280e+01
5.129214655219446861e+00 2.873822517527411335e+01 6.949719428039736613e+01
5.267367819171587584e+00 2.868671406796555345e+01 6.911865666923434048e+01
5.405611586416279479e+00 2.863320837557121834e+01 6.874060313724035609e+01
5.544214247139228391e+00 2.857770497442521673e+01 6.836286767529493602e+01
5.682751053142483855e+00 2.852021360375923464e+01 6.798538722988415373e+01
5.820951104316633540e+00 2.846079738102706358e+01 6.760841776014606808e+01
5.959041399166189912e+00 2.839943620190662443e+01 6.723168571281503603e+01
6.097530428438075134e+00 2.833615718659471128e+01 6.685527216114310534e+01
6.236002845950558537e+00 2.827099009394222406e+01 6.647920839904362822e+01
6.374458409488837241e+00 2.820395600706169503e+01 6.610349134238231272e+01
6.512896888770975501e+00 2.813507600314717649e+01 6.572811788905049468e+01
6.651318065552572989e+00 2.806437115253621073e+01 6.535308492038062411e+01
6.789367135153923982e+00 2.799196792952641033e+01 6.497890458715387751e+01
6.927342592713445768e+00 2.791776517988041562e+01 6.460492760638372545e+01
4.322570678653514520e+00 2.885468542755695864e+01 7.049758047524179005e+01
4.460661155055162475e+00 2.881016967256863737e+01 7.011856025448369678e+01
4.598817225761786531e+00 2.876359356434795345e+01 6.973996438614548765e+01
4.737411862309540034e+00 2.871486242640654396e+01 6.936090164189509721e+01
4.876042976953598007e+00 2.866411153143064539e+01 6.898231792009453045e+01
5.014608532527016216e+00 2.861133002988829688e+01 6.860399294411524806e+01
5.152724110376912137e+00 2.855655739352094358e+01 6.822606999246364978e+01
5.290936233600668892e+00 2.849983369657537580e+01 6.784862506878359056e+01
5.429456782061849118e+00 2.844113784878330975e+01 6.747138473602596775e+01
5.567961614266009995e+00 2.838051165034265821e+01 6.709450018886327882e+01
5.706129014709394376e+00 2.831800323813670062e+01 6.671812044278665610e+01
5.844181297718987089e+00 2.825359066730981183e+01 6.634197249740506663e+01
5.982637986966529375e+00 2.818730295097036986e+01 6.596613606854741363e+01
6.121077969244976380e+00 2.811916917644684588e+01 6.559064311807799186e+01
6.259501017126715361e+00 2.804921041010159044e+01 6.521549053178053157e+01
6.397602564759078625e+00 2.797756886797260378e+01 6.484129571330304032e+01
6.535582303002738236e+00 2.790410981793876033e+01 6.446720464023634634e+01
3.930647873293145356e+00 2.882527265443784970e+01 7.036223009780519533e+01
4.068740738462609308e+00 2.878149895163391037e+01 6.998307619454077155e+01
4.206950738901165998e+00 2.873568249187514212e+01 6.960446114481710822e+01
4.345541670161287229e+00 2.868769910036713711e+01 6.922527981189719526e+01
4.484118872925373367e+00 2.863767980100196553e+01 6.884646905286999186e+01
4.622681999427345367e+00 2.858564569448218506e+01 6.846802592574543667e+01
4.761230715238114364e+00 2.853161787921373005e+01 6.808994746825463551e+01
4.899764698763530824e+00 2.847561745130026978e+01 6.771223069777875025e+01
5.038283641233467058e+00 2.841766550346114784e+01 6.733487261179624284e+01
5.176022469673942972e+00 2.835780930022119861e+01 6.695806151145147567e+01
5.314510960099275039e+00 2.829602073687107477e+01 6.658141080598876727e+01
5.452983599728340458e+00 2.823234387370087362e+01 6.620510963859315723e+01
5.591167135499825136e+00 2.816684550915680063e+01 6.582941159013518018e+01
5.729607758857389044e+00 2.809945687149198434e+01 6.545379872568705082e+01
5.867604635420814674e+00 2.803025328407314021e+01 6.507856091928279341e+01
6.005665151170950899e+00 2.795933565334356175e+01 6.470413338311449536e+01
6.143652348415026054e+00 2.788661634502096831e+01 6.432990722870930256e+01
3.676758606625428971e+00 2.874897393866848816e+01 6.984829964175169437e+01
3.814917105880503367e+00 2.870388096882701845e+01 6.946941700859788682e+01
3.953503842685684777e+00 2.865664534412062991e+01 6.909011814911870886e+01
4.092077324010862327e+00 2.860737374172800429e+01 6.871118968560757878e+01
4.230637193702544430e+00 2.855608725501932099e+01 6.833262868049963856e+01
4.369183108522721071e+00 2.850280697574989475e+01 6.795443217602489483e+01
4.507714738066410654e+00 2.844755399325437040e+01 6.757659719382493790e+01
4.646231764557377630e+00 2.839034939416337977e+01 6.719912073598713675e+01
4.784788185598967125e+00 2.833123360060844931e+01 6.682211154144802379e+01
4.922950547632590101e+00 2.827021109925416553e+01 6.644549663685192797e+01
5.061422369418961509e+00 2.820727982351127139e+01 6.606907612381822048e+01
5.199428218565227411e+00 2.814248463126713062e+01 6.569303800655086434e+01
5.337868085618272751e+00 2.807584129721717758e+01 6.531730675060694580e+01
5.475968453155021010e+00 2.800740049380809538e+01 6.494206686564770337e+01
5.614056834784348915e+00 2.793721706080449962e+01 6.456747535084406309e+01
5.751596082673215093e+00 2.786525155363744943e+01 6.419318216356089124e+01
3.284815677126492695e+00 2.871253328579607000e+01 6.971415414941763800e+01
3.422973685506701003e+00 2.866818318447621650e+01 6.933513689381993572e+01
3.561555609411312329e+00 2.862169564829041590e+01 6.895572102484173627e+01
3.700124752572349074e+00 2.857317207074700960e+01 6.857667536237056538e+01
3.838680750319420021e+00 2.852263353756705655e+01 6.819799697335844257e+01
3.977283159207296581e+00 2.847012203628082005e+01 6.781980441817250949e+01
4.115811435872662294e+00 2.841561699964477583e+01 6.744185088050069510e+01
4.254325550891008945e+00 2.835916024514363798e+01 6.706425569174716372e+01
4.392825190419516801e+00 2.830077284958908379e+01 6.668701583945372136e+01
4.531310052926621701e+00 2.824047588607567860e+01 6.631012829264955144e+01
4.669779849366016755e+00 2.817829042326398437e+01 6.593359000171379591e+01
4.807909757479386315e+00 2.811425987135303828e+01 6.555755191676585980e+01
4.946349371434703990e+00 2.804836214785887805e+01 6.518170227602193734e+01
5.084309398873830155e+00 2.798064075601496725e+01 6.480622561929672543e+01
5.222070190747795770e+00 2.791122869176884791e+01 6.443167712041237394e+01
5.360095578470031263e+00 2.783998591180795756e+01 6.405716722608464408e+01
2.892563914975148531e+00 2.867207040243526350e+01 6.958040979404616166e+01
3.030721330365272692e+00 2.862846386571247592e+01 6.920126213903732548e+01
3.169359372865779623e+00 2.858274594797311252e+01 6.882185523582688802e+01
3.307922671508605195e+00 2.853497061301861848e+01 6.844269166523750414e+01
3.446473303290558565e+00 2.848518026067804243e+01 6.806389517674058709e+01
3.585010908181757383e+00 2.843339596803363634e+01 6.768546282144932036e+01
3.723535138740879713e+00 2.837963881051128112e+01 6.730739163033331351e+01
3.862045660038461836e+00 2.832392986099672783e+01 6.692967861462987855e+01
4.000542149467666064e+00 2.826629018977437013e+01 6.655232076647583028e+01
4.139024296941150816e+00 2.820674086358761201e+01 6.617531505915077616e+01
4.277491804475461734e+00 2.814530294512022834e+01 6.579865844762679217e+01
4.415944386066333216e+00 2.808199749270031020e+01 6.542234786923130230e+01
4.554381767748792775e+00 2.801684555962522793e+01 6.504638024371440963e+01
4.692478817077613940e+00 2.794989089769563861e+01 6.467090670215627313e+01
4.830579687082058982e+00 2.788118999609508819e+01 6.429605638540600410e+01
2.500267444001853079e+00 2.862758421480380733e+01 6.944739558570550741e+01
2.638426178031149316e+00 2.858472126642764977e+01 6.906811339235396474e+01
2.776994916432654392e+00 2.853973025777988326e+01 6.868846322163432205e+01
2.915551852146653911e+00 2.849270312203296029e+01 6.830918286513990267e+01
3.054096604441763674e+00 2.844366092950262015e+01 6.793026939821373844e+01
3.192628805385623103e+00 2.839262474942078285e+01 6.755171987584103022e+01
3.331148099198219636e+00 2.833961564983398418e+01 6.717353133334637505e+01
3.469654142487573534e+00 2.828465469652121911e+01 6.679570078599938654e+01
3.608146604369099286e+00 2.822776295273341418e+01 6.641822523033937387e+01
3.746625166077613756e+00 2.816896147845358556e+01 6.604110164400751160e+01
3.885089520862882395e+00 2.810827133007859757e+01 6.566432698649317956e+01
4.023539374071316566e+00 2.804571355982129433e+01 6.528789819948464412e+01
4.161974443023438219e+00 2.798130921523510750e+01 6.491181220713272637e+01
2.384526920695971608e+00 2.849261201974242042e+01 6.855567850918797035e+01
2.523076562427610359e+00 2.844633319668301041e+01 6.817628170288958245e+01
2.661614509534327322e+00 2.839803929081924849e+01 6.779725158715716304e+01
2.800140386117258462e+00 2.834775136354215519e+01 6.741858522081774652e+01
2.938653828582782346e+00 2.829549047492475466e+01 6.704027964303557496e+01
3.077154485288590813e+00 2.824127768334065181e+01 6.666233187360315071e+01
3.215642016979965323e+00 2.818513404490524366e+01 6.628473891295956832e+01
3.354116096607306030e+00 2.812708061253667324e+01 6.590749774321717780e+01
3.492576409035896834e+00 2.806713843583680656e+01 6.553060532799361226e+01
3.631022650941492902e+00 2.800532856079439981e+01 6.515405861346205540e+01
2.409991575912283857e+00 2.829902539524250216e+01 6.728683984009715857e+01
2.548504281099239321e+00 2.824750863846246673e+01 6.690841974301872597e+01
2.687004572175750283e+00 2.819403991453957659e+01 6.653035728693809858e+01
2.825492102849638254e+00 2.813864027335502982e+01 6.615264947637751902e+01
2.963966539150329815e+00 2.808133076202564382e+01 6.577529329719008899e+01
3.102427558846809319e+00 2.802213242458541842e+01 6.539828571708956417e+01
2.436207911433556639e+00 2.808807373026581899e+01 6.602134382757718356e+01
2.574684244029686209e+00 2.803150609763240908e+01 6.564387360017029494e+01
