-7.407105154999999996e-01 -7.604901937639999687e+01 3.104419397370000056e+01
3.015590928299999973e+00 -7.405578257829999700e+01 2.774203589920000113e+01
2.917780445500000042e+00 -7.503054886889999864e+01 2.339031994970000028e+01
3.089054007600000151e+00 -7.499031675090000704e+01 4.019228421129999873e+01
-3.481416472299999842e+00 -7.328256289589999994e+01 2.532386407830000152e+01
-1.642845394400000103e+00 -7.420799514220000503e+01 2.468534799080000042e+01
-2.199987925199999861e+00 -7.339815784229999451e+01 2.318065979380000030e+01
-1.599498519800000018e+00 -7.491238238219999346e+01 3.368731724349999723e+01
-3.282597178500000101e+00 -7.264129106309999884e+01 4.207380965509999982e+01
-1.560012477000000120e-01 -7.606355284890000235e+01 2.919719222939999881e+01
-1.612552000200000002e+00 -7.367926709019999976e+01 3.953463795430000260e+01
-1.626051681999999943e+00 -7.488774953899999787e+01 2.323691084189999856e+01
3.236820663000000042e+00 -7.366906207099999904e+01 3.629437967319999814e+01
2.927912101200000006e+00 -7.551619709150000403e+01 3.374036877510000210e+01
3.199193539199999936e+00 -7.385926468350000107e+01 3.329382393929999751e+01
3.490109419999999907e-01 -7.607777980129999662e+01 3.039984319359999887e+01
2.956929220500000177e+00 -7.421839760119999596e+01 2.534136040750000163e+01
-1.697592413000000022e-01 -7.529199530980000077e+01 4.051911339760000175e+01
2.908242321499999949e+00 -7.503747013730000504e+01 2.489029340969999993e+01
2.427755185800000159e+00 -7.598853579110000567e+01 2.449185514990000101e+01
2.972007180000000096e-02 -7.321684483820000366e+01 4.254211280810000062e+01
2.942906429299999793e+00 -7.456889297360000057e+01 2.984112386340000000e+01
-1.609751482400000100e+00 -7.563161638050000590e+01 2.468867301310000073e+01
-1.587726246199999913e+00 -7.489967818179999881e+01 3.308733720709999915e+01
-1.289438177200000091e+00 -7.594539263139999719e+01 2.709106359869999991e+01
5.071037191700000335e+00 -7.314210812379999993e+01 3.560906575479999958e+01
4.360808715300000138e+00 -7.328878159399999959e+01 3.690346283400000260e+01
4.363253973299999977e+00 -7.348645291370000621e+01 3.375320758200000171e+01
1.787571333999999901e+00 -7.580319154369999524e+01 2.215645579750000138e+01
3.000954052900000057e+00 -7.404184716839999680e+01 2.849196008390000046e+01
-2.147785418499999821e+00 -7.378783633470000325e+01 3.248198328050000327e+01
1.164656842499999900e+00 -7.322846940179999820e+01 4.256861209099999854e+01
3.162563464000000213e+00 -7.366888791229999356e+01 2.534341201339999827e+01
-1.301642445599999975e+00 -7.391775242960000014e+01 4.094638345199999918e+01
1.868682472099999936e+00 -7.291283688129999518e+01 1.934102434000000059e+01
2.459066333500000034e+00 -7.597484433980000063e+01 3.432375175389999811e+01
2.920254645300000007e+00 -7.545047828340000251e+01 3.044024562530000111e+01
4.931428326099999815e+00 -7.328155444470000646e+01 3.435782005939999806e+01
3.272116908000000102e+00 -7.314369569529999637e+01 4.097094010930000252e+01
4.624163583699999691e+00 -7.319835355940000454e+01 2.490516002860000100e+01
-4.037270405700000175e+00 -7.321833324719999325e+01 2.722090497339999970e+01
2.981569059999999993e+00 -7.417145230709999737e+01 3.884207123329999689e+01
3.740922380599999819e+00 -7.361486604979999981e+01 3.434827897120000273e+01
-1.561982468899999921e+00 -7.346533124559999806e+01 4.031443973340000042e+01
3.060519199099999810e+00 -7.492814446810000106e+01 3.944208639080000012e+01
-3.534487845100000136e+00 -7.313201873399999897e+01 3.697349788769999890e+01
2.952084603099999871e+00 -7.471452793020000627e+01 2.841602511279999987e+01
5.018194260299999598e+00 -7.289770716030000131e+01 3.885897057649999908e+01
3.014772458499999974e+00 -7.544601866390000566e+01 3.884128404690000025e+01
-2.934548426800000165e+00 -7.317415473100000156e+01 3.882671182669999865e+01
4.368927584799999764e+00 -7.348458691689999966e+01 3.300322658529999842e+01
5.039925299300000106e+00 -7.282343351049999569e+01 3.942922096670000087e+01
-3.923986632900000160e+00 -7.329781330640000192e+01 2.917170334680000110e+01
2.928584419599999933e+00 -7.545566846619999524e+01 2.984028485580000023e+01
3.644399408099999960e+00 -7.365614212869999733e+01 2.849728549670000177e+01
-1.793028828999999880e-01 -7.317533016470000007e+01 4.274095098779999802e+01
4.349669194099999636e+00 -7.278343670380000674e+01 4.153372761800000035e+01
4.629564592600000417e+00 -7.252152999310000325e+01 1.995558116049999953e+01
-2.632014328799999969e+00 -7.325245249569999828e+01 2.257810481110000111e+01
3.695372822299999971e+00 -7.330176672700000040e+01 3.884834142030000237e+01
-2.137864395999999889e+00 -7.357015826900000377e+01 2.468139107700000068e+01
1.118279272399999913e+00 -7.598566402110000695e+01 3.945427625819999662e+01
2.617922693000000134e+00 -7.483350528600000473e+01 4.044260308079999788e+01
1.124039698999999892e+00 -7.344730846310000061e+01 4.089821205100000157e+01
2.978146451699999808e+00 -7.332871697090000396e+01 4.096576187309999995e+01
4.357148428600000400e+00 -7.270289487940000583e+01 4.213364383340000074e+01
2.969659916099999908e+00 -7.408874372559999699e+01 3.494190756870000314e+01
2.922262091799999961e+00 -7.548487415660000011e+01 3.239030243949999743e+01
3.015751608600000022e+00 -7.483023445960000686e+01 3.824177550699999983e+01
2.921289393399999934e+00 -7.540957746840000198e+01 2.774019113579999996e+01
4.400125025700000414e+00 -7.349923375429999339e+01 3.045336666809999926e+01
1.839836753299999961e+00 -7.599745295719999660e+01 2.320717648999999838e+01
-2.051358111499999914e+00 -7.356889030029999788e+01 3.698208624109999931e+01
1.201979471300000046e+00 -7.479208433789999333e+01 4.057478162849999848e+01
-2.248267612799999871e+00 -7.320077712200000519e+01 2.182994648340000055e+01
-1.605456315499999898e+00 -7.497010832130000324e+01 2.978733418119999854e+01
-3.461101504100000170e+00 -7.298521554149999702e+01 3.877358669779999900e+01
-2.076992544499999926e+00 -7.330162388189999945e+01 2.203105409329999986e+01
1.201153614100000100e+00 -7.391836996349999822e+01 4.127689173539999956e+01
4.201489599800000363e+00 -7.326299112019999882e+01 3.765227044819999946e+01
-3.350088158700000207e+00 -7.348351906809999434e+01 3.097510063460000040e+01
-3.736145565200000185e+00 -7.320653313729999923e+01 3.472258055289999845e+01
4.487979339000000012e-01 -7.429220775909999475e+01 4.064885725210000089e+01
3.191049162300000130e+00 -7.373809444810000002e+01 2.654361969729999871e+01
3.099868067000000060e+00 -7.403473093639999547e+01 3.239287474120000354e+01
2.953336295400000200e+00 -7.493011874430000319e+01 2.589076811349999829e+01
-2.061250454100000074e+00 -7.359303994690000650e+01 3.638207656849999694e+01
-1.294389467000000016e+00 -7.596113701459999845e+01 2.649106068520000079e+01
3.746144212499999959e+00 -7.324496134059999974e+01 2.319822623620000002e+01
-7.530983355999999462e-01 -7.600656486949999646e+01 3.948421019549999755e+01
-8.392489477000000253e-01 -7.583194332050000241e+01 2.214302317860000002e+01
2.940589478999999784e+00 -7.481659694149999495e+01 2.654078515349999989e+01
3.015932823400000018e+00 -7.484004836479999767e+01 3.884179022179999663e+01
2.931508815599999984e+00 -7.424248042370000178e+01 2.329106979690000045e+01
3.720874577900000091e+00 -7.358901806469999940e+01 3.494816546799999912e+01
3.137798755800000006e+00 -7.354434140210000237e+01 3.944382326339999878e+01
3.776077099300000128e+00 -7.314608788719999666e+01 4.030391196080000071e+01
2.948411520700000121e+00 -7.473775372960000141e+01 2.709093030449999873e+01
5.042251622900000285e+00 -7.301625946519999388e+01 2.445854805990000003e+01
3.171202375300000043e+00 -7.382653411619999417e+01 3.434367026320000349e+01
5.494003001999999691e-01 -7.319209589240000469e+01 4.277691593099999778e+01
1.268468960100000098e+00 -7.317601260780000416e+01 4.280080961729999700e+01
2.437237621299999990e+00 -7.309134606519999977e+01 4.272162195589999811e+01
3.137494707900000179e+00 -7.296035862840000163e+01 4.272593489470000350e+01
3.747127663100000117e+00 -7.280869311280000034e+01 4.273623888419999872e+01
4.277417497500000110e+00 -7.264196951709999439e+01 4.274000191279999683e+01
5.045052654300000050e+00 -7.237080123900000217e+01 4.274876967280000173e+01
-2.374907551600000222e+00 -7.319655413969999813e+01 3.982965745679999969e+01
5.178331847999999571e-01 -7.309396621870000388e+01 2.001390497199999885e+01
5.408744343000000399e-01 -7.329337426019999668e+01 4.210941568700000204e+01
1.251287457799999947e+00 -7.327366324860000191e+01 4.213759826550000298e+01
2.433024208099999974e+00 -7.316184595410000213e+01 4.212170377049999814e+01
3.137131613299999788e+00 -7.304225439600000414e+01 4.212604772600000302e+01
3.753428633199999975e+00 -7.289535915650000675e+01 4.213638505929999667e+01
4.998874224299999725e+00 -7.248621441619999928e+01 4.217193169560000143e+01
3.682710752000000198e-01 -7.604788509360000148e+01 3.825003769370000128e+01
4.291060926500000150e+00 -7.285816564889999825e+01 2.130271790979999835e+01
4.802238763300000102e+00 -7.256684336950000613e+01 4.200767300420000083e+01
3.187022088800000041e+00 -7.361212871300000415e+01 3.824410812419999672e+01
4.458388895899999760e+00 -7.327661430480000604e+01 2.526381814320000174e+01
5.107239062999999746e-01 -7.338296892079999623e+01 4.152867662709999763e+01
1.776109992100000090e+00 -7.334973706099999902e+01 4.151717990819999926e+01
3.134488032800000212e+00 -7.312802951589999623e+01 4.152615743770000023e+01
4.942385794799999843e+00 -7.260614075760000219e+01 4.147302704650000038e+01
5.017075140600000260e+00 -7.249589518480000550e+01 4.168791880530000071e+01
2.502683905500000083e+00 -7.349238910660000101e+01 4.094861490089999734e+01
2.384963315199999823e+00 -7.478685685349999801e+01 4.060642459489999823e+01
2.896493052499999887e+00 -7.405232809160000329e+01 4.079157608450000083e+01
4.980031461200000287e+00 -7.263235408239999913e+01 2.068264361609999824e+01
3.718052031300000060e+00 -7.307590375610000422e+01 2.204810531360000070e+01
2.984382072999999913e+00 -7.419777387950000502e+01 4.019211958710000232e+01
3.096731710699999862e+00 -7.348205135969999446e+01 4.023139695950000316e+01
2.338238840799999885e+00 -7.589292581499999812e+01 3.998569177529999763e+01
4.374934809500000021e+00 -7.298181723170000623e+01 4.011246347080000163e+01
5.104234731100000033e+00 -7.269190825200000461e+01 4.010567135309999998e+01
-1.646317457699999931e+00 -7.376050131600000270e+01 3.758460430870000124e+01
2.986767087000000043e+00 -7.560960539520000623e+01 3.949095496340000011e+01
3.621028571500000126e+00 -7.328074390000000449e+01 3.939779950169999978e+01
-1.487779286799999934e+00 -7.481383523460000617e+01 4.033062636670000245e+01
2.873686726999999941e+00 -7.581243429209999363e+01 3.928990115500000257e+01
-1.558079273499999973e+00 -7.498469703909999851e+01 2.198744916600000110e+01
2.436400281200000073e+00 -7.598865302999999471e+01 3.882370994579999746e+01
2.895198331700000072e+00 -7.584323643480000499e+01 3.884002732780000144e+01
4.166837661799999815e+00 -7.321851822319999314e+01 3.870207455399999930e+01
-1.626637824599999949e+00 -7.506837484890000667e+01 2.468733801289999974e+01
2.435595264299999840e+00 -7.595785818509999388e+01 3.822365939899999887e+01
3.728865520999999905e+00 -7.335131682210000292e+01 3.824854014150000125e+01
2.891086361500000201e+00 -7.582411936100000105e+01 3.808998430700000171e+01
4.195519801299999685e+00 -7.325958774689999586e+01 3.810224278430000311e+01
3.062195812500000169e+00 -7.490261686249999684e+01 3.764205631890000348e+01
3.201642594099999961e+00 -7.362840887389999978e+01 3.764418722740000334e+01
3.757177617500000011e+00 -7.339173399409999377e+01 3.764870602639999930e+01
4.499424455399999800e+00 -7.318020684530000608e+01 3.765465767479999926e+01
3.189750205000000172e+00 -7.374529894670000374e+01 2.714362503030000084e+01
2.415971021799999896e+00 -7.597456515909999553e+01 3.705601126359999853e+01
2.951998270899999888e+00 -7.551033342259999870e+01 3.709068032249999902e+01
2.964743523100000111e+00 -7.411330711899999812e+01 3.704192388879999953e+01
3.822841899000000154e+00 -7.343577386169999954e+01 3.695915650850000134e+01
4.970831427600000296e+00 -7.308736188689999835e+01 3.690837687540000189e+01
2.447750577699999930e+00 -7.597674640740000029e+01 3.627372209079999976e+01
2.988334542300000063e+00 -7.475104377309999393e+01 3.629155763850000227e+01
4.432153537599999638e+00 -7.334188628639999763e+01 3.615394796449999859e+01
5.005080582399999756e+00 -7.313587193429999900e+01 3.615857699970000283e+01
2.438265713799999901e+00 -7.592714597730000037e+01 3.552361067719999710e+01
2.911063724599999958e+00 -7.551497827939999752e+01 3.554030268340000021e+01
3.003464808599999980e+00 -7.476584898519999456e+01 3.554163658120000235e+01
3.238389414199999816e+00 -7.376208677370000544e+01 3.559429065249999979e+01
3.765696300500000149e+00 -7.355545115789999500e+01 3.551856221439999928e+01
4.444183741999999882e+00 -7.335359998580000251e+01 3.555401064950000034e+01
3.098183736999999827e+00 -7.405014231900000254e+01 3.099279915609999847e+01
4.884935011999999688e+00 -7.321620629490000454e+01 3.540754911070000333e+01
2.395799245100000086e+00 -7.597217119900000171e+01 3.496903386559999660e+01
3.001803421600000021e+00 -7.475342567340000244e+01 3.494161248449999846e+01
4.906446616600000254e+00 -7.324700843760000168e+01 3.495767528350000219e+01
5.185879321899999894e+00 -7.313160658019999971e+01 3.495994523750000127e+01
-1.516019014000000054e+00 -7.315189035630000092e+01 2.078357872000000128e+01
-1.292222741000000008e+00 -7.595299832950000507e+01 3.494122794260000120e+01
3.626705111500000189e+00 -7.368666257809999820e+01 3.239726152520000113e+01
-1.661048333599999927e+00 -7.420967348150000475e+01 2.708530765149999908e+01
2.948815724400000171e+00 -7.556254268920000072e+01 3.434051483519999692e+01
3.014943754899999995e+00 -7.476709642769999675e+01 3.434168220589999976e+01
4.490816773899999781e+00 -7.341682083519999935e+01 3.435427909210000053e+01
2.462251485799999973e+00 -7.596161664619999954e+01 3.372374161110000301e+01
2.979978497499999879e+00 -7.469596146729999475e+01 3.374144701870000063e+01
3.073712931899999834e+00 -7.404972752940000191e+01 3.369270510039999778e+01
3.183832947800000035e+00 -7.384167981939999947e+01 3.389374014509999711e+01
3.607562239599999998e+00 -7.367427795250000599e+01 3.374717071559999937e+01
5.269868503399999682e+00 -7.317720220009999821e+01 3.369650464680000113e+01
3.259999347399999969e+00 -7.318754387200000622e+01 2.249446397359999850e+01
2.467516364499999781e+00 -7.597048780759999431e+01 3.312377109829999711e+01
2.931061273400000111e+00 -7.551225435119999929e+01 3.314037516930000038e+01
2.987198142800000067e+00 -7.469919459509999626e+01 3.314147921280000020e+01
3.092033867300000072e+00 -7.407253120679999370e+01 3.309280765809999991e+01
4.948844330700000071e+00 -7.329089476270000603e+01 3.300789992349999835e+01
5.236417982099999868e+00 -7.318984464150000235e+01 3.301022147749999647e+01
4.875297145300000246e+00 -7.334178092739999499e+01 2.904714469270000166e+01
-3.336066110299999998e+00 -7.348895287480000604e+01 2.857513525470000104e+01
2.459055986400000116e+00 -7.597111942979999810e+01 2.656921152540000008e+01
2.476629776599999833e+00 -7.597342351679999695e+01 3.237380590360000099e+01
2.975932007800000001e+00 -7.466746538939999311e+01 3.239139084669999846e+01
3.205212448000000158e+00 -7.385563380390000532e+01 3.239384173959999913e+01
5.087878973999999666e+00 -7.332066877580000153e+01 3.220892935460000217e+01
5.309164369500000369e+00 -7.320004602640000257e+01 3.228285114260000199e+01
-1.625817909700000063e+00 -7.559671260759999711e+01 2.978861822809999893e+01
3.620101427899999891e+00 -7.321435467460000268e+01 2.249724523600000126e+01
-1.577895653699999956e+00 -7.485183803539999303e+01 3.563733425129999688e+01
2.478129093000000172e+00 -7.595854759050000382e+01 3.162378615120000092e+01
2.920617075100000015e+00 -7.547010609369999656e+01 3.164027505509999827e+01
3.102065381900000141e+00 -7.406647974070000373e+01 3.159283732540000145e+01
3.205771319200000136e+00 -7.384712460199999384e+01 3.179383171559999965e+01
3.648002761099999880e+00 -7.371234031769999717e+01 3.164737955869999908e+01
1.698443611200000092e+00 -7.441690701010000453e+01 4.048588942399999979e+01
-2.749970000499999845e+00 -7.340273589660000653e+01 3.640811686880000053e+01
-3.288213988599999915e+00 -7.332152121740000439e+01 3.562515536330000288e+01
3.730189564999999985e-01 -7.584162952299999461e+01 2.214927315519999951e+01
2.484594442600000175e+00 -7.595768561360000604e+01 3.102380624510000118e+01
2.937827881400000063e+00 -7.549095271619999892e+01 3.104037057640000086e+01
2.971392127500000147e+00 -7.463809950930000525e+01 3.104133154739999867e+01
3.212250878299999890e+00 -7.384905302650000181e+01 3.119385921900000014e+01
3.645601288199999956e+00 -7.369861230269999908e+01 3.104735077120000142e+01
4.350139757300000021e+00 -7.354268668669999442e+01 3.108296432610000082e+01
5.043776803400000119e+00 -7.330531711099999370e+01 3.102855663129999897e+01
2.920047923999999906e+00 -7.550954704110000648e+01 2.458998733920000035e+01
4.892245159999999871e+00 -7.267867955949999725e+01 2.130151336280000152e+01
1.741405359200000058e+00 -7.602212210839999784e+01 3.490696657760000221e+01
2.486858825300000131e+00 -7.596653360329999316e+01 3.042382427080000085e+01
3.103676514800000064e+00 -7.405033113909999543e+01 3.039282040490000014e+01
3.221690781599999998e+00 -7.385620026429999996e+01 3.059390548589999881e+01
3.651710804499999963e+00 -7.369988837549999516e+01 3.044737592899999967e+01
2.925505169200000033e+00 -7.548115892090000045e+01 2.539008158560000084e+01
3.944581159200000187e+00 -7.319260822459999360e+01 2.339982106180000088e+01
4.395666995900000096e+00 -7.345814411909999819e+01 2.835329092990000177e+01
2.500035138799999945e+00 -7.597091940430000534e+01 2.982387745520000166e+01
3.094027731999999808e+00 -7.402540919250000684e+01 2.989274794250000156e+01
3.637837998400000217e+00 -7.366593745929999670e+01 2.984727443250000078e+01
4.255540246699999862e+00 -7.353885765690000653e+01 2.985218726729999972e+01
3.209947626099999951e+00 -7.382125650529999916e+01 2.969381070460000061e+01
-1.317985459700000028e+00 -7.536818681059999392e+01 4.013120017819999674e+01
2.480406756199999840e+00 -7.594907210889999760e+01 2.922376805240000053e+01
2.928773247600000129e+00 -7.544650691270000209e+01 2.924027248650000033e+01
2.981949773000000192e+00 -7.462822834329999466e+01 2.924135776640000017e+01
3.093599821799999816e+00 -7.401516038610000692e+01 2.929273166409999973e+01
3.662819707900000221e+00 -7.370048346640000148e+01 2.924741920829999842e+01
4.315707310199999647e+00 -7.350344763360000400e+01 2.914551666950000097e+01
4.370388337099999632e+00 -7.339459129760000167e+01 2.715310357319999923e+01
3.234189249599999982e+00 -7.385449780919999796e+01 2.909395078960000092e+01
4.486429550699999602e+00 -7.327616440449999402e+01 2.595406135709999873e+01
2.929595947400000178e+00 -7.549784024180000586e+01 2.855021221779999863e+01
3.207611633700000020e+00 -7.379814948620000337e+01 2.849376876590000052e+01
2.495449962999999993e+00 -7.594625902190000488e+01 2.772381307619999902e+01
1.796774338999999943e+00 -7.601579397330000631e+01 2.770708863540000166e+01
2.941902134199999796e+00 -7.453389195379999421e+01 2.774107001599999833e+01
3.214354258400000219e+00 -7.379816806079999481e+01 2.774379454500000008e+01
3.640904176299999850e+00 -7.363811230769999838e+01 2.774724638500000040e+01
4.886940046600000365e+00 -7.330215005009999629e+01 2.780722370690000034e+01
-3.712077291199999962e+00 -7.314545571870000629e+01 3.637260286320000091e+01
-3.781888692299999910e+00 -7.331180352280000534e+01 3.247253245209999761e+01
2.510826458499999969e+00 -7.595715675350000140e+01 2.712388398439999904e+01
3.014669627500000004e+00 -7.404466396990000021e+01 2.714201649350000167e+01
1.783583783399999900e+00 -7.588996799150000072e+01 3.985699243359999855e+01
2.921273532699999897e+00 -7.549110540990000118e+01 2.649007963560000078e+01
2.974707145400000030e+00 -7.416818253889999824e+01 2.659158448950000064e+01
3.617599080300000214e+00 -7.357803869490000181e+01 2.654707153740000081e+01
5.114272697399999679e+00 -7.314256265390000067e+01 2.652073632029999928e+01
2.492593734000000172e+00 -7.595321068219999461e+01 2.589622392100000070e+01
2.965398203099999908e+00 -7.414227729300000647e+01 2.599151192009999889e+01
3.180506743200000042e+00 -7.371001469670000006e+01 2.594353930979999845e+01
3.735178332999999906e+00 -7.347181766309999773e+01 2.594805263619999991e+01
5.075268444599999818e+00 -7.309820117339999967e+01 2.595879124669999882e+01
3.772879044699999795e+00 -7.344090941880000400e+01 2.528406212129999986e+01
5.067826087400000290e+00 -7.307321293479999724e+01 2.520872711679999867e+01
2.953108132700000166e+00 -7.512131163969999648e+01 2.519058456670000012e+01
-8.353997349999999766e-01 -7.549063083379999739e+01 4.022473915869999672e+01
2.986167979799999816e+00 -7.545274412519999885e+01 2.324050061020000157e+01
2.757904389200000139e+00 -7.598847007509999685e+01 2.488834287959999969e+01
2.958695910499999915e+00 -7.427044565410000132e+01 2.459130476560000034e+01
3.759248383200000099e+00 -7.339076125959999786e+01 2.454825668189999988e+01
4.302595086100000188e+00 -7.323235307550000073e+01 2.445261282979999962e+01
4.624952780100000105e+00 -7.319262400949999403e+01 2.445515485609999828e+01
1.166927397900000107e+00 -7.308220586000000196e+01 1.994646627890000090e+01
2.544745101000000176e+00 -7.597058903980000366e+01 2.382401432720000045e+01
2.897328733799999778e+00 -7.560963113530000612e+01 2.383970167489999881e+01
2.964080231300000090e+00 -7.491741117770000358e+01 2.389079099110000115e+01
3.170011450900000138e+00 -7.353715346399999930e+01 2.387352574779999870e+01
4.429178718700000239e+00 -7.314200593379999304e+01 2.385365100110000114e+01
5.021718042699999884e+00 -7.297056621919999486e+01 2.385840434529999854e+01
-8.015095370999999469e-01 -7.412576133240000331e+01 4.076940442960000155e+01
2.489861993999999967e+00 -7.595819534119999616e+01 2.326928605089999991e+01
4.995263774399999690e+00 -7.291443534680000482e+01 2.325822310339999888e+01
-2.984260871000000148e-01 -7.550757321579999370e+01 2.184507682879999990e+01
2.975426411499999979e+00 -7.390664711309999291e+01 2.279166940220000015e+01
4.377750354199999805e+00 -7.303235359549999828e+01 2.265329789919999826e+01
4.961408646099999764e+00 -7.284525744130000646e+01 2.265799495250000106e+01
2.973445217600000134e+00 -7.328564409550000391e+01 2.219214209860000153e+01
2.746558619099999987e+00 -7.349367988749999370e+01 2.219020519849999928e+01
4.340564838699999761e+00 -7.295730452530000321e+01 2.205304863920000003e+01
5.009204236499999574e+00 -7.275881108650000328e+01 2.201977587949999915e+01
2.583279046199999929e+00 -7.320108585660000244e+01 2.188916349719999843e+01
3.060203923400000026e+00 -7.312271567499999492e+01 2.144292445529999824e+01
3.697148408099999894e+00 -7.302955815849999510e+01 2.144795925349999877e+01
2.393950546600000173e+00 -7.308702040139999667e+01 2.061403332620000128e+01
3.663595930900000130e+00 -7.291589989519999904e+01 2.068029030070000118e+01
1.034118933500000059e+00 -7.604868021789999943e+01 3.430337910210000274e+01
2.943914717599999786e+00 -7.290277870430000462e+01 1.992407290239999895e+01
-3.966285725500000137e+00 -7.258981324990000417e+01 2.031973456240000075e+01
3.113566761099999969e+00 -7.279211278889999903e+01 1.932524260670000160e+01
4.333159019400000034e+00 -7.259988942149999502e+01 1.950319345229999968e+01
4.471994027400000071e+00 -7.247928082090000146e+01 1.930779975760000156e+01
-2.011429134200000135e+00 -7.348632339499999944e+01 3.818213314279999793e+01
-3.037901659999999726e-01 -7.605192189340000652e+01 2.649635147940000124e+01
-1.366273544000000117e-01 -7.603791747399999679e+01 2.859722259169999958e+01
-5.456734510999999843e-01 -7.516700054220000027e+01 4.052391879129999808e+01
-1.548853946799999992e+00 -7.418667239890000076e+01 3.758604953460000075e+01
-3.037837437099999871e+00 -7.316046997819999831e+01 3.817613741329999755e+01
-3.488728306100000065e+00 -7.266904798960000278e+01 2.002235761880000098e+01
-1.655594118900000078e+00 -7.410521310160000041e+01 3.488526493719999877e+01
-3.308022669500000124e+00 -7.336437005060000160e+01 3.487513309060000211e+01
-3.515093477899999819e+00 -7.309170511940000381e+01 3.757352055860000206e+01
-7.040349034999999756e-01 -7.603831043319999594e+01 3.489443802819999974e+01
-6.792266135000000205e-01 -7.605834335560000170e+01 2.979450477170000156e+01
-2.017839504399999928e+00 -7.388290252909999367e+01 3.083282760459999849e+01
3.940483356000000215e-01 -7.605284656620000305e+01 3.425009868669999946e+01
1.052886875800000066e+00 -7.604970160050000061e+01 3.160342214410000139e+01
-7.195624320000000573e-02 -7.605506093779999333e+01 3.434771137060000257e+01
1.716937024799999989e+00 -7.598487345690000438e+01 3.942475185760000045e+01
4.219594877000000244e-01 -7.595361653029999616e+01 3.955671042710000052e+01
-1.360045240999999960e-01 -7.596436548849999326e+01 3.954028671340000045e+01
1.211321331800000012e+00 -7.547749825939999369e+01 4.028490350100000228e+01
-1.730025631999999869e-01 -7.554315298720000271e+01 4.022116007470000199e+01
1.954217761800000064e+00 -7.516695667279999782e+01 4.050043957030000286e+01
9.543006644000000538e-01 -7.516698318870000151e+01 4.051463108930000345e+01
4.546867586000000183e-01 -7.516707491830000265e+01 4.056372536620000346e+01
-6.728921732999999517e-01 -7.491691736440000682e+01 4.048341133550000137e+01
1.448181237300000035e+00 -7.441684918030000517e+01 4.045493852149999725e+01
-5.157132200000000277e-02 -7.441691697980000697e+01 4.049122527050000286e+01
-2.188363124999999909e-01 -7.425039605240000640e+01 4.057189916730000334e+01
-8.512211030999999872e-01 -7.424079936770000643e+01 4.046511194090000174e+01
-1.451236493899999980e+00 -7.426186140469999941e+01 4.030699097080000115e+01
1.700152086299999921e+00 -7.391813810610000246e+01 4.115280010579999725e+01
-1.744278348999999950e-01 -7.391824807849999956e+01 4.121165806559999822e+01
-2.996973439999999975e-02 -7.604263929239999698e+01 3.759796654990000064e+01
-2.142443810700000117e+00 -7.376410627289999411e+01 3.368198286829999688e+01
-3.341120425999999810e+00 -7.344263801879999676e+01 3.307509939330000037e+01
-7.970183679999999493e-02 -7.603528935229999774e+01 3.704768340670000271e+01
1.094439203100000091e+00 -7.602660769950000486e+01 2.770350407329999953e+01
-1.270419845800000003e+00 -7.591002197669999418e+01 3.946633798490000089e+01
1.013080742399999901e+00 -7.604419906770000637e+01 3.760332909480000296e+01
-1.313137432100000002e+00 -7.599589817890000631e+01 3.434120319200000182e+01
3.860125345000000041e-01 -7.605510548510000035e+01 2.709991503810000069e+01
-1.574725118599999973e+00 -7.479885352690000389e+01 3.953731350080000340e+01
-3.661813484300000088e+00 -7.319723354539999605e+01 2.512274398989999824e+01
-8.180422539999999965e-02 -7.604740773180000701e+01 3.634768503360000125e+01
-1.294779785000000016e+00 -7.596912269310000454e+01 2.589106401089999920e+01
-1.673724743199999976e+00 -7.419096803950000663e+01 3.038526908269999893e+01
-1.579713834599999922e+00 -7.486408308910000642e+01 3.488733658870000198e+01
1.014260697699999936e+00 -7.328736449449999668e+01 2.079687927599999853e+01
-2.105517398900000003e+00 -7.377267709599999534e+01 2.783207101329999844e+01
1.047021213000000062e+00 -7.604137546110000301e+01 3.310340447099999750e+01
1.791288757200000026e+00 -7.600682127509999475e+01 2.920707148219999993e+01
3.302377172000000027e-01 -7.604656536919999610e+01 3.557478422340000179e+01
-1.597074059899999954e+00 -7.494120578979999436e+01 3.098733792839999879e+01
-2.618475207000000027e-01 -7.602084231390000468e+01 2.319643008299999920e+01
-1.615565960200000095e+00 -7.558659464180000498e+01 2.918863611189999929e+01
-1.215621732800000077e+00 -7.598035485970000025e+01 3.819174912300000102e+01
-1.675271771999999881e-01 -7.603556861090000041e+01 3.309715137479999925e+01
-2.058948838100000067e+00 -7.370993279249999830e+01 2.648214340099999831e+01
-2.726173205599999871e+00 -7.355851543880000065e+01 3.487855283399999706e+01
-2.127137545300000099e+00 -7.380030316340000240e+01 2.858203661339999968e+01
-3.336045636300000172e+00 -7.347427463510000223e+01 2.977512756340000166e+01
-7.536673500000000414e-02 -7.605354084649999891e+01 3.494770284559999851e+01
-2.751145287499999981e+00 -7.365590843379999342e+01 3.037854762070000092e+01
3.772307476000000270e-01 -7.328635837299999878e+01 2.074360302010000012e+01
-3.535180065200000055e+00 -7.314536683010000218e+01 2.384825339529999866e+01
-1.337339274300000103e+00 -7.589874771239999518e+01 3.759093052859999773e+01
3.569824055999999968e-01 -7.607154118799999765e+01 2.979985795780000046e+01
-1.639024110600000084e+00 -7.418685131540000555e+01 2.588534549879999958e+01
-2.118256776000000119e-01 -7.334456966739999473e+01 4.149113318919999926e+01
-1.562709093600000099e+00 -7.317542856849999566e+01 4.153381867120000237e+01
-8.266456879000000368e-01 -7.605340496120000182e+01 2.649366838719999961e+01
-3.767794984900000088e+00 -7.326586349069999926e+01 3.427254015270000309e+01
-1.626596295399999947e+00 -7.492946458020000478e+01 2.393701491899999922e+01
-2.646890490900000170e+00 -7.339802102609999679e+01 3.697864778019999932e+01
-8.126134024000000178e-01 -7.605149964810000540e+01 2.469369916169999968e+01
-2.357701209300000045e+00 -7.316179301770000620e+01 4.027967809950000344e+01
-2.108976210099999804e+00 -7.369253086589999668e+01 3.488202093110000135e+01
-2.690958755000000036e+00 -7.359379403559999844e+01 2.707865118100000146e+01
-3.321866342399999894e+00 -7.327156433849999928e+01 3.632488617549999788e+01
4.344063194000000183e-01 -7.602037352719999319e+01 2.320000632609999869e+01
1.018220475899999977e+00 -7.605192966479999939e+01 3.625334480989999975e+01
-1.427955307299999976e+00 -7.303082575489999329e+01 4.268421426030000276e+01
-2.699523066999999887e+00 -7.350402854870000624e+01 3.562858446549999769e+01
-3.740561549999999791e+00 -7.253787856920000365e+01 4.162121822560000339e+01
5.165594625999999634e-01 -7.559989221940000448e+01 2.194947079829999836e+01
-7.296340663999999476e-01 -7.604158798769999805e+01 3.819438178170000242e+01
-1.141125634000000055e-01 -7.333167665940000290e+01 2.084118104179999875e+01
-1.093856047999999942e-01 -7.605353803590000439e+01 3.564754248149999682e+01
-2.140933723799999910e+00 -7.376885915789999615e+01 3.308198879369999901e+01
1.090244036899999935e+00 -7.319600203230000091e+01 4.194750311560000000e+01
-3.353139043500000138e+00 -7.349603065770000399e+01 3.037510032080000144e+01
-1.468634209700000026e+00 -7.310734665779999375e+01 4.208416247320000281e+01
-2.163510387800000156e+00 -7.334342732490000571e+01 2.258071355299999894e+01
-1.372666922200000084e+00 -7.545796986290000063e+01 2.203945168039999913e+01
-3.382143825100000001e+00 -7.288600546099999633e+01 2.134341326050000021e+01
-3.784188639199999926e+00 -7.262124508220000507e+01 4.087116337039999792e+01
-2.708398010599999850e+00 -7.361430795709999586e+01 2.782862250029999984e+01
-1.313517016200000054e+00 -7.594608395100000564e+01 3.039100943200000060e+01
1.722637417000000060e+00 -7.602110072579999667e+01 3.760692353559999646e+01
-2.183122216200000132e+00 -7.379016638919999593e+01 2.913173784099999963e+01
-2.013359594000000197e+00 -7.364702398570000241e+01 2.528221348430000148e+01
-1.628234178500000073e+00 -7.410339312530000200e+01 2.313515929889999967e+01
-2.099134039499999993e+00 -7.299596078589999593e+01 4.208067617839999741e+01
-2.691314155999999791e-01 -7.603732214350000618e+01 3.094658891539999956e+01
4.465586739999999888e-01 -7.600702276799999879e+01 2.260002680959999921e+01
-4.096212834700000194e+00 -7.305373441090000597e+01 2.467018479629999916e+01
-2.788711607000000092e-01 -7.313023564220000594e+01 1.988986852060000032e+01
-7.121810522000000532e-01 -7.603386364610000214e+01 3.639441723550000063e+01
-7.832180742000000029e-01 -7.322458528699999647e+01 4.203794286259999780e+01
1.753547476799999894e+00 -7.601611046909999914e+01 3.370699090669999975e+01
-2.202537276100000163e+00 -7.380000809759999925e+01 3.103169905989999933e+01
3.896472782000000024e-01 -7.602889681720000681e+01 2.388980946919999937e+01
-3.184319240999999856e-01 -7.606035526450000361e+01 2.784632276600000012e+01
4.008152188999999921e-01 -7.604456793469999809e+01 2.589994300660000093e+01
4.084017286000000135e-01 -7.348075174459999914e+01 4.089460929140000189e+01
-1.831002605000000005e-01 -7.605473839859999430e+01 3.369712621200000058e+01
-2.746974633699999835e+00 -7.365613540760000433e+01 2.977855718549999864e+01
-3.440378628800000005e+00 -7.338872046599999521e+01 2.707434625890000035e+01
-2.136239015000000130e+00 -7.380114233300000137e+01 2.978201644379999991e+01
-3.321211078300000175e+00 -7.322261214659999951e+01 2.407452857259999845e+01
-7.247032505999999596e-01 -7.604052184420000060e+01 3.759439238649999737e+01
-7.002443307000000283e-01 -7.603918396580000660e+01 3.429444707319999708e+01
-1.599654071900000085e+00 -7.552840955599999972e+01 3.173864147509999967e+01
3.626733833999999934e-01 -7.606918192700000247e+01 2.919986960250000152e+01
-1.550372579600000078e+00 -7.554406188149999934e+01 3.571401129480000236e+01
1.756197806699999919e+00 -7.601892367780000370e+01 3.310699839179999771e+01
-1.569768637999999994e+00 -7.422957224840000379e+01 3.698602478389999959e+01
-1.599356214900000017e+00 -7.551875073710000663e+01 3.248863705800000190e+01
1.051791102499999964e+00 -7.604241349689999652e+01 3.235341582059999865e+01
-8.700714193999999901e-01 -7.328038258210000322e+01 4.148760893930000293e+01
-3.323656161799999786e+00 -7.271845852479999905e+01 4.147375734810000125e+01
-8.966586255999999810e-01 -7.601484141330000455e+01 2.324315621899999940e+01
-6.796169315000000211e-01 -7.606632903409999358e+01 2.919450809750000175e+01
-6.716454678000000067e-01 -7.606009042079999460e+01 2.859452286169999979e+01
-1.586699266399999919e+00 -7.484301838620000069e+01 3.758730966459999934e+01
-1.669317982299999947e+00 -7.415784569480000243e+01 3.248526160219999781e+01
3.355522784000000147e-01 -7.607332715590000305e+01 2.778971038219999912e+01
8.768673748999999962e-01 -7.323059311449999598e+01 2.034603827300000134e+01
-4.217667417600000412e+00 -7.313300389680000535e+01 2.701978488519999999e+01
-2.054398103300000056e+00 -7.370951320769999882e+01 2.588215348590000175e+01
-3.421258122899999865e+00 -7.336351613019999718e+01 2.647437627449999908e+01
-3.112896972000000151e+00 -7.264310495179999805e+01 4.252469485240000324e+01
-1.224714201100000066e+00 -7.324831649159999358e+01 2.078528911169999915e+01
-2.785437815199999889e+00 -7.333039974250000625e+01 3.757779844409999725e+01
4.138140044999999989e-01 -7.604323271939999529e+01 3.632522170229999858e+01
-2.087824755899999829e+00 -7.375173213540000461e+01 2.708210004060000031e+01
-1.625113422699999921e+00 -7.489469544870000561e+01 2.253691662829999842e+01
-2.708287246599999865e+00 -7.263568611450000390e+01 4.332677374370000223e+01
-3.526761712299999907e+00 -7.245735252650000291e+01 4.267215988950000138e+01
-2.737596642699999805e+00 -7.271284255289999976e+01 4.270678136819999793e+01
-2.051233598500000088e+00 -7.290715526729999851e+01 4.268073784429999762e+01
-7.864331288999999447e-01 -7.312346142389999670e+01 4.268771563319999984e+01
4.615357629000000017e+00 -7.251795491170000219e+01 4.271412758310000157e+01
-2.709869658200000142e+00 -7.285095386049999888e+01 4.207721692009999970e+01
-9.922410288999999883e-01 -7.318307061359999466e+01 4.223678104220000051e+01
-1.806487999999999983e-01 -7.328421273249999501e+01 4.209117197799999843e+01
-2.733824997200000162e+00 -7.289902617970000165e+01 4.147718801010000078e+01
-2.132971484000000029e+00 -7.306084363189999920e+01 4.148063375009999731e+01
-3.761661163099999872e+00 -7.257743213809999361e+01 4.132119129219999820e+01
-1.373450350099999939e+00 -7.325056429539999669e+01 4.133495345499999729e+01
-3.376877736500000005e+00 -7.281631586540000001e+01 4.087368840309999740e+01
-2.769182765800000112e+00 -7.296649526059999857e+01 4.087714350190000090e+01
-2.167569090699999812e+00 -7.312701959519999662e+01 4.088059028180000354e+01
-1.561014362799999944e+00 -7.327913866650000330e+01 4.088404382080000232e+01
-2.726488720999999948e-01 -7.345535818250000659e+01 4.089105384549999656e+01
5.342079698000000043e+00 -7.248945192710000640e+01 4.076775804900000111e+01
-3.380688783400000119e+00 -7.283012057249999316e+01 4.027368704940000299e+01
-2.808341344100000025e+00 -7.304042992860000538e+01 4.027709379449999716e+01
5.302736197599999812e+00 -7.256004031450000014e+01 4.046770615890000045e+01
-2.847027380500000149e+00 -7.311539117819999944e+01 3.952704569840000204e+01
-2.067410952699999971e+00 -7.334355063879999648e+01 3.949405615660000279e+01
-1.565765953799999943e+00 -7.419164600240000595e+01 3.953601385599999674e+01
-1.520207970399999997e+00 -7.553413563910000050e+01 3.959922435250000206e+01
5.355882667000000374e-01 -7.594105830879999530e+01 3.985069358340000178e+01
-2.134393138200000095e+00 -7.339219320380000511e+01 3.878130512399999930e+01
-1.632614068399999896e+00 -7.372254696250000450e+01 3.878461533499999803e+01
-1.569195067099999896e+00 -7.479859844540000324e+01 3.878732589020000177e+01
-1.521440775599999906e+00 -7.560531377819999932e+01 3.878935906670000122e+01
-1.220552548699999962e+00 -7.598142100319999770e+01 3.879173851819999896e+01
-3.298990830000000235e-02 -7.603313352239999290e+01 3.879795469919999817e+01
4.830241558999999740e-01 -7.604328851149999480e+01 3.880062843249999815e+01
1.003979272700000092e+00 -7.604503823739999291e+01 3.880330892509999785e+01
1.720377405100000034e+00 -7.601030183849999844e+01 3.880691272469999831e+01
-2.731606767799999780e+00 -7.322601434390000463e+01 3.862786532799999861e+01
-3.486197086099999787e+00 -7.303522753679999369e+01 3.817355622790000069e+01
-1.562906706299999948e+00 -7.420325595170000099e+01 3.818602645149999830e+01
-1.579467490699999921e+00 -7.482339465069999562e+01 3.818731569770000078e+01
-1.514229473899999956e+00 -7.560036828229999628e+01 3.818937279099999671e+01
-9.355602500000000099e-02 -7.604543369259999963e+01 3.814765737879999818e+01
1.010430412500000097e+00 -7.604138585900000180e+01 3.820332160960000323e+01
1.723027735000000060e+00 -7.601311504720000300e+01 3.820692020989999804e+01
-2.032343825299999907e+00 -7.352922324450000247e+01 3.758210839209999676e+01
-1.593377945100000082e+00 -7.544634655839999482e+01 3.758861242910000300e+01
4.822435198999999728e-01 -7.605925986869999633e+01 3.760063508399999677e+01
-1.671032958899999921e+00 -7.380986675270000319e+01 3.698457435859999975e+01
-1.574166830800000083e+00 -7.482902106820000654e+01 3.698733066810000025e+01
-1.538951521400000022e+00 -7.555901553309999485e+01 3.693912836330000005e+01
-7.125508962000000057e-01 -7.602717108490000442e+01 3.699441286999999789e+01
1.019911963099999985e+00 -7.603990013070000487e+01 3.700334229919999984e+01
1.730608880699999963e+00 -7.601486211259999948e+01 3.700693829979999805e+01
-1.618072599300000025e+00 -7.412235200060000295e+01 3.633552558750000117e+01
-1.594321360099999918e+00 -7.487062780029999942e+01 3.638730695720000341e+01
-1.551819458900000059e+00 -7.558700670300000013e+01 3.643911397690000342e+01
-1.309809273599999990e+00 -7.596583093729999803e+01 3.634119487929999792e+01
1.738166030799999984e+00 -7.601115871780000077e+01 3.625695346220000204e+01
4.337479461000000036e-01 -7.605782923569999809e+01 3.235027454109999923e+01
-3.728085162200000191e+00 -7.318183896460000426e+01 3.562258578979999868e+01
-2.092588258100000154e+00 -7.365550106119999896e+01 3.563203852449999687e+01
-1.612519849599999944e+00 -7.408125152620000620e+01 3.569544984030000023e+01
-1.297087710000000005e+00 -7.591399987900000212e+01 3.558112971060000262e+01
-7.032302718999999813e-01 -7.602778953610000201e+01 3.564443430440000071e+01
1.037940217300000079e+00 -7.602753639099999816e+01 3.550337661020000013e+01
1.741415596299999979e+00 -7.601478298860000393e+01 3.550696273199999808e+01
-3.753054050499999850e+00 -7.323163544049999985e+01 3.502255549310000049e+01
-1.537657067400000077e+00 -7.558243949699999575e+01 3.483914364270000164e+01
1.037549899400000086e+00 -7.603552206960000603e+01 3.490337993579999676e+01
-2.717821660899999880e+00 -7.355163026670000193e+01 3.427856811809999726e+01
-2.123809605499999975e+00 -7.372508577589999845e+01 3.428200449930000104e+01
-1.659405165799999970e+00 -7.411901780860000599e+01 3.428526358349999725e+01
-1.586945610299999920e+00 -7.488370682459999728e+01 3.428733055570000232e+01
-3.340730108099999818e+00 -7.343465234030000488e+01 3.367509606760000196e+01
-1.660935726700000004e+00 -7.412894316329999356e+01 3.368526534949999984e+01
-1.593254445099999916e+00 -7.549372755800000334e+01 3.368863768559999983e+01
-1.322012534900000036e+00 -7.592026636319999966e+01 3.369097658249999938e+01
-7.040553775000000236e-01 -7.605298867289999976e+01 3.369444571950000267e+01
3.416556661999999855e-01 -7.605002253719999317e+01 3.369981190389999881e+01
1.047791611999999928e+00 -7.603274322379999717e+01 3.370340166529999948e+01
-3.878630799000000184e+00 -7.327111808569999596e+01 3.312195863209999658e+01
-2.752809585500000100e+00 -7.362579190869999479e+01 3.307852797559999658e+01
-1.667027259399999961e+00 -7.414662722270000472e+01 3.308526087620000311e+01
-1.595925248999999990e+00 -7.550559258890000081e+01 3.308863789179999770e+01
-1.328484148600000081e+00 -7.593859698120000701e+01 3.309097158929999694e+01
-7.025452906000000386e-01 -7.605774155780000001e+01 3.309445164480000301e+01
3.405051861999999763e-01 -7.605930133319999698e+01 3.309981418969999822e+01
-3.344551391900000059e+00 -7.345579616710000437e+01 3.247509855949999746e+01
-2.749779174499999979e+00 -7.362795855880000317e+01 3.247853598070000203e+01
-1.593437698000000013e+00 -7.491671568229999423e+01 3.248733325370000102e+01
-1.320132604000000098e+00 -7.593171180919999586e+01 3.249098687339999714e+01
-6.839315593000000471e-01 -7.603339930040000638e+01 3.249448096719999768e+01
1.757040192600000106e+00 -7.602664282050000111e+01 3.235700436879999842e+01
-3.934300332499999886e+00 -7.328424077219999333e+01 3.172167283459999965e+01
-3.357265227700000132e+00 -7.348657590409999329e+01 3.172508599220000036e+01
-2.761479460999999969e+00 -7.365701413920000107e+01 3.172852479979999885e+01
-2.179379194700000077e+00 -7.379080401279999535e+01 3.179181331019999845e+01
-1.676837378000000101e+00 -7.417978912940000669e+01 3.173525614060000066e+01
-1.605391371899999919e+00 -7.494620230190000143e+01 3.173732172609999935e+01
-1.317389813099999918e+00 -7.593619815830000164e+01 3.174099544999999978e+01
-6.917043422999999969e-01 -7.605577377400000216e+01 3.174447515889999849e+01
3.109515629999999864e-01 -7.606758453800000552e+01 3.168965164189999939e+01
1.768144765199999968e+00 -7.601690487770000004e+01 3.160702438390000069e+01
-2.015168700499999854e+00 -7.387103749829999799e+01 3.143282739849999885e+01
-3.935738432399999986e+00 -7.329583926719999454e+01 3.097167569189999980e+01
-2.761017156099999870e+00 -7.366537984059999644e+01 3.097853025670000093e+01
-1.674854749100000095e+00 -7.418556859589999419e+01 3.098526367719999897e+01
-1.610594196399999900e+00 -7.555617201900000168e+01 3.098863133409999904e+01
-1.325669370700000016e+00 -7.595943471020000004e+01 3.099098894850000008e+01
3.585232034999999984e-01 -7.605427671340000018e+01 3.099985234629999908e+01
1.066939635200000014e+00 -7.603311804770000037e+01 3.100344522720000029e+01
1.779156876699999890e+00 -7.600549379459999955e+01 3.100704330749999826e+01
-3.938029155300000195e+00 -7.330705773930000646e+01 3.037167641790000161e+01
-2.141929992800000182e+00 -7.380350159399999654e+01 3.038200479920000063e+01
-1.596541436999999952e+00 -7.553958846630000323e+01 3.038865441720000149e+01
-6.887184011000000439e-01 -7.606716820379999433e+01 3.039448792780000019e+01
-1.628222313000000088e-01 -7.606051266619999751e+01 3.039717517940000135e+01
1.063128588299999899e+00 -7.604692275460000417e+01 3.040344387349999877e+01
1.774965748799999909e+00 -7.601994506040000488e+01 3.040704143390000169e+01
-1.668413846400000011e+00 -7.418925533729999700e+01 2.978528020739999960e+01
-1.314287415199999920e+00 -7.595471618829999727e+01 2.979101223769999862e+01
-1.632125493999999899e-01 -7.606849834480000538e+01 2.979717850520000155e+01
1.082882562500000034e+00 -7.602064082100000064e+01 2.980347475570000171e+01
-3.342137168999999908e+00 -7.349195869449999918e+01 2.917512309010000138e+01
-2.743564141799999856e+00 -7.365765549900000053e+01 2.917856571049999914e+01
-2.003231979000000162e+00 -7.387635781800000245e+01 2.933285723610000062e+01
-1.676405784099999963e+00 -7.421017219029999978e+01 2.918527313450000094e+01
-1.608887281499999933e+00 -7.498326646959999664e+01 2.918733334739999918e+01
-1.300614736700000051e+00 -7.593877919419999500e+01 2.919103480100000070e+01
1.075650786900000044e+00 -7.604026455659999328e+01 2.920346872260000026e+01
-3.911834278400000198e+00 -7.328446254719999331e+01 2.857172383019999984e+01
-2.735592678100000175e+00 -7.365141688570000156e+01 2.857858047479999897e+01
-1.674515616100000104e+00 -7.421427851650000207e+01 2.858527957980000167e+01
-1.609874982400000043e+00 -7.558423538089999738e+01 2.858864775640000033e+01
4.132856717999999763e-01 -7.605070163269999739e+01 2.851007446630000075e+01
1.083334630600000015e+00 -7.603634564230000592e+01 2.845348405829999905e+01
1.796945502300000053e+00 -7.600635067400000366e+01 2.845708404499999844e+01
-3.929060993399999813e+00 -7.326299030549999713e+01 2.788157351339999934e+01
-3.378289933800000089e+00 -7.344360518509999736e+01 2.778194433029999999e+01
-1.606028033799999921e+00 -7.499487641890000589e+01 2.783734594290000075e+01
-1.614480423899999906e+00 -7.560122186530000477e+01 2.783864628099999905e+01
-1.611393637299999959e+00 -7.501315602079999678e+01 2.708734342760000047e+01
1.095569209099999997e+00 -7.603200714310000308e+01 2.710350947879999950e+01
1.807406369600000007e+00 -7.600502944890000379e+01 2.710710703919999887e+01
-4.150153623499999611e+00 -7.312352838969999880e+01 2.647009942889999934e+01
-2.671204780800000123e+00 -7.356751210189999313e+01 2.647868206309999906e+01
-1.641674440500000109e+00 -7.418403810659999920e+01 2.648533801370000162e+01
-1.609340690400000051e+00 -7.560895246219999422e+01 2.648866199609999939e+01
3.901831881999999752e-01 -7.605533245899999883e+01 2.649992460300000019e+01
1.099739862899999920e+00 -7.603223411710000335e+01 2.650351904369999900e+01
1.809676618499999945e+00 -7.600848921639999389e+01 2.650711400440000176e+01
-4.030449421900000218e+00 -7.322137342989999809e+01 2.602092202349999894e+01
-3.468474788600000025e+00 -7.333239898419999747e+01 2.590405297090000047e+01
-1.629657998499999927e+00 -7.505886907900000438e+01 2.588732616209999904e+01
-1.605170036599999905e+00 -7.560917943610000691e+01 2.588867156099999889e+01
-8.224750341000000020e-01 -7.605363193510000031e+01 2.589367795209999912e+01
-3.030402410999999963e-01 -7.605796789590000628e+01 2.589635636490000081e+01
1.115693027200000076e+00 -7.601241777069999728e+01 2.590354472650000162e+01
1.811566786400000018e+00 -7.601259554269999796e+01 2.590712044969999894e+01
-4.108365189199999712e+00 -7.306708517010000037e+01 2.527016431279999864e+01
-1.648916453200000021e+00 -7.421100096199999996e+01 2.528533582620000075e+01
-1.606483295399999900e+00 -7.502676811679999958e+01 2.528736172360000012e+01
-1.599479058800000075e+00 -7.560682017519999931e+01 2.528868320569999995e+01
-1.327853377100000065e+00 -7.593465511590000006e+01 2.524080429900000055e+01
-2.981094252000000000e-01 -7.605690175230000705e+01 2.529636696969999932e+01
4.008049818000000153e-01 -7.605190705450000621e+01 2.529994685229999973e+01
1.816117521300000037e+00 -7.601217595779999670e+01 2.530713053450000061e+01
-3.644052375899999863e+00 -7.317251126509999892e+01 2.467277118100000166e+01
-1.287578720299999979e+00 -7.597151631709999720e+01 2.469108158090000060e+01
-2.912782045000000264e-01 -7.605260281510000198e+01 2.469638017409999975e+01
4.540018210000000276e-01 -7.602903016090000676e+01 2.461015525170000018e+01
1.131855109199999987e+00 -7.600139816470000653e+01 2.455357551959999896e+01
