-2.135451337400000149e+00 4.937209178570000034e+01 6.934609551479999823e+01
-1.536043500000000006e-01 5.060356918979999818e+01 7.205207231560000025e+01
-1.645189516200000091e+00 4.594211838140000026e+01 7.860893001709999339e+01
3.734752540200000137e+00 5.283957986520000105e+01 6.051941748889999673e+01
4.743342460400000071e+00 4.775697123610000006e+01 7.122333824589999551e+01
-1.404914744899999901e+00 4.356988174560000004e+01 8.290072775500000546e+01
5.020964192500000145e+00 4.351840434150000192e+01 7.857004580820000683e+01
-1.416189672300000035e+00 5.398676079069999645e+01 5.844458220799999992e+01
-8.350015376999999628e-01 4.861811041499999675e+01 7.598170636659999388e+01
1.132693587599999940e+00 4.848854381419999982e+01 7.648665555780000602e+01
-1.687858785900000047e+00 5.192466225620000131e+01 6.689599558250000655e+01
1.733751476199999919e+00 5.117664419980000190e+01 7.071433635939999363e+01
2.302568665999999986e+00 5.356705639380000150e+01 5.945184724690000166e+01
3.744317582999999949e+00 4.651196522949999945e+01 7.447439805480000530e+01
-2.885121882199999988e+00 5.081872958249999783e+01 6.565316311629999291e+01
1.106500591999999950e+00 4.723298316580000034e+01 7.911439427450000039e+01
2.912029369399999901e+00 4.596239009180000323e+01 7.841266510910000420e+01
3.878054939100000098e+00 5.353594106559999943e+01 5.860452224470000004e+01
2.639028053300000121e+00 5.129303304689999976e+01 6.748916388680000011e+01
-2.960696601900000058e+00 5.281752941090000064e+01 6.060892576140000187e+01
4.374837526200000326e+00 5.007775958519999904e+01 6.676783129769999903e+01
-1.478755820299999968e+00 4.281945717360000003e+01 8.240102447910000194e+01
2.723168001799999960e+00 4.302887493549999931e+01 8.121188548390000506e+01
3.752811536799999903e+00 4.161480364330000015e+01 8.243689411520000476e+01
1.814713342399999929e+00 4.140120419090000325e+01 8.362665542829999765e+01
5.020490436400000256e+00 4.144054870890000331e+01 8.175505637290000038e+01
4.449541808700000267e+00 5.025087026639999976e+01 6.621441645539999854e+01
3.642928621299999836e+00 4.718803630600000076e+01 7.323162841990000516e+01
-1.378618754599999940e+00 4.943720180590000268e+01 7.400658299939999551e+01
-2.099870548899999800e+00 4.484484042580000107e+01 7.792515667479999308e+01
4.116421845000000079e-01 4.275784027529999776e+01 8.264228739530000212e+01
2.662534308700000185e+00 4.863316883960000325e+01 7.332479598759999817e+01
-1.721599345900000078e+00 4.307257958270000131e+01 8.116569850870000380e+01
-3.481341557199999937e+00 4.693614519199999791e+01 7.324489452279999568e+01
-2.283726939000000067e-01 5.275208094629999778e+01 6.751588927660000650e+01
-8.695651250000000498e-01 4.272662339739999737e+01 8.262405900870000153e+01
-3.971603708099999963e+00 5.032286179340000132e+01 6.594023031170000593e+01
-1.468790229899999966e+00 4.209379656610000353e+01 8.252104719320000470e+01
1.077227801800000107e+00 4.587927338330000282e+01 8.165664526240000498e+01
1.824823345600000035e+00 5.015011477179999844e+01 7.271925861939999436e+01
-1.706285908799999973e+00 4.948314860930000236e+01 7.004233274300000289e+01
4.919192970000000109e+00 5.103262682159999741e+01 6.407643516330000466e+01
2.655025906800000168e+00 4.542592736900000006e+01 7.919845551349999369e+01
2.667087150800000028e+00 4.940023625850000144e+01 7.009789371959999471e+01
-2.793678505599999973e+00 4.418608089319999976e+01 7.853267529359999344e+01
1.130049373200000096e+00 4.171659761050000270e+01 8.323041120519999936e+01
-2.027192241000000117e-01 4.779693353329999894e+01 7.779644661540000072e+01
-1.973878132100000071e+00 4.979572872669999839e+01 6.863477201419999574e+01
-1.418972929499999980e+00 4.679362170299999946e+01 7.923433339589999491e+01
-1.767222558300000079e+00 5.028591921870000192e+01 6.773454435589999889e+01
2.689548045100000007e+00 4.412108441320000196e+01 7.980909180209999931e+01
2.635280504499999843e+00 4.546432312110000140e+01 7.785671428119999860e+01
-1.802837858000000126e-01 5.353912416610000236e+01 6.607136348509999380e+01
2.656180416299999791e+00 4.540629228059999889e+01 8.039838619260000030e+01
-3.522547652900000159e+00 4.297998287299999731e+01 7.993290655840000625e+01
4.265301363999999928e+00 4.325083465050000342e+01 7.962634939980000581e+01
1.125336467499999937e+00 5.500924465559999987e+01 6.111171740080000347e+01
-3.304000037599999828e+00 4.906499396529999757e+01 6.916037599770000099e+01
3.087726242300000035e+00 4.799377898070000015e+01 7.206072851230000254e+01
4.409168351799999996e+00 4.943320132729999727e+01 6.816178198929999610e+01
1.117260644599999964e+00 4.931004762509999750e+01 7.459168915860000482e+01
-1.569687413300000056e+00 4.413876659419999982e+01 8.047476995590000115e+01
3.702238658599999788e+00 4.559882824609999830e+01 7.608110226319999470e+01
-8.551624181000000435e-01 5.017823738450000093e+01 7.267881168920000334e+01
2.663431527599999793e+00 5.067932564070000012e+01 6.750156338249999521e+01
1.833332460000000053e+00 5.336590715700000231e+01 6.621019664680000005e+01
3.030351313700000215e+00 4.737968172139999723e+01 7.333492846529999554e+01
2.438239944599999820e+00 5.126039988130000324e+01 6.995937626129999387e+01
1.124211390899999996e+00 5.404154233429999721e+01 5.842172785780000055e+01
-3.377181376399999824e+00 5.358791507819999822e+01 5.829575288190000038e+01
2.707684053399999957e+00 5.025663423830000198e+01 6.770414086879999616e+01
-3.622876601499999794e+00 5.221670071140000147e+01 6.165833492149999984e+01
2.227452973700000172e+00 5.527061830699999945e+01 6.172515843939999769e+01
-1.715286096800000104e+00 5.433874595479999670e+01 6.239085221770000089e+01
2.487971476299999818e+00 5.454118462609999796e+01 6.290708166720000349e+01
-1.709676458899999973e+00 5.313907858759999669e+01 6.419344938570000636e+01
4.890253046999999964e-01 4.537892472819999767e+01 8.246612133319999316e+01
1.045622103199999930e+00 4.694265885139999739e+01 7.928296217470000329e+01
2.636213820700000099e+00 4.805137859399999911e+01 7.461791831790000629e+01
-3.456577605400000142e+00 5.126215725849999671e+01 6.412812610660000701e+01
4.467329454499999741e+00 4.881009244300000205e+01 6.944415115910000225e+01
-2.634126273100000137e+00 5.289197786369999932e+01 6.075014765419999918e+01
-1.220052276999999963e+00 5.226362317470000107e+01 6.851598329610000349e+01
-3.397256639900000152e+00 4.663395320920000131e+01 7.392594980399999827e+01
2.650112283399999935e+00 4.934335340620000210e+01 7.261763477450000437e+01
-1.401588682499999905e+00 4.743338720930000108e+01 7.788870096280000155e+01
4.347261107499999611e+00 4.542923735789999995e+01 7.597162228409999329e+01
-2.760134432000000082e+00 4.784827666889999875e+01 7.205492642069999931e+01
-3.424549842299999813e+00 5.150446447809999739e+01 6.362788810949999885e+01
-2.179788580499999906e+00 4.362030835979999921e+01 7.980796107560000507e+01
1.790408248599999919e+00 4.089430164440000226e+01 8.431890149269999313e+01
1.806900919999999910e+00 4.169159373280000125e+01 8.315839276389999668e+01
2.259457448300000060e+00 4.660825126289999787e+01 7.988709749029999330e+01
-3.418842018399999905e+00 5.257450572569999991e+01 6.095220284250000020e+01
-1.325779670199999982e+00 4.662091932500000269e+01 7.983020462769999881e+01
3.768128215599999997e+00 4.777913902969999782e+01 7.204819872180000573e+01
1.749429761900000102e+00 4.901943793459999910e+01 7.514815724180000700e+01
2.417685555099999828e+00 4.672860777289999845e+01 7.918761097120000159e+01
4.640668394999999946e-01 4.826746827600000245e+01 7.657520592480000232e+01
-1.639826989599999951e+00 4.651828420969999911e+01 7.710760877529999391e+01
-1.663598672100000009e+00 4.535431450210000293e+01 7.786029667110000219e+01
2.456949151199999903e+00 4.214562701319999860e+01 8.246110943950000660e+01
-1.301352301799999944e+00 4.524142867159999781e+01 8.249599340929999869e+01
-2.672181932800000048e+00 5.100089395850000074e+01 6.535461318699999822e+01
-2.138356446199999983e+00 5.339776555649999779e+01 5.969470268450000106e+01
-1.688028845600000105e+00 5.133470467890000322e+01 6.809730218529999490e+01
-2.186079038199999935e+00 5.155171009720000086e+01 6.433609743879999598e+01
-7.623489422000000459e-01 5.184963980460000244e+01 6.946646230999999716e+01
1.135156252200000049e+00 5.183842666510000186e+01 6.944923450509999441e+01
1.791665120200000016e+00 5.205858135540000120e+01 6.881038858569999661e+01
-1.891402066499999979e+00 5.228802593289999834e+01 6.292529644649999909e+01
-2.697614713400000142e+00 4.264433254640000115e+01 8.105339726110000242e+01
3.053158912799999847e+00 4.984887183410000233e+01 6.821640511169999854e+01
1.125515227700000009e+00 5.075184131929999864e+01 7.152496146449999515e+01
-1.629183996899999931e+00 4.291547038560000260e+01 8.176534737890000315e+01
2.758492734599999885e+00 4.565406693980000341e+01 7.960992865369999549e+01
3.151577857499999968e+00 5.378706079989999722e+01 5.836854369350000127e+01
-1.589586634100000007e+00 5.203083395459999849e+01 6.819486965870000006e+01
2.654583355899999830e+00 4.472099021399999685e+01 8.038304182749999427e+01
2.344361783700000146e+00 4.913091225069999979e+01 7.456624165339999877e+01
2.346993179700000098e+00 5.390945969690000084e+01 6.480494270590000383e+01
-1.495228926300000039e+00 4.128547500839999884e+01 8.361534553360000643e+01
-1.783963845299999962e+00 5.263607016849999809e+01 6.254498543689999934e+01
1.117589887200000076e+00 5.424136067820000306e+01 6.462191252520000262e+01
-1.482655572000000088e+00 5.200203490349999669e+01 6.867338836019999349e+01
-1.589010880600000064e+00 5.140138018489999894e+01 6.955613948539999569e+01
2.705036634399999862e+00 5.275998485739999921e+01 6.163137186080000163e+01
3.640431344200000030e+00 5.300020576629999880e+01 6.026164208219999807e+01
-5.908092802000000088e-01 4.475502243190000229e+01 8.418249527359999718e+01
4.393155830699999598e+00 5.061528923320000217e+01 6.550627500849999763e+01
-1.771948552900000085e+00 5.320048906889999785e+01 6.104364433479999974e+01
3.094456086500000147e+00 4.672311317300000155e+01 7.459552425159999700e+01
-8.195933215999999799e-01 5.530903161780000232e+01 6.233173611609999654e+01
2.634955405799999983e+00 5.130114676950000074e+01 6.814210964989999297e+01
2.473036536199999968e+00 5.385483031740000115e+01 6.432061473240000282e+01
4.185762968000000250e-01 4.200752459150000107e+01 8.279921385410000312e+01
1.150170902499999981e+00 5.207986225070000330e+01 6.882720008809999968e+01
3.080345378100000087e+00 4.695534643090000060e+01 7.400888729240000430e+01
2.704739149699999956e+00 4.355683074899999951e+01 8.055480865799999890e+01
1.155243397300000030e+00 5.377695533899999702e+01 6.544068663330000390e+01
-2.066693485999999969e-01 4.200757574749999890e+01 8.277183483299999978e+01
-1.693645699399999982e+00 5.190251722349999852e+01 6.479601889159999928e+01
3.704629112800000179e+00 4.936282421930000197e+01 6.877344116679999786e+01
2.663167920399999833e+00 4.657241029160000068e+01 7.792516808259999550e+01
-8.018902726000000092e-01 5.533679370360000149e+01 6.164428892469999965e+01
-2.226728974000000139e-01 4.500616702380000334e+01 8.357391186050000442e+01
-2.725639281099999867e+00 5.327473447370000059e+01 5.964185264729999858e+01
4.409453630699999849e+00 4.612662873789999907e+01 7.469115471940000361e+01
-1.944046987999999976e-01 4.862594826370000334e+01 7.603008550609999361e+01
3.195917030599999986e+00 4.886508005480000350e+01 7.008574498689999643e+01
2.814154270399999991e+00 4.473348481170000213e+01 8.200312663180000072e+01
2.608675248299999971e+00 4.481910437089999988e+01 8.175199198580000370e+01
2.412014538899999838e+00 4.608375295830000340e+01 8.047827367339999682e+01
2.530440238599999780e+00 5.253310752630000025e+01 6.687142286629999433e+01
2.688737025900000077e+00 4.673556617180000217e+01 7.532827081339999609e+01
-1.554373715699999936e+00 4.478563704809999990e+01 8.249068641879999575e+01
-2.200944690999999953e-01 5.506491116809999653e+01 6.289253580809999988e+01
-1.567561495999999943e+00 4.414346449020000307e+01 8.107475328789999480e+01
-1.670986468900000022e+00 4.894820447829999921e+01 7.320247482809999440e+01
3.653796966899999887e+00 4.078007306610000171e+01 8.370114602319999619e+01
3.157292158400000215e+00 5.351094485400000167e+01 5.914712123830000223e+01
2.487998927500000068e+00 4.105666873159999852e+01 8.386315498529999957e+01
1.813190228599999898e+00 5.078712075859999686e+01 7.140955445919999534e+01
-8.819082885000000260e-01 4.670813297950000020e+01 7.986346876460000033e+01
-1.351451308999999990e+00 5.050554961699999978e+01 7.197378482060000238e+01
4.449362895900000225e+00 4.296009947280000318e+01 7.993790581429999520e+01
4.113233909499999896e+00 4.464073313090000283e+01 7.844805204610000260e+01
1.155523915200000085e+00 4.611323543500000000e+01 8.109981163819999495e+01
-2.108644619400000142e+00 5.051101154250000036e+01 6.680155336769999508e+01
1.840875286499999985e+00 5.274696612969999876e+01 6.746261137599999813e+01
3.136472051800000216e+00 4.823028652410000205e+01 7.148548509270000295e+01
2.114115298399999787e+00 4.840082619689999888e+01 7.632807081779999692e+01
4.969409344999999867e-01 5.107556967029999839e+01 7.124757516409999880e+01
-3.436148860299999885e+00 4.420336036869999674e+01 7.807345767740000042e+01
-1.597061393399999973e+00 4.607931831989999694e+01 7.985834623620000627e+01
3.230697397000000137e+00 4.504446712090000204e+01 7.741150599920000275e+01
-1.695292525499999980e+00 5.191698331130000099e+01 6.554602165299999683e+01
-2.732703486800000192e+00 4.917858069279999711e+01 6.937258579010000403e+01
-8.467287045000000401e-01 4.500594726610000151e+01 8.369152772120000350e+01
2.609037878300000113e+00 4.865084692549999801e+01 7.466791729359999863e+01
1.704212257700000066e+00 4.651174080639999886e+01 8.042561171209999316e+01
-8.295813975000000395e-01 5.336387072579999824e+01 6.625021034270000087e+01
-1.539965536800000034e+00 4.353176501709999968e+01 8.173331826970000691e+01
-1.407220915899999980e+00 5.236723906959999653e+01 6.810580349010000134e+01
3.702234837399999812e+00 4.491022399709999746e+01 7.726775810620000584e+01
-1.353921919300000054e+00 5.304310133399999927e+01 6.678825860019999539e+01
2.647295573500000110e+00 5.250894051590000089e+01 6.545116747059999796e+01
3.113161957300000005e+00 5.254436427219999928e+01 6.164229283339999910e+01
1.153240885700000051e+00 4.500596946980000013e+01 8.367964410080000448e+01
2.778874775399999830e+00 4.293132836659999896e+01 8.228924697530000287e+01
-8.557111117000000267e-01 5.504388102419999740e+01 6.289178249540000110e+01
-3.511549320699999921e+00 4.818122087990000324e+01 7.083684537460000286e+01
-3.360886321999999815e+00 4.521229120590000150e+01 7.644498673350000217e+01
-5.985728976999999951e-01 5.422786998589999996e+01 6.463358343989999355e+01
-2.128755767499999951e+00 4.663582893950000141e+01 7.521149432689999514e+01
-1.798895058200000063e+00 4.972039185109999693e+01 6.915155876240000055e+01
2.926164977200000017e+00 5.113611675819999647e+01 6.546483010629999910e+01
-3.375208738500000027e+00 4.588802377060000026e+01 7.529284066479999638e+01
5.671520592000000027e-01 5.366371495500000321e+01 5.961118803370000307e+01
4.627912754999999878e-01 4.798745312789999673e+01 7.724298737479999488e+01
3.025954659299999960e+00 5.359052495929999793e+01 5.896092677149999872e+01
4.574335625499999836e+00 5.283262810949999988e+01 5.982752788269999655e+01
-2.745439554899999912e+00 5.196015554630000111e+01 6.301608537799999965e+01
1.134259106100000025e+00 5.056599158609999733e+01 7.208360104109999611e+01
1.777145513600000060e+00 4.476952367999999893e+01 8.307818277200000523e+01
4.302931286299999769e+00 4.978956095539999893e+01 6.736684901409999782e+01
-1.600783773499999896e+00 4.465492526189999722e+01 7.985692225949999568e+01
1.687520788999999910e+00 4.691620244660000338e+01 7.930690079689999550e+01
-1.666840384999999980e+00 5.382348325150000079e+01 6.084158507650000303e+01
2.536242610199999969e+00 5.454505526749999689e+01 6.164486033699999723e+01
5.074001635500000162e+00 4.478020443580000176e+01 7.657732527390000143e+01
-1.591689688100000000e+00 4.805942129510000171e+01 7.595754285229999425e+01
4.305944291400000346e+00 5.301398716909999820e+01 5.960813866029999986e+01
-1.198446296600000016e+00 4.902236863710000137e+01 7.496685749019999889e+01
-2.760588387499999907e+00 5.173211679410000130e+01 6.357415395780000011e+01
2.778082374399999832e+00 4.594887274669999755e+01 8.021226183240000296e+01
2.931504823900000112e+00 4.914072179410000274e+01 7.003202208890000691e+01
4.426422538099999748e+00 5.246100740060000334e+01 6.093422882520000172e+01
1.846636108900000073e+00 5.033489454320000078e+01 7.242560666200000696e+01
-2.752073897699999883e+00 5.354816997100000009e+01 5.883472105290000087e+01
1.823025488699999919e+00 5.147916875509999812e+01 7.002116247200000032e+01
-1.931544118999999893e-01 4.902117137009999936e+01 7.560764285080000491e+01
3.674666996900000093e+00 4.586260973939999985e+01 7.590849862219999977e+01
-2.077446735300000125e+00 4.808545989219999939e+01 7.200788479419999533e+01
4.411378051299999825e+00 4.690199472799999825e+01 7.328056113019999884e+01
4.412509133100000369e+00 4.374403087289999803e+01 7.875387746719999882e+01
2.794261098799999843e+00 4.442870360770000104e+01 8.260076189919999479e+01
-1.260828978999999905e-01 5.533708217200000234e+01 6.228918452679999973e+01
-3.975001733200000054e+00 5.163944652330000196e+01 6.286200174630000248e+01
-1.306181368500000106e+00 5.353931994149999696e+01 6.596658320630000105e+01
-1.632090231899999910e+00 4.533797744729999835e+01 8.041019528360000379e+01
-1.675426322799999923e+00 5.130320553840000031e+01 6.749726628739999512e+01
-2.115960996800000160e+00 5.243976339110000140e+01 6.232368111400000288e+01
4.441351939499999624e+00 4.814873360720000051e+01 7.079744817239999577e+01
-3.171161554299999796e+00 4.968993412780000085e+01 6.796089696059999596e+01
3.249566483000000172e+00 4.301262874569999894e+01 8.060950005300000498e+01
1.141062021700000040e+00 4.908179133659999849e+01 7.523462681300000554e+01
-2.033211492499999995e+00 4.260796901770000034e+01 8.154843506209999759e+01
3.540131266700000001e+00 4.777711093149999755e+01 7.240870013859999688e+01
4.655768002999999822e-01 5.424699902110000238e+01 6.460684338900000512e+01
2.675019861300000024e+00 4.284601990849999709e+01 8.183542331249999791e+01
3.573278818099999921e+00 5.229214241759999737e+01 6.206579380120000167e+01
-3.813412935700000173e+00 4.973326227540000133e+01 6.736429108689999623e+01
2.463989381999999839e+00 5.390644220640000128e+01 5.840181895490000130e+01
-8.407561808000000303e-01 5.079300877970000272e+01 7.145866810249999901e+01
4.318069144499999901e+00 4.730778961989999942e+01 7.271472084030000360e+01
1.726192658200000007e+00 5.097190677110000223e+01 7.121562042210000243e+01
3.540035738999999793e-01 5.228342634749999718e+01 6.910082497809999325e+01
3.834154387199999903e+00 5.077846448849999916e+01 6.556503085049999413e+01
1.826106666100000053e+00 4.861753035550000135e+01 7.593728383459999520e+01
-2.302993212900000142e+00 4.762221284649999831e+01 7.275960100020000709e+01
-2.071028727499999889e+00 4.203737980719999712e+01 8.229869068130000187e+01
-1.700903789200000071e+00 5.251483744179999746e+01 6.419473273990000450e+01
-1.708445780199999930e+00 4.245447290010000074e+01 8.206696619900000655e+01
4.235071355999999732e-01 4.175682293799999911e+01 8.317073362790000601e+01
-1.758391525000000122e-01 5.045333568750000097e+01 7.250762179189999301e+01
-8.337854943000000407e-01 4.213284227319999786e+01 8.263119336590000330e+01
1.162021073000000015e+00 4.733879744970000303e+01 7.857636374630000375e+01
3.618789228299999827e+00 4.853359505960000320e+01 7.062718072430000404e+01
4.885871073799999742e+00 5.355324934480000110e+01 5.769961678979999675e+01
3.590532695999999913e+00 4.576900342860000137e+01 7.671581120599999792e+01
2.350890286899999904e+00 4.854823571890000267e+01 7.580911482530000001e+01
4.771158991400000104e+00 4.970864305180000287e+01 6.722957212510000602e+01
-1.180081513999999970e-01 4.693270486480000159e+01 7.927884130149999464e+01
2.435397280100000117e+00 4.930579988070000041e+01 7.399239945280000086e+01
4.865032718000000256e-01 5.470642218110000243e+01 6.360985579860000172e+01
5.267740174999999692e-01 4.563574867180000183e+01 8.194194140669999626e+01
2.666576366400000175e+00 4.342100065220000005e+01 8.118345146580000460e+01
-1.675652289400000106e+00 5.012540047289999734e+01 7.004987872140000604e+01
2.623665008900000206e+00 4.928302093389999783e+01 7.330820454220000215e+01
1.822942507700000103e+00 4.728648670110000296e+01 7.860324968019999403e+01
-2.789734966600000199e+00 5.303549581179999706e+01 6.019731846030000355e+01
-3.441447569000000151e+00 4.501951970470000219e+01 7.671651528659999997e+01
3.703144767700000006e+00 4.518560198469999989e+01 7.711421791920000146e+01
3.769510711800000191e+00 4.364699425359999907e+01 7.930866822710000008e+01
1.124302199399999980e+00 4.972975284230000170e+01 7.400908208840000668e+01
3.743913402700000059e+00 5.190589523850000120e+01 6.286209002929999912e+01
2.988110413799999865e+00 4.720973273149999727e+01 7.397520102750000603e+01
1.149043967699999946e+00 4.804812551610000071e+01 7.719159774220000259e+01
3.720467522799999927e+00 4.335569284169999804e+01 7.981602447439999537e+01
-1.591716960500000111e+00 4.666013939759999829e+01 7.865702418649999572e+01
2.555401623399999878e+00 5.315376344239999895e+01 6.549555377900000508e+01
-1.657495323300000045e+00 4.653098835280000145e+01 7.590766496770000060e+01
-4.014453677999999748e+00 5.102952852460000344e+01 6.419581281310000520e+01
2.693734697700000069e+00 4.407445598099999984e+01 8.177549574360000406e+01
-7.886027894999999566e-01 5.245229738820000165e+01 6.814690529569999455e+01
3.503193737000000141e+00 4.058954757600000107e+01 8.413568752689999997e+01
5.042051426000000447e-01 4.607673634860000078e+01 8.114632595269999626e+01
4.360415675199999619e+00 5.367772391980000180e+01 5.775306408849999684e+01
-8.246796048000000212e-01 5.405317581420000295e+01 5.841921501419999885e+01
2.397790152799999852e+00 5.252695352090000114e+01 6.743853031390000297e+01
2.610934721000000014e+00 4.738149190779999742e+01 7.724553141020000169e+01
-1.653827017400000043e+00 4.786299374909999926e+01 7.387971336340000050e+01
5.072263339200000054e+00 4.302119467360000016e+01 7.932169954329999939e+01
2.662491888499999959e+00 5.006700363809999743e+01 7.138018410239999412e+01
4.372999120100000248e+00 4.085874483549999781e+01 8.311251352889999566e+01
-1.739426209000000112e-01 4.563940296959999898e+01 8.194554379950000111e+01
2.453431240100000021e+00 5.410915066719999800e+01 5.785239807210000151e+01
-1.733903670199999913e+00 5.124098297620000153e+01 6.624491173500000230e+01
2.679195268399999996e+00 4.471211958180000323e+01 7.977131770210000639e+01
5.046096414900000049e+00 4.945815150100000324e+01 6.746471915639999395e+01
1.160911323499999925e+00 5.337139580139999850e+01 6.622248048420000544e+01
4.254644806900000020e+00 4.903309132260000069e+01 6.922800395919999517e+01
-8.602870753000000370e-01 5.438040240419999805e+01 6.426833561419999796e+01
-2.748516996199999785e+00 5.233265250190000017e+01 6.214205107970000341e+01
-1.524562931499999996e+00 5.411186192009999729e+01 5.797302033479999750e+01
4.608924362999999857e-01 4.141092308609999861e+01 8.373658886890000019e+01
3.760424443099999792e+00 5.211069376620000071e+01 6.233007901949999763e+01
-1.404200744299999970e+00 5.133598456989999903e+01 7.011797940469999446e+01
-3.537491292399999931e+00 5.084052966979999866e+01 6.503229087709999590e+01
-2.096378995000000023e-01 4.138138217819999909e+01 8.372542003990000126e+01
-1.488131260000000067e+00 5.517762065819999862e+01 6.165528927660000136e+01
-1.058709382999999948e-01 5.188034368379999961e+01 6.942881647229999942e+01
4.449035143999999775e+00 4.497797984759999679e+01 7.662169907439999861e+01
1.716522702600000061e+00 4.521791322029999804e+01 8.309158546890000707e+01
1.128257069100000010e+00 5.276784136530000069e+01 6.745269328409999332e+01
1.786783615300000072e+00 4.954858456769999719e+01 7.400535266750000574e+01
2.761573675000000172e+00 4.930900405730000102e+01 7.303766176419999567e+01
1.802619066799999947e+00 4.537952709849999877e+01 8.248516933690000030e+01
-1.690077907600000096e+00 4.879322867150000320e+01 7.145870538299999453e+01
1.135198879700000107e+00 4.575881430510000314e+01 8.216909875749999514e+01
4.455275646999999895e-01 4.583647750379999763e+01 8.168825865860000590e+01
-1.735573635299999973e+00 5.255756151180000302e+01 6.299483968629999708e+01
-8.205128837999999813e-01 4.847593281249999819e+01 7.644364968290000206e+01
2.651858675400000198e+00 5.008293922179999669e+01 7.073309652189999497e+01
-2.031016123700000175e+00 4.576817465639999938e+01 7.715937566060000563e+01
-1.645742941999999986e-01 4.096299229089999727e+01 8.438048016969999310e+01
1.759919355200000091e+00 4.575888272489999764e+01 8.213248003760000415e+01
-2.245322872800000091e+00 4.887669571179999650e+01 7.027647978400000284e+01
1.791167156300000007e+00 4.213287310900000193e+01 8.261468989610000335e+01
2.193134594900000067e+00 5.353950242909999702e+01 6.586891458409999700e+01
3.678796589400000094e+00 4.686328248510000094e+01 7.386575036239999292e+01
-2.747494097300000160e+00 4.079499430109999736e+01 8.370650382990000082e+01
2.769969683699999852e+00 4.566142665480000318e+01 7.870998231449999594e+01
3.737527478500000111e+00 4.907616122579999995e+01 6.943306152099999906e+01
2.566142206399999903e+00 5.131606997149999927e+01 6.939957765600000528e+01
-1.564844352699999996e+00 4.415096340769999728e+01 8.237471925129999306e+01
1.092338922099999943e+00 4.783295513139999855e+01 7.781250396340000464e+01
-2.131270983199999858e+00 5.361902536110000028e+01 5.904921674330000059e+01
-3.399726830600000138e+00 5.103615457139999734e+01 6.477936142880000148e+01
-1.836766461999999933e+00 5.037058508599999840e+01 6.750036701630000380e+01
2.498637181299999899e+00 5.010247705639999793e+01 7.207066353839999806e+01
-1.664630457999999869e-01 5.311723618869999797e+01 6.684828636769999832e+01
-2.664458509300000166e+00 4.601967107749999997e+01 7.636249091450000037e+01
1.164957734299999936e+00 5.468366587820000291e+01 6.362529550080000007e+01
2.682423479600000160e+00 4.604487203269999895e+01 7.644817211250000355e+01
2.656363671499999857e+00 5.068757911920000225e+01 6.873762449580000577e+01
2.697597748799999806e+00 5.088184792789999733e+01 6.628883789479999677e+01
2.643257977599999808e+00 4.737492050750000061e+01 7.650305054979999397e+01
5.176588438000000458e-01 4.715945782139999665e+01 7.901364764509999361e+01
4.717812809999999857e+00 5.028937616849999870e+01 6.588436153680000018e+01
-3.929944430599999983e+00 4.653711923110000015e+01 7.370222092710000084e+01
4.684372025400000084e+00 4.050648682079999929e+01 8.333057634220000409e+01
-3.700937226599999796e+00 4.702628507250000212e+01 7.283867577019999828e+01
-8.340120151000000037e-01 4.477438020980000033e+01 8.304740000110000153e+01
-3.280362884900000164e+00 4.068879478379999881e+01 8.352180641329999844e+01
-1.915508971999999865e-01 4.657252746540000032e+01 8.040188767380000456e+01
1.751068876299999966e+00 5.226978987279999700e+01 6.852197453189999976e+01
2.606101779999999923e+00 5.251470290350000170e+01 6.359810296719999911e+01
2.940705690200000166e+00 4.601428037130000348e+01 7.651101538529999857e+01
-3.076127703400000080e+00 4.178404342110000158e+01 8.208750632859999996e+01
-3.427135956299999897e+00 5.070587244629999901e+01 6.543468835820000606e+01
-1.751147848600000057e+00 5.012522151569999806e+01 6.833406837969999970e+01
4.598460474000000353e+00 4.105629952580000008e+01 8.266528437099999849e+01
-1.411608608899999950e+00 5.266089623719999935e+01 6.745911330650000082e+01
-2.945202018499999852e+00 4.702498495540000079e+01 7.353450719270000491e+01
1.741496351699999945e+00 5.243478033539999927e+01 6.815556099120000511e+01
3.616625312000000037e+00 5.038987005580000300e+01 6.656113049379999325e+01
-2.224644413100000051e+00 5.019816316189999839e+01 6.749939160959999640e+01
2.622602670000000025e+00 4.603173686640000284e+01 7.790288788799999509e+01
2.648451446500000195e+00 5.129837945620000283e+01 6.684214263120000510e+01
-1.585453357000000008e+00 4.467700450459999928e+01 8.173776959479999960e+01
-1.648677980600000037e+00 4.801880382950000126e+01 7.470436823599999343e+01
-7.973171341000000467e-01 4.774164372239999921e+01 7.776807748310000079e+01
-1.707181669699999960e+00 4.996736783869999954e+01 6.935041137039999626e+01
3.883328472000000087e+00 4.049041189399999752e+01 8.394138677060000475e+01
-2.922419970600000028e+00 4.051485698009999936e+01 8.392687340780000227e+01
-1.356243467399999902e+00 4.918643630489999907e+01 7.461635165910000467e+01
1.644413700999999950e+00 5.422426341580000297e+01 6.461837550229999749e+01
4.855705051800000227e+00 4.074577559920000169e+01 8.289993899159999557e+01
3.098334428499999849e+00 4.095011664799999807e+01 8.377763281199999312e+01
-1.459927242200000030e+00 4.079493539909999811e+01 8.431722736589999556e+01
-3.440271584700000052e+00 4.090977593409999713e+01 8.307931306279999717e+01
-7.278035260000000062e-02 4.480146509440000102e+01 8.306114735820000305e+01
3.855382246100000021e+00 4.102414112640000354e+01 8.322626461160000133e+01
-1.426596942900000053e+00 4.106428515409999846e+01 8.391686121979999768e+01
4.359288605399999739e+00 4.135642935060000269e+01 8.240684408399999938e+01
3.616894204699999893e+00 4.130665274119999708e+01 8.298288881839999931e+01
3.040248055100000180e+00 4.141075546769999960e+01 8.313080289949999724e+01
2.929436131600000159e+00 4.125633416130000342e+01 8.342431040350000160e+01
2.360850329399999836e+00 4.125254698109999651e+01 8.365868747679999728e+01
1.194467183800000054e+00 4.137815960239999669e+01 8.373530194139999594e+01
-8.564151035999999495e-01 4.137669893279999656e+01 8.365927160690000619e+01
-1.970547807500000026e+00 4.123844990869999805e+01 8.349710446289999766e+01
-2.116783609000000066e+00 4.145224063709999740e+01 8.312184186849999890e+01
-2.749001045300000001e+00 4.130070129519999966e+01 8.295990841850000663e+01
-2.715521631200000119e+00 4.726226829720000211e+01 7.324318830480000031e+01
-2.651204545900000209e+00 4.391752820119999967e+01 7.911760190939999404e+01
2.542818633900000069e+00 5.444801605880000039e+01 6.229416108430000065e+01
4.482851247900000224e+00 4.166264329490000051e+01 8.187991010380000034e+01
-1.442816744499999970e+00 4.165711084090000327e+01 8.310095636799999852e+01
5.077971926200000041e+00 4.174397708339999724e+01 8.125768893590000630e+01
3.156484000099999854e+00 4.172457641199999756e+01 8.260000702540000361e+01
-2.250987385999999868e-01 4.175883765630000255e+01 8.318781814369999950e+01
-7.969802950000000052e-01 4.173274477679999706e+01 8.315044285749999631e+01
-2.117665539799999941e+00 4.175924997530000127e+01 8.264318932999999845e+01
4.449653247199999662e+00 4.424354647189999667e+01 7.783210758200000612e+01
5.042437714700000129e+00 4.223400408370000036e+01 8.054057740080000372e+01
4.417803864899999766e+00 4.220423218700000234e+01 8.111304477470000052e+01
4.258322233300000370e+00 4.195871469370000284e+01 8.160037156779999634e+01
3.703192895900000003e+00 4.210443608850000174e+01 8.175635530370000481e+01
3.029960489700000092e+00 4.201169885819999905e+01 8.224956055680000588e+01
1.168468988100000105e+00 4.200755475449999921e+01 8.278307040900000402e+01
-2.767134959599999888e+00 4.213366204380000113e+01 8.177192462979999732e+01
-3.316015893999999964e+00 4.201993348469999745e+01 8.156278852250000000e+01
-3.466537914199999904e+00 4.224732266800000247e+01 8.110847296229999870e+01
-3.409919666099999969e+00 4.730949759439999980e+01 7.261782763550000652e+01
3.875051542300000040e+00 4.233303685690000151e+01 8.130027096610000115e+01
4.150322351999999881e-01 4.225791049019999690e+01 8.259668811480000272e+01
-2.101600725999999975e-01 4.225794950179999887e+01 8.257580886440000256e+01
-2.164308814700000028e+00 4.228526662830000049e+01 8.190121571859999960e+01
4.357869134699999591e+00 4.266121900190000105e+01 8.047194182929999329e+01
3.668027589599999860e+00 4.258029382760000203e+01 8.104011743469999374e+01
3.034379662800000155e+00 4.281368610159999832e+01 8.111069667120000304e+01
2.899386262500000200e+00 4.256465286569999762e+01 8.163122998549999920e+01
1.761742081399999993e+00 4.270791205310000294e+01 8.260306946369999537e+01
1.130462931400000093e+00 4.272663228900000121e+01 8.261930013680000684e+01
-2.094968544099999885e+00 4.285003119459999965e+01 8.113077875230000302e+01
3.061701712900000150e+00 4.867014603909999693e+01 7.072184836910000172e+01
-3.138693678200000114e+00 4.255235518709999809e+01 8.090723855950000143e+01
2.259932560399999790e+00 4.470074109680000163e+01 8.299462813690000473e+01
3.735532539299999844e+00 4.291481055639999909e+01 8.049640508570000463e+01
-3.435879032099999897e+00 5.027485644490000283e+01 6.637323166439999511e+01
1.910709029700000006e+00 4.300764315770000223e+01 8.275179594479999423e+01
1.410799715600000059e+00 4.300761868949999922e+01 8.276489149249999855e+01
-5.890837139000000278e-01 4.300757686779999744e+01 8.278727474229999928e+01
-2.295883650499999984e+00 4.303718284680000039e+01 8.067124664950000579e+01
4.981328330100000201e+00 4.324880486419999670e+01 7.907439187379999623e+01
4.372199705899999955e+00 4.348572451390000282e+01 7.918004709699999921e+01
2.638750368799999801e+00 4.336873059100000205e+01 8.242559847910000315e+01
2.358433709299999848e+00 4.350615493509999965e+01 8.291274306969999941e+01
1.783593715999999940e+00 4.350728174350000188e+01 8.295324705960000244e+01
1.158703654400000005e+00 4.350725193670000124e+01 8.296919984230000011e+01
4.086769352999999882e-01 4.350725229039999675e+01 8.296901053060000208e+01
-2.163102279999999933e-01 4.350724459269999755e+01 8.297313039760000208e+01
-8.412454214000000263e-01 4.350722506200000339e+01 8.298358337439999843e+01
-1.560228839599999917e+00 4.351170010239999897e+01 8.239167314620000582e+01
-2.764056925399999809e+00 4.339954726380000238e+01 7.983069704839999758e+01
-3.278417889500000015e+00 4.322866524060000160e+01 7.974380103110000562e+01
-3.409751145700000041e+00 4.352346641620000156e+01 7.921920931139999311e+01
3.210449780199999825e+00 4.352274814140000103e+01 7.985303489220000017e+01
-2.372157234299999917e+00 4.376383085220000169e+01 7.945212984130000677e+01
4.387213010800000035e+00 4.395973108329999945e+01 7.838411268999999493e+01
3.095557304500000217e+00 4.399701409379999717e+01 7.922120580019999636e+01
1.780596593200000077e+00 4.413191153940000078e+01 8.316140749090000384e+01
-2.189175761000000109e-01 4.413178564110000224e+01 8.322878915229999564e+01
-1.469117701899999906e+00 4.414796215169999982e+01 8.293088494559999901e+01
4.960027060599999871e+00 4.411455142900000226e+01 7.838527342849999968e+01
3.129882045700000059e+00 4.425692947430000146e+01 7.874122611209999434e+01
-2.288991095800000153e+00 4.426122495300000281e+01 7.872243409530000235e+01
4.787838559299999908e+00 4.843398455340000197e+01 6.992631544729999860e+01
4.942277510700000320e+00 4.460011973259999962e+01 7.788366743340000653e+01
4.410932328500000388e+00 4.470144198269999691e+01 7.715782388130000413e+01
3.725149107100000023e+00 4.460828622679999711e+01 7.783220882780000238e+01
3.098596797899999977e+00 4.482529689620000113e+01 7.787559048350000523e+01
1.142804445999999974e+00 4.463004930849999852e+01 8.312556100730000708e+01
5.078651262000000166e-01 4.479928580480000022e+01 8.308981432580000615e+01
-1.404237976899999962e+00 4.467575700679999784e+01 8.289842271749999725e+01
-2.047094258100000008e+00 4.451596571489999832e+01 7.846979881779999744e+01
-2.638073731600000027e+00 4.451618982130000290e+01 7.820162332370000513e+01
-2.756266128300000062e+00 4.469381028069999928e+01 7.778306213029999583e+01
-3.325341434499999860e+00 4.450591134959999806e+01 7.768530487489999814e+01
5.065029881400000100e+00 4.470834064409999797e+01 7.713378443909999760e+01
1.658721089499999968e+00 4.475514655159999933e+01 8.411606557369999848e+01
1.159049743199999982e+00 4.475506790069999852e+01 8.415816009770000505e+01
-2.134479185200000018e+00 4.476495415360000152e+01 7.886697093899999800e+01
2.510303310699999901e+00 4.480784404559999956e+01 8.251607480350000401e+01
1.777924435100000089e+00 4.500604629720000105e+01 8.363852553990000160e+01
6.532331022999999792e-01 4.500596742209999945e+01 8.368074007209999365e+01
-2.398534642400000028e+00 4.501773147739999814e+01 7.738453838489999725e+01
-2.729169954600000114e+00 4.501543321879999837e+01 7.715002226439999333e+01
5.029203445000000272e+00 4.533198467599999759e+01 7.645122707149999997e+01
4.239835413699999833e+00 4.523493230569999923e+01 7.642864056000000517e+01
3.723098106100000138e+00 4.534026978469999847e+01 7.654329016149999632e+01
3.129789374900000087e+00 4.553063926619999791e+01 7.657658465369999590e+01
2.997222705400000020e+00 4.534160840069999665e+01 7.707605112509999401e+01
2.451691442300000023e+00 4.542578321860000301e+01 8.171705800099999806e+01
2.348560520699999987e+00 4.529441113269999875e+01 8.228026817319999964e+01
2.145149976099999911e+00 4.525739827830000195e+01 8.291894604489999665e+01
-1.307318482000000004e-01 4.540099758209999692e+01 8.247500983889999304e+01
-1.875964391999999925e-01 4.521160144680000315e+01 8.313539411559999337e+01
-8.537971494999999633e-01 4.525713563010000229e+01 8.305951714260000074e+01
-2.106292873400000154e+00 4.533394716080000109e+01 7.706294560620000311e+01
-2.785323812900000195e+00 4.539048722289999915e+01 7.655054431620000344e+01
-3.410160926500000134e+00 4.546605483369999945e+01 7.596520718680000073e+01
5.033122475399999907e+00 4.535190670469999930e+01 7.581389426639999840e+01
2.632459086599999942e+00 4.546383980400000269e+01 8.110063362309999491e+01
-2.155880467599999850e+00 4.556846377939999826e+01 7.661620064989999435e+01
-2.789516358499999793e+00 4.562975500200000312e+01 7.611470609609999372e+01
-3.633790916100000157e+00 4.560726683949999938e+01 7.552370481639999866e+01
3.085269791099999992e+00 4.583760560000000339e+01 7.696840173610000591e+01
2.340423758500000062e+00 4.595657349249999868e+01 8.114166004410000710e+01
2.177962002900000194e+00 4.584592784779999874e+01 8.170837764760000255e+01
6.352403309999999914e-01 4.575880104710000040e+01 8.217619451699999900e+01
-3.645782969999999956e-01 4.575875211070000148e+01 8.220238561239999342e+01
-7.628581135999999985e-01 4.586280079569999657e+01 8.161015176520000125e+01
-1.114996158400000104e+00 4.575884152350000278e+01 8.215453131659999997e+01
-2.785542644099999965e+00 4.604546673490000330e+01 7.537670259600000122e+01
2.477069268100000166e+00 5.338464118329999764e+01 6.032913433190000063e+01
4.330628519700000290e+00 4.602084318899999715e+01 7.573516891900000303e+01
3.753653195000000053e+00 4.603826055449999899e+01 7.529806161279999799e+01
-8.715023566999999804e-01 4.612291322400000126e+01 8.107841428880000478e+01
1.808035628500000103e+00 4.607979399279999910e+01 8.111611164239999994e+01
-2.642379300000000097e-02 4.628672224160000326e+01 8.050393329940000342e+01
-1.412355653000000100e+00 4.618966933370000305e+01 8.042840246010000271e+01
-2.143342694899999845e+00 4.611533293360000130e+01 7.595954640719999418e+01
-2.776459738699999846e+00 4.599607261429999738e+01 7.580569647810000333e+01
-2.915620947499999893e+00 4.627570038119999651e+01 7.488984075449999978e+01
5.015935882900000031e+00 4.663253742469999708e+01 7.328005494689999466e+01
4.318403576899999763e+00 4.652278458680000028e+01 7.470413953720000677e+01
2.974905083599999944e+00 4.661244505959999884e+01 7.526402331730000128e+01
2.163748187099999942e+00 4.648758712429999918e+01 8.039303180330000487e+01
1.048781355800000092e+00 4.656800033670000261e+01 8.043736089499999764e+01
5.028798079999999837e-01 4.652667230499999818e+01 8.037501809450000678e+01
-7.521297917999999472e-01 4.651691191780000167e+01 8.044007258099999547e+01
-2.048491930800000027e+00 4.652089057410000095e+01 7.571782788170000345e+01
-2.676609599999999922e+00 4.652159565990000090e+01 7.534046121500000481e+01
-2.831554760399999982e+00 4.675354067899999677e+01 7.408353143649999595e+01
-1.958341771800000020e+00 5.292547972429999703e+01 6.134550944880000145e+01
1.836283339199999975e+00 4.674402755989999747e+01 7.983196357609999438e+01
1.167471711499999953e+00 4.675648458279999886e+01 7.981287723939999523e+01
4.733052341999999801e-01 4.671397238659999829e+01 7.982949123790000101e+01
2.783415059000000191e+00 4.475876443660000348e+01 7.900312152930000309e+01
2.316983912800000045e+00 4.984705288610000196e+01 7.323496851539999852e+01
3.953712553499999949e+00 4.695990373189999900e+01 7.350366252240000620e+01
2.565986798399999991e+00 4.676354062290000257e+01 7.860309760660000222e+01
4.537692360999999730e-01 4.693732890030000249e+01 7.928322614009999825e+01
-8.022007164000000135e-01 4.691924506470000011e+01 7.926897123829999714e+01
5.025573340400000255e+00 4.728642369739999651e+01 7.204042518280000706e+01
4.300435422899999693e+00 4.727561260670000109e+01 7.320259387619999814e+01
2.442761970099999846e+00 4.734656905960000017e+01 7.788838193230000684e+01
2.295240102500000212e+00 4.725343186159999931e+01 7.840357209760000501e+01
1.642132453299999906e+00 4.715947568259999656e+01 7.905763168869999902e+01
4.946506372000000207e-01 4.734537026750000166e+01 7.853871802300000127e+01
-2.148038291999999905e-01 4.717068877500000212e+01 7.902109293510000043e+01
-8.557018333000000476e-01 4.733551015470000323e+01 7.852166699549999862e+01
-1.429476536399999942e+00 4.720437166890000213e+01 7.850440040109999984e+01
-2.065692000099999870e+00 4.723618003410000199e+01 7.388718658489999314e+01
-2.774528970400000016e+00 4.750832320460000346e+01 7.271190513780000231e+01
1.794542017099999942e+00 4.758678263009999654e+01 7.795140389440000206e+01
-7.425185104999999508e-01 4.754699639319999704e+01 7.806292617990000338e+01
-3.556064485599999880e+00 4.754481044210000107e+01 7.204629699230000028e+01
5.021679201399999570e+00 4.794554572399999870e+01 7.074327296639999929e+01
4.335021798599999698e+00 4.785545342040000349e+01 7.142163666659999421e+01
2.974050814199999948e+00 4.781800758840000043e+01 7.253487248170000612e+01
2.371763669899999982e+00 4.787472050769999754e+01 7.711868291829999578e+01
1.548897347100000044e+00 4.783407271840000163e+01 7.783004749660000243e+01
5.346697446999999492e-01 4.777431453709999687e+01 7.778419894820000025e+01
-1.377878018599999921e+00 4.794110846430000095e+01 7.710396161900000322e+01
-2.081360411699999968e+00 4.781538109920000323e+01 7.257717579129999308e+01
-2.459814430000000218e+00 4.777705272779999746e+01 7.243985115869999447e+01
-3.453625081899999838e+00 4.790551104960000117e+01 7.141851103470000339e+01
3.705130636299999836e+00 4.809396053729999920e+01 7.138640980910000167e+01
2.421634956000000116e+00 4.804412317740000304e+01 7.653003876370000569e+01
-1.809999190999999896e-01 4.801063888280000214e+01 7.724240164299999378e+01
3.901698103499999792e+00 4.827494743100000107e+01 7.096450381590000234e+01
2.588859724300000220e+00 4.807904529769999868e+01 7.596133213950000140e+01
1.762177866200000054e+00 4.824460436929999929e+01 7.656427180880000094e+01
1.753042278899999973e+00 5.181963844109999684e+01 6.944336295189999930e+01
5.003489124299999702e+00 4.857734972149999919e+01 6.946765857619999451e+01
3.735202577299999938e+00 4.873887441450000324e+01 7.004948639980000280e+01
2.946159458999999980e+00 4.847008019110000276e+01 7.123079465319999315e+01
5.454169787999999519e-01 4.847449870140000172e+01 7.643329752020000001e+01
-1.336091714199999947e+00 4.855842650689999829e+01 7.591203184799999804e+01
-2.633899143199999848e+00 4.851440739550000103e+01 7.076710150030000079e+01
-2.815111712499999808e+00 4.877336716530000160e+01 7.012150709680000205e+01
-3.413804247599999897e+00 4.861213828019999994e+01 7.003895804740000131e+01
-1.401037295999999932e+00 4.875104628670000295e+01 7.529911925499999370e+01
-3.480854450899999897e+00 4.886177157630000067e+01 6.942589901959999565e+01
5.012922263500000142e+00 4.919466345520000061e+01 6.816115054130000317e+01
4.319449710099999784e+00 4.914488749889999752e+01 6.876121983219999834e+01
3.509371970900000193e+00 4.903200926680000293e+01 6.980712753139999904e+01
1.814065803899999940e+00 4.923328310579999822e+01 7.464861040040000262e+01
3.068944003999999892e-01 4.902116407599999803e+01 7.561154670300000191e+01
-8.555280541999999988e-01 4.908014604000000247e+01 7.518510788550000257e+01
-2.004503510200000171e+00 4.912845510820000072e+01 7.002653738680000117e+01
-2.474765482300000041e+00 4.905069495059999696e+01 6.982036709649999295e+01
-3.428191895299999903e+00 4.923262305469999944e+01 6.873700206169999660e+01
-3.947987355500000017e+00 4.906751791039999944e+01 6.865432362609999473e+01
-1.559297514999999912e-01 4.911207371710000302e+01 7.507547244900000294e+01
3.916224901000000091e+00 4.954446326640000109e+01 6.828834407540000484e+01
4.799485829999999842e-01 4.933260849970000095e+01 7.461918967139999381e+01
-1.986298685000000008e-01 4.933167782360000331e+01 7.460193970340000647e+01
-8.298142835999999800e-01 4.927066666849999876e+01 7.460616665659999569e+01
-1.586357320499999890e+00 4.951916984849999892e+01 7.334669326750000096e+01
-1.748565118599999968e+00 4.953293425559999719e+01 6.932008705190000342e+01
-3.450101538699999804e+00 4.951114105279999933e+01 6.812125498909999521e+01
4.982083629899999977e+00 4.982708455779999923e+01 6.679183358580000629e+01
3.748428780399999827e+00 4.996327848420000350e+01 6.742786245649999444e+01
2.904830930500000186e+00 4.975960366169999816e+01 6.862909341450000511e+01
1.787249798399999978e+00 4.989902020289999740e+01 7.331092829850000214e+01
-2.112538583999999942e-01 4.977402928400000093e+01 7.409009775459999503e+01
-6.960346664000000017e-01 4.970996128499999855e+01 7.399823635139999567e+01
-8.120300388000000202e-01 4.991921920960000136e+01 7.333217503660000602e+01
-1.214075802700000040e+00 4.977466417139999777e+01 7.375030176910000534e+01
-1.357695849299999979e+00 4.985053165989999968e+01 7.327853464700000075e+01
-1.715081266000000104e+00 5.002118571350000309e+01 6.876481793179999613e+01
-2.122288447999999939e+00 4.994236435450000045e+01 6.810457482699999332e+01
-2.680322779599999983e+00 4.978021191279999869e+01 6.807527797269999326e+01
-2.835895764500000027e+00 4.999503921760000225e+01 6.752368751129999680e+01
-3.386899547400000099e+00 4.983456208890000028e+01 6.746190885129999515e+01
3.779100127900000050e+00 5.387025983880000268e+01 5.770532910259999682e+01
3.102002858100000093e+00 5.014484420769999673e+01 6.745954713739999420e+01
2.432472608999999952e+00 4.996575784990000102e+01 7.262603126770000017e+01
1.144577895000000067e+00 4.996049233219999763e+01 7.335081559360000369e+01
5.180401217000000225e-01 4.999138628699999742e+01 7.331833401980000531e+01
-1.430477001200000098e+00 5.007626481509999650e+01 7.264629656559999660e+01
-3.471754111400000120e+00 5.005992579910000018e+01 6.688143147290000456e+01
2.397311729900000188e+00 4.866507789029999742e+01 7.527903137980000281e+01
3.852104937900000081e+00 5.024295784649999774e+01 6.679444380040000340e+01
2.020414196199999957e+00 5.027737837229999940e+01 7.230566292279999629e+01
-2.842946684400000201e+00 5.024862221909999960e+01 6.691096554320000678e+01
4.246422406799999827e+00 5.043507596330000098e+01 6.603286311899999816e+01
3.135126749499999921e+00 5.073112988470000317e+01 6.612715433069999449e+01
2.999566759699999974e+00 5.054026013139999662e+01 6.675029508699999781e+01
2.303191098200000120e+00 5.049016255530000308e+01 7.193961598100000288e+01
1.744026706200000110e+00 5.050978045339999767e+01 7.206518769580000594e+01
1.144888019399999957e+00 5.044230283779999979e+01 7.249405592220000472e+01
4.916642394999999888e-01 5.046365326880000168e+01 7.250425320009999552e+01
-8.541401918000000038e-01 5.040486392750000277e+01 7.248677074159999734e+01
-7.914863826000000380e-01 5.053562395219999814e+01 7.207392039730000022e+01
-3.382278526399999929e+00 5.045190665890000048e+01 6.609973150220000093e+01
4.442627468399999557e+00 5.080594172229999828e+01 6.493185222450000538e+01
2.546899214400000222e+00 5.069965019570000209e+01 7.075365689580000605e+01
2.369752342900000031e+00 5.062382383719999979e+01 7.134177864139999770e+01
5.210086183000000037e-01 5.059615217780000052e+01 7.205013247750000005e+01
