2.878235782900000039e+00 1.621368267320000101e+01 1.071335548498000065e+02
-1.624414374399999916e+00 -9.845697618799999162e+00 1.096551847839999994e+02
-3.410030255700000179e+00 1.089814420189999922e+01 1.064366606134999955e+02
-1.610069591000000022e+00 -5.931404359200000087e+00 1.116852862533000064e+02
1.124382907900000061e+00 1.095595392839999960e+01 1.099029539152000012e+02
5.027948851000000330e-01 -4.048027045299999571e+00 1.117930045099000012e+02
-1.816281890600000004e+00 1.142963279199999960e+00 1.094356305377000069e+02
-8.135392445000000361e-01 3.828804011699999954e+00 1.109393220215000042e+02
3.286957720699999808e+00 1.817083813700000050e+00 1.093040936923000004e+02
1.817073305200000100e+00 3.203598765100000190e+00 1.110391466660999953e+02
-7.773277757000000010e-01 1.688084900540000177e+01 1.053371009746999931e+02
-1.554848033999999934e+00 3.127120636299999923e+00 1.096373418713999968e+02
-2.796490607800000028e+00 1.028071242510000083e+01 1.069846102933999958e+02
-8.081897974999999734e-01 3.203638616000000106e+00 1.110178181379999955e+02
-2.125473692000000026e-01 -8.548345135199999945e+00 1.118910703858000062e+02
3.693032377299999780e+00 1.094582520230000000e+01 1.069552462061000000e+02
-7.752108570000000587e-02 1.698141393830000112e+01 1.064727697354999947e+02
-1.285136922000000015e-01 -3.297858564099999779e+00 1.117148619491999995e+02
4.365769961999999893e+00 1.352799820229999916e+01 1.056947937636000034e+02
-2.174468817500000206e+00 1.824478014829999850e+01 1.040839996425000038e+02
4.817918151599999810e+00 1.610255007499999991e+01 1.043183938253000065e+02
-1.364708399000000016e-01 1.220631042840000013e+01 1.097322021928000026e+02
-1.698797691200000015e+00 -4.615948943800000315e+00 1.110491773977000065e+02
-3.228474865599999966e+00 1.545422819650000079e+01 1.049091450587999930e+02
-1.903021727899999904e+00 -7.880365504999999882e-01 1.095017884198999951e+02
-7.786248566000000260e-01 1.414444832939999941e+01 1.094218699422000043e+02
-1.547908320499999935e+00 2.384102137699999790e+00 1.103606624482000029e+02
4.720303410000000199e-01 1.408191395929999956e+01 1.094392625253999967e+02
-1.482543960999999966e+00 8.830397710299999758e+00 1.101665615462000005e+02
-1.763834028000000054e-01 2.453356787100000158e+00 1.111566252238999937e+02
-1.458552239899999936e+00 -8.507263406799999927e+00 1.115612516417999984e+02
3.464655816000000055e+00 -5.353908949800000094e+00 1.095101571099999944e+02
-1.693752757900000017e+00 -2.111311761400000098e+00 1.097932681982999981e+02
-1.223126296999999946e-01 -4.048007340199999859e+00 1.117824582279999959e+02
-3.183644040399999930e+00 -1.175291562359999986e+01 1.082885662862999965e+02
-1.991928507000000070e-01 5.079129266199999826e+00 1.107852930046999944e+02
-1.460092548600000040e+00 1.349079828620000043e+01 1.090843542460000037e+02
-1.505638320899999938e+00 5.732004705599999639e+00 1.104056286104000009e+02
4.285156787200000039e+00 7.680000950600000209e+00 1.075962827363999992e+02
-2.110180903499999872e+00 1.290740603329999914e+01 1.064592106000000058e+02
-1.590589975799999944e+00 1.558343506159999947e+01 1.072195551882000046e+02
-1.665185443799999998e+00 -2.653881715499999849e+00 1.098383272725999973e+02
2.462520945200000089e+00 -7.904519921000000338e+00 1.118528241486000070e+02
-1.539198473099999909e+00 1.163312470290000000e+01 1.078059860440999955e+02
2.467180118799999988e+00 1.885555969809999866e+01 1.040308781535999998e+02
-1.405760813399999920e+00 -9.171775620700000076e+00 1.114590138615999990e+02
2.404469462699999838e+00 1.028615678579999937e+01 1.099035566016000018e+02
2.453051617199999868e+00 1.828419651699999982e+00 1.111129549337999975e+02
5.141505789000000437e-01 -1.080020100880000022e+01 1.099628359520999936e+02
-2.045750028999999970e-01 1.726752885169999985e+01 1.083606914253000042e+02
-1.691332101900000051e+00 7.193589707400000144e+00 1.085428449292000010e+02
-2.635814187399999842e+00 1.615922390209999904e+01 1.049177532349000046e+02
-2.770510127900000175e+00 -1.243637538219999961e+01 1.084979753222000056e+02
-3.402111739900000043e+00 -7.269810383200000281e+00 1.085061801181000050e+02
-1.543216011000000110e-01 1.727745078310000082e+01 1.077613608907000042e+02
-7.417588924000000361e-01 1.719018146180000173e+01 1.072155169554000054e+02
-2.728731333999999897e+00 5.851946141999999629e-01 1.088809602185999950e+02
4.674351149699999652e+00 3.887023160000000033e+00 1.080487357308000043e+02
5.277837173999999631e-01 7.704956197299999587e+00 1.103848177992999950e+02
1.109054598399999980e+00 1.714725819530000095e+01 1.058030115807000016e+02
1.800837068000000096e+00 1.731814652519999953e+01 1.078560532654999946e+02
-8.951156429999999886e-02 1.698863043989999966e+01 1.071354260511999996e+02
-1.858091729300000106e+00 -5.142144686500000006e+00 1.113829703448000004e+02
1.106690344200000009e+00 -1.422637980700000027e+00 1.116268783679000052e+02
-3.208300812200000074e+00 1.155760892059999989e+01 1.063562386594999936e+02
1.153330820799999934e+00 -7.298362924700000143e+00 1.119206408730999982e+02
-2.398004367000000081e-01 1.674918480710000068e+01 1.088472973978000056e+02
2.351835254700000100e+00 1.345688687310000020e+01 1.094437345509000039e+02
2.402469353599999913e+00 1.097275212109999920e+01 1.097983607532000008e+02
1.147632049000000043e+00 8.330081335699999201e+00 1.103278675763999956e+02
-1.397452908100000002e+00 1.690580562950000143e+01 1.071428080352000052e+02
-1.625247160000000024e+00 -2.064327583999999938e+00 1.110113943933999963e+02
-2.801019993200000169e+00 -3.299499546399999872e+00 1.090057756262000055e+02
-3.422818076200000004e+00 2.427443952900000035e+00 1.082722942224999940e+02
-1.688844146799999946e+00 1.297017067580000038e+01 1.067310046071000045e+02
-2.962404951699999955e+00 1.158034522699999957e+00 1.086322182087999977e+02
-1.414311729900000092e+00 1.683866301040000124e+01 1.065129502078000030e+02
-1.802648080500000027e+00 -3.869386303599999799e+00 1.109304252826999999e+02
-1.629629817399999903e+00 1.229804114270000071e+01 1.071943270344000041e+02
3.083952716699999819e+00 1.674263736420000015e+01 1.049974166341000057e+02
-2.836847633900000165e+00 1.884841563910000062e+01 1.034102324636999981e+02
-1.040113076599999964e+00 -1.028793802160000048e+01 1.092985337156000014e+02
-2.819752201300000038e+00 4.478585473399999906e+00 1.083185476067999957e+02
-1.827241558599999927e+00 -7.196751630099999630e+00 1.095535690443000050e+02
-1.195789302699999945e+00 1.722005805859999938e+01 1.060640083544000021e+02
-3.421084126899999855e+00 5.128906127299999618e+00 1.078488319070000045e+02
-1.546424156000000050e+00 1.406936081269999939e+01 1.083866704922999986e+02
2.513299873299999820e+00 1.683178310110000098e+01 1.052961686569999955e+02
-8.962585915999999875e-01 -1.185613417939999970e+01 1.093166040467999949e+02
-7.862096779999999674e-01 6.196514585000000297e-01 1.113263137606000015e+02
-2.180495366000000157e+00 1.694213006680000078e+01 1.047179466153999954e+02
-2.758885234700000133e+00 -5.341423805599999852e+00 1.090164362420999993e+02
1.171563219400000078e+00 5.579263975599999981e+00 1.107212154626000000e+02
2.396523212399999991e+00 8.330343356100000207e+00 1.101876325016000067e+02
4.887163875000000157e-01 1.756108552519999932e+01 1.050736978152999939e+02
-3.213665022399999849e+00 7.043264558899999805e+00 1.076172793293000041e+02
-3.434738584499999803e+00 -1.430422263999999943e+00 1.085238585567000058e+02
-1.492219838700000079e+00 1.685206478050000101e+01 1.052657071208000019e+02
-3.498097120899999801e+00 1.552263743389999995e+01 1.046330850172000027e+02
-3.299048471099999880e+00 1.675753782450000173e+01 1.042837019692999974e+02
4.180889512200000269e+00 1.020211602040000010e+01 1.069564587941000013e+02
-1.935432089000000133e-01 4.453895519399999614e+00 1.109003711632999938e+02
3.268632979599999988e+00 -8.793612310400000354e+00 1.093540207608999992e+02
-2.094797521899999904e+00 -8.534562162300000310e+00 1.092375613517999966e+02
3.781053402099999960e+00 1.550006167549999958e+01 1.051777282436000007e+02
3.928783840199999933e+00 2.457904013399999865e+00 1.087229190503000069e+02
-1.552618763999999985e-01 -4.724189349999999982e-02 1.114369442117999967e+02
2.457182980399999828e+00 7.086508329599999989e+00 1.103829658631999990e+02
-8.796547520999999925e-01 1.814780301149999886e+01 1.046120581655000024e+02
-8.583926855000000300e-01 8.955385207400000880e+00 1.101752581158999931e+02
-1.144707477999999945e-01 9.705511707599999482e+00 1.101195840679999947e+02
1.624130266599999928e+00 -1.162723301119999952e+01 1.094623763698999994e+02
1.873182098000000018e+00 1.727611939499999849e+01 1.083438028862999971e+02
-8.641187055000000283e-01 9.643031083100000345e+00 1.101082117065000006e+02
4.332665275400000127e+00 1.538181043470000020e+01 1.049433198440000012e+02
2.382026077899999983e+00 -4.672923501199999663e+00 1.117275623366000019e+02
3.095966159600000100e+00 1.496651632650000074e+01 1.058083584607999938e+02
-1.590756673100000018e+00 1.491178031139999938e+01 1.071136089394999971e+02
-1.026344611000000046e-01 1.405687535000000032e+01 1.094595255103999989e+02
-2.031354885699999890e+00 3.817997023799999834e+00 1.088662380764999966e+02
-1.381987922099999988e+00 4.454101548399999722e+00 1.107901030792999961e+02
-2.616697257699999835e+00 1.776443630499999982e+00 1.088654470224000050e+02
3.484335146899999902e+00 3.734719970100000008e+00 1.088295744379999945e+02
2.412138593599999936e+00 -8.548253577500000588e+00 1.118420680632000028e+02
1.111301954600000030e+00 -2.047635378599999889e+00 1.116154609916000027e+02
-2.327668877999999886e+00 9.790895648499999382e+00 1.073236763355999983e+02
1.134134412299999894e+00 1.751691600419999872e+01 1.050639296943000005e+02
1.167220466100000076e+00 -1.179394660510000037e+01 1.094848188457000049e+02
-8.760421032999999857e-01 1.095603541919999913e+01 1.098593394946999950e+02
-8.063473050999999669e-01 -9.747740383200000025e+00 1.115481555662999966e+02
-1.549452696899999982e+00 3.860767348400000021e+00 1.103529200910000014e+02
-2.540115886000000045e-01 -1.244372069139999937e+01 1.093534826198000047e+02
2.430580657800000211e+00 4.454115060600000398e+00 1.107828712584999948e+02
-1.502829208399999894e+00 1.160123155329999989e+01 1.096443770742999959e+02
1.828690144699999909e+00 1.828269490700000111e+00 1.111933221094000004e+02
-7.478003457999999881e-01 -4.047901067299999767e+00 1.117255802482000036e+02
2.419679354599999943e+00 5.704491938300000342e+00 1.106012132295000043e+02
4.305476700599999873e+00 1.669031457959999898e+01 1.043958820086999992e+02
-1.510300584899999965e+00 -9.239199500799999853e+00 1.103589699955000043e+02
5.123559104999999558e-01 -5.298098755699999884e+00 1.118113349709999937e+02
-2.247505501000000017e+00 -7.767339896999999604e-01 1.092209061574999964e+02
-1.574501212099999936e+00 -6.828404158999999973e-01 1.102951381820000023e+02
2.282246112600000210e+00 -1.096198285000000022e-01 1.113706117267000053e+02
1.163129922900000057e+00 -1.116906784869999925e+01 1.095597339804999990e+02
1.101061216900000028e+00 -7.974089048000000401e-01 1.115143001211000069e+02
2.861867823799999933e+00 1.217475538529999923e+01 1.095817826250000024e+02
2.458251639699999824e+00 1.545775074680000039e+01 1.090134626303999994e+02
-1.700620984900000021e+00 -4.718859350499999827e+00 1.098460432825000055e+02
-1.545483643300000098e+00 1.624930223579999833e+01 1.071393251973999980e+02
-3.355213198399999985e+00 8.940915048800000875e+00 1.070264220640000019e+02
4.211431593700000420e+00 5.396686619999999657e-01 1.088374497550999962e+02
-2.158520852300000126e+00 -7.861092111599999654e+00 1.092485764461000031e+02
3.901356663300000083e+00 1.763966078449999841e+01 1.040797055720999964e+02
1.119041666700000048e+00 1.158111745569999940e+01 1.098254577633999958e+02
1.719243147500000068e+00 9.622246079800000018e+00 1.100820109871999932e+02
1.031363479199999933e+00 1.439461300940000044e+01 1.093377419873999941e+02
3.611766607299999876e+00 1.479479497350000017e+01 1.055853188526999986e+02
4.567287847700000292e+00 1.371434909969999971e+01 1.054539104565999992e+02
-2.183283954499999790e+00 -1.993285101699999950e+00 1.092879654386999988e+02
-1.389565919000000038e+00 1.681581678379999900e+01 1.058474052053000065e+02
2.343976614899999866e+00 1.857520327869999832e+01 1.042579409819999938e+02
-1.549383155899999975e+00 1.166463584529999942e+01 1.089631456155999985e+02
-2.221001888999999951e-01 -7.298275293199999680e+00 1.118737398893999995e+02
1.799604929900000094e+00 1.715931102109999884e+01 1.066983284334999951e+02
-8.619811025000000404e-01 1.292538366820000029e+01 1.095707305197999943e+02
1.836727104800000010e+00 1.750995771530000056e+01 1.050234016359000009e+02
4.993820681999999733e-01 1.095594934470000048e+01 1.099054071743999970e+02
1.384597449399999958e+00 9.705735329199999484e+00 1.099999002627999971e+02
-3.398017201800000109e+00 1.032729464170000000e+01 1.066164235950000005e+02
-2.383872372199999923e+00 -1.198917210319999960e+01 1.086953874761999970e+02
1.129614738599999946e+00 1.033081531280000043e+01 1.099671172042999956e+02
-2.541083485999999780e+00 -9.730211572600000025e+00 1.088569027559999967e+02
4.964734711000000078e-01 -3.297850866400000136e+00 1.117107420821999995e+02
-1.798957201499999936e+00 -8.000633209999999385e-02 1.095486990840999937e+02
-5.384188649000000160e-01 9.529283145000000399e-01 1.113618873154999989e+02
4.096808201800000049e+00 1.734422705100000073e+00 1.088101766973999958e+02
-1.338877686700000069e+00 1.664342782519999986e+01 1.087847561266000014e+02
3.170797460799999801e+00 3.253471145299999812e+00 1.092222199625999934e+02
-2.217150228599999995e+00 5.127039966599999943e+00 1.085420705127999952e+02
-7.805936170999999701e-01 1.433208081030000081e+01 1.093539726726999959e+02
4.439213173699999793e+00 1.823802755400000031e+00 1.085046239856999932e+02
3.447050645200000041e+00 1.151627389849999972e+01 1.069515737305000016e+02
-8.029152269999999536e-01 1.618414887269999980e+01 1.089777937716999929e+02
-1.256406535000000046e-01 1.095594974319999970e+01 1.099051938611000026e+02
-2.071821848799999977e+00 2.477961919999999818e+00 1.090450937149000055e+02
-2.508852437899999899e+00 8.844529312000000587e+00 1.076308309925999964e+02
4.700425771999999780e-01 -4.730643939999999714e-02 1.114714896465000038e+02
3.142461901299999916e+00 1.822410465409999958e+01 1.041220397441999950e+02
-1.025310106999999943e-01 8.330108912900000107e+00 1.103131081222999939e+02
-1.429946632000000106e-01 1.295653269369999983e+01 1.096252739690999931e+02
-2.095362616600000116e+00 8.350670412199999504e+00 1.078610931154999975e+02
3.199056769199999817e+00 1.556617251810000013e+01 1.053834283508000027e+02
1.772155585599999972e+00 8.330194596400000151e+00 1.102672497037000028e+02
-1.976816637300000012e+00 -3.355841314500000117e+00 1.095375620455999979e+02
1.157987562900000045e+00 -7.923370598600000037e+00 1.119147233026999970e+02
-2.702964214300000112e+00 -7.250932494499999770e+00 1.089629398833999971e+02
-1.281052270200000009e+00 1.692066372049999856e+01 1.047392108195000020e+02
-2.049910685000000121e-01 -1.111533618330000017e+01 1.096346663666000012e+02
5.115384378999999759e-01 9.580497225000000228e+00 1.101253302968000014e+02
1.706414485800000103e+00 -1.078609593250000032e+01 1.098892768297999964e+02
3.787891309099999937e+00 1.811561509539999903e+01 1.039136414949000056e+02
1.786874147800000090e+00 1.895803669149999848e+01 1.041327491909000003e+02
1.632321779099999981e+00 1.696542691040000150e+01 1.064302507905999988e+02
4.619473474300000326e+00 9.825271016200000318e+00 1.067455027745999985e+02
4.648613488000000182e-01 5.778206545999999832e-01 1.114134928064000007e+02
-1.436692141099999986e+00 8.288690714899999534e+00 1.101794576813999953e+02
-1.417612523699999905e+00 1.687040322380000035e+01 1.084403696262999972e+02
-1.519107137200000013e+00 6.408640153500000380e+00 1.103450940039000017e+02
3.691514946000000186e-01 5.854343836400000001e+00 1.106828842544999958e+02
-2.793189154899999860e+00 -1.437278830699999954e+00 1.089769529871000060e+02
-8.016550331999999779e-01 2.453413859599999913e+00 1.111260796480000010e+02
-1.706319426499999903e+00 -3.949715233400000081e+00 1.098371967300000023e+02
1.752378069499999969e+00 -4.047922590799999831e+00 1.117370997917000039e+02
-1.678100336800000036e+00 -5.986711734400000040e+00 1.103291245312999962e+02
-2.649042926699999967e+00 1.258241163699999943e+00 1.088639652587000057e+02
-1.370550959800000079e+00 1.553962001270000037e+01 1.090017554932999957e+02
-3.463243975400000174e+00 -7.195770076999999931e-01 1.084757519192999951e+02
1.129229101800000024e+00 1.704010424610000030e+01 1.085796458659000052e+02
-2.643729138999999950e+00 -7.878327463599999803e+00 1.089638844584000026e+02
-1.648012881699999932e+00 -7.786812075000000277e+00 1.097266541655999958e+02
1.783171769700000020e+00 7.079791561500000441e+00 1.104629072384999944e+02
1.167015896299999911e+00 -9.173321020699999551e+00 1.118681393885999995e+02
4.523025431000000096e-01 1.620782687299999836e+01 1.089847490190000059e+02
1.876191304100000012e+00 1.423838720040000005e+01 1.093222885713000068e+02
2.477577185799999970e+00 1.183995087000000002e+00 1.112134409723000061e+02
-1.573173514500000092e+00 1.103289865930000069e+01 1.078092382657000030e+02
2.943237602099999961e+00 1.161559587270000016e+01 1.096617800764000066e+02
1.925954691600000102e+00 4.954322430799999566e+00 1.106799051266000049e+02
4.506477984300000017e+00 -7.917308859600000304e+00 1.086704397569999969e+02
2.384394195300000074e+00 9.705789247900000305e+00 1.099710425948999983e+02
-7.507345304000000441e-01 1.692009431700000022e+01 1.058040533491000019e+02
-1.800153749799999980e+00 4.564327695000000018e-01 1.094782596082000055e+02
-7.907609209000000527e-01 1.545750108750000074e+01 1.091470819785999993e+02
-1.724512484399999934e+00 -6.798579592600000332e+00 1.120446227773000061e+02
-1.940000258900000052e+00 -2.730697981000000052e+00 1.095953184071999971e+02
-1.438091525000000093e-01 -1.422533800400000104e+00 1.115711203609999984e+02
3.738861700000000177e+00 -1.431727331100000056e+00 1.092291164483000045e+02
3.569011733999999936e-01 1.709652746060000084e+01 1.078345949129000019e+02
5.031622842999999845e-01 -1.034330245519999991e+01 1.114089823393999978e+02
-2.417324804000000049e-01 -1.037743996859999918e+01 1.111054127482999974e+02
2.866273172800000157e+00 -1.044239496810000034e+01 1.103054840920000004e+02
-1.629223804000000109e-01 1.785746705869999928e+01 1.049100852117999949e+02
4.853738263600000380e+00 1.095180534600000044e+01 1.062359914739000004e+02
-3.397616891699999808e+00 1.489990722089999942e+01 1.050042245746000020e+02
-3.395716973899999935e+00 -9.211385528099999220e+00 1.083765925186000061e+02
4.367920337000000264e-01 3.828738132999999877e+00 1.109745807519000067e+02
5.308350041999999602e-01 1.870833755539999999e+01 1.044000099514999960e+02
-2.779641469099999984e+00 -2.066066965700000146e+00 1.089939856891000005e+02
4.373517435300000145e+00 1.161283563459999968e+01 1.063580462773000050e+02
1.128674285700000057e+00 1.674331524360000145e+01 1.088214602214000024e+02
-3.163493517400000066e+00 1.196286133729999968e+01 1.062221017124000042e+02
-7.588940667000000362e-01 -2.672690901599999780e+00 1.116351525545999976e+02
-1.555604347400000087e+00 1.767166704439999947e+01 1.046878520009999960e+02
-1.458037573699999978e+00 -1.180707533810000065e+01 1.091505368698999945e+02
4.355618374599999676e+00 4.451301591800000068e+00 1.082342340513999943e+02
1.788511643199999890e+00 6.454628345699999770e+00 1.105402367294999948e+02
1.127735549000000059e+00 -4.048008760100000103e+00 1.117832181761999948e+02
-2.112076706000000081e-01 6.454549156599999726e+00 1.105826192733999989e+02
-2.870659582999999793e-01 7.030432288000000307e-01 1.112963745114000034e+02
3.286448414400000129e+00 8.362794069699999611e+00 1.079163879797000050e+02
-2.358762734199999933e+00 6.709247427200000224e+00 1.080720830481999997e+02
1.787527528600000082e+00 -8.548346908799999255e+00 1.118920196457000031e+02
1.094917594800000060e+00 -4.727320730000000165e-02 1.114537035951999968e+02
3.170474236600000051e+00 7.132143023400000281e+00 1.083868043396000047e+02
-1.816488217000000072e+00 -5.082355186300000049e+00 1.104830330460000027e+02
-2.546479495199999832e+00 1.074785597119999991e+01 1.069931292686000006e+02
5.500164087000000146e-01 -1.304362119950000043e+01 1.092906101550999978e+02
2.416437366699999867e+00 1.766062143390000116e+01 1.047139410508000026e+02
-1.825635073099999950e+00 -3.429177683599999860e+00 1.116245695002999980e+02
-3.369778048400000170e+00 5.722568407699999860e+00 1.077495997903999978e+02
2.898040161700000006e+00 1.490747125350000069e+01 1.089741275898999930e+02
3.405196604299999930e+00 1.296521278499999985e+00 1.092733258725999974e+02
4.498468801199999589e+00 -6.792379964000000214e+00 1.087265397793999995e+02
-8.556542221999999809e-01 -1.242625120249999959e+01 1.092493819835000011e+02
2.732025676300000150e+00 -2.969393999899999859e+00 1.096812965816999963e+02
2.368055916899999946e+00 1.158135145049999970e+01 1.097002221591999955e+02
5.371725773000000093e-01 1.728325068070000015e+01 1.078122097508999957e+02
-1.466053060599999958e+00 3.180636406000000083e+00 1.109519432766000051e+02
1.087154167100000013e+00 9.528102559000000138e-01 1.114250730527000002e+02
2.834582500799999849e+00 1.670798274299999875e+01 1.070895477042000010e+02
-2.026335149399999924e+00 1.804954758219999889e+01 1.043256601404000037e+02
-3.053092036299999812e+00 -4.206566910000000131e-02 1.086665940610999996e+02
-2.223150988100000003e+00 -5.943593917800000348e+00 1.092851939952000038e+02
-2.780851726599999907e+00 -2.694353165699999941e+00 1.090249834252999932e+02
2.481310086300000162e+00 1.727880849989999845e+01 1.082764957684999985e+02
-1.880548209300000106e+00 1.204761909810000020e+01 1.069261003260999985e+02
-2.445162049099999901e+00 1.662142255210000030e+01 1.048706191976000071e+02
4.406107559199999635e+00 2.474879604799999910e+00 1.084605741985999998e+02
-2.741620888399999956e+00 9.679498023000000728e+00 1.071801950958000020e+02
-3.417267324300000020e+00 8.358471489199999382e+00 1.071698577467000035e+02
3.419594565300000166e+00 7.606497540100000343e+00 1.081216176590999964e+02
-8.605128099000000086e-01 -9.211212001499999857e+00 1.117024489693999953e+02
5.397283159000000330e-01 1.806942876520000141e+01 1.047294673952000039e+02
-1.597476375100000068e+00 1.285939789160000046e+01 1.071997061964000011e+02
1.158447191400000076e+00 7.079724075899999747e+00 1.104990259759999986e+02
-1.534196010699999890e+00 9.017677777799999461e+00 1.097524554328000050e+02
4.235465529999999923e+00 5.584463646099999679e+00 1.081211516208000063e+02
4.456003404999999695e+00 5.732809456200000042e+00 1.078880007803000041e+02
5.377282584999999449e-01 -8.548402162800000426e+00 1.119215919601000024e+02
-3.415551736999999921e+00 -2.087521399099999897e+00 1.085494009218000002e+02
3.424090533199999786e+00 -7.706397320099999781e+00 1.095044790645000035e+02
-1.597527267000000029e+00 6.359486423999999971e+00 1.090190268324000016e+02
-1.518166632500000057e+00 1.098213805019999967e+01 1.096726015806000021e+02
-8.041926030999999586e-01 1.700177382009999860e+01 1.086658701775999987e+02
4.541200584000000262e-01 1.828161098999999901e+00 1.112513340889999967e+02
4.525998629999999912e-02 -1.229380517280000085e+01 1.094011035997999954e+02
-2.842724004899999990e+00 1.103676898910000048e+01 1.067222741095999936e+02
1.163802108799999901e+00 6.454557434799999882e+00 1.105781887356999960e+02
-1.640993749700000004e+00 5.636813753999999621e-01 1.096817072350000046e+02
-2.305095216999999863e+00 1.363448351159999916e+01 1.060823675804000032e+02
-3.405602664499999932e+00 1.818114834399999991e+00 1.083455397503000057e+02
-2.748869511200000115e+00 1.681867190890000074e+01 1.045242373500000070e+02
1.572002329999999892e+00 1.670820017699999838e+01 1.087929739894999983e+02
4.261040809000000151e-01 5.079066433000000380e+00 1.108189218051000040e+02
-7.805718004999999682e-01 -4.717610190000000314e-02 1.114017321338999977e+02
-2.166316534000000127e-01 7.079731523200000431e+00 1.104950401441000025e+02
-1.684443132600000004e+00 -3.299731449499999858e+00 1.110229960973999965e+02
-8.683535797000000445e-01 -5.331863830099999646e+00 1.117772756292999929e+02
-8.061036276999999917e-01 1.709266954319999954e+01 1.077388239679000037e+02
4.495936242099999980e+00 1.691118217360000031e+01 1.041090920629000038e+02
-8.471106018999999820e-01 -7.298277697099999628e+00 1.118750265231000043e+02
4.493926211099999790e+00 1.035437584059999949e+01 1.066939867152999994e+02
-2.078675269200000120e+00 3.134585280200000046e+00 1.089612471182000064e+02
-8.702172999999999714e-01 -1.030432239089999946e+01 1.109909062902000016e+02
-1.933304254999999916e+00 -1.546176314900000071e+00 1.094946896193000043e+02
1.811595984800000059e+00 3.828793276099999865e+00 1.109450677662999993e+02
-1.885349937099999984e+00 1.392883813739999965e+01 1.063905390168000054e+02
-2.984617959299999956e+00 -8.549454722700000175e+00 1.086799213263000041e+02
4.031035647100000396e+00 -1.116743059140000049e+01 1.086834628551000037e+02
-2.141695874099999841e+00 1.097296217939999963e+01 1.070920856319000052e+02
-1.681257817199999893e+00 -6.578230141199999714e+00 1.110068594457000017e+02
-1.557000590399999940e+00 5.821859226800000009e+00 1.096514717037999986e+02
-1.143857816499999958e+00 4.832164763999999835e-01 1.094542512367000029e+02
1.176091138699999927e+00 5.079075109699999757e+00 1.108142779541999943e+02
-7.851650872000000003e-01 5.362206317000000055e-01 1.113771562619999997e+02
-1.521401445199999980e+00 1.285177464679999915e+01 1.077925751539000032e+02
4.083083267000000016e-01 7.079749964100000348e+00 1.104851704800999954e+02
2.906292986299999992e+00 7.018372497599999704e+00 1.102520458816999991e+02
-2.426332160999999932e-01 -4.673021131199999623e+00 1.117798145444999989e+02
2.905462368399999828e+00 1.284412058590000072e+01 1.071549953248999998e+02
1.192426681799999999e+00 3.203513529999999943e+00 1.110847650681999994e+02
3.897691135000000084e+00 9.128718529100000367e+00 1.074000850551000070e+02
-1.533707570000000020e+00 1.225426111940000062e+01 1.089599064843999940e+02
-1.829688353599999928e+00 -5.099318762000000227e+00 1.109330120940999933e+02
-1.559611117700000049e+00 1.286121717790000041e+01 1.083926178324999938e+02
-3.437304805500000171e+00 1.194346561199999934e+00 1.083685617119000000e+02
1.777511870699999941e+00 7.705027643800000270e+00 1.103465791241000034e+02
-3.531644539300000218e+00 3.847933744100000109e+00 1.079776446847999978e+02
-7.776658491000000284e-01 1.751625701560000081e+01 1.050276150301999962e+02
4.841833054200000319e+00 1.283085311119999972e+01 1.056459939332000033e+02
-2.608453893300000104e+00 1.734245196790000065e+01 1.043776192057000003e+02
4.819719856999999941e-01 1.295654506230000003e+01 1.096186541903000062e+02
-3.384588152900000146e+00 -8.532400658500000290e+00 1.084477171598999945e+02
2.988707024700000048e+00 1.556164261690000039e+01 1.057975452648999948e+02
-2.618182378799999821e+00 1.864545099769999936e+01 1.036931539551000014e+02
4.271984147300000423e+00 -1.302869735500000070e+00 1.089267000962999958e+02
-3.427277150700000163e+00 -2.708232649300000183e+00 1.085670209395999990e+02
4.409615909400000255e+00 1.745264214810000070e+01 1.038799692309000022e+02
2.445202595900000109e+00 6.471252315700000146e+00 1.104801987957000051e+02
-2.740891064299999957e+00 -3.772662660000000029e-02 1.089029637848999954e+02
4.632395397599999853e+00 7.210472013599999563e+00 1.074246959844000031e+02
3.345098566999999967e-01 1.699647198370000112e+01 1.053338614136000047e+02
3.362481595299999793e+00 9.835575634499999609e+00 1.074113411536000058e+02
-1.814327893099999978e+00 -3.883763644400000103e+00 1.113804064106000027e+02
5.224886053999999724e-01 -6.548300629299999898e+00 1.118993296395999977e+02
3.772478646300000182e+00 5.707175356999999671e+00 1.082929068230999974e+02
4.420488927600000117e+00 -5.997341641600000273e+00 1.083032290337000063e+02
2.964041649399999923e+00 1.225622948450000038e+01 1.071507018969000029e+02
1.186848840599999955e+00 3.828730928500000186e+00 1.109784366007999949e+02
-3.410275089799999826e+00 -7.866682621699999878e+00 1.084762750877000030e+02
-1.551198441499999969e+00 5.124309606799999806e+00 1.097172587857999986e+02
1.767187337199999986e+00 -5.923136653600000301e+00 1.118215934713000053e+02
-1.557534086200000001e+00 3.131590548700000198e+00 1.103547086610000036e+02
-1.763154252999999949e-01 1.866335341310000118e+01 1.044193749198999939e+02
2.386982331100000021e+00 -5.297999370700000377e+00 1.117581434779000062e+02
4.504926624800000390e+00 1.230317754090000015e+01 1.060386012767000068e+02
-2.180905570999999987e-01 1.701334112420000011e+01 1.086914410209000010e+02
2.849659359799999958e+00 1.620810162280000100e+01 1.064801554727000052e+02
-1.477197065299999945e+00 7.711979693299999994e+00 1.102656039106999941e+02
-2.112091498199999862e+00 1.616909780849999834e+01 1.051752025974000020e+02
4.598787739999999902e-01 1.131594244900000046e+00 1.113141734881999980e+02
-2.740936495500000181e+00 1.163759213480000021e+01 1.065723420369999985e+02
-2.807725437899999843e+00 1.356654035210000053e+01 1.058863410910999932e+02
-2.900941505100000040e+00 1.887940326799999902e+00 1.085947434497000046e+02
-2.382764490100000021e+00 9.210501905999999295e+00 1.074407764501000031e+02
-3.424701520500000207e+00 -6.600139921500000284e+00 1.085158922348999937e+02
3.513610088999999936e-01 1.345697957410000001e+01 1.093941203420999955e+02
-3.528554719200000189e+00 1.684749263080000148e+01 1.040064623779999948e+02
-1.620667843099999894e+00 -9.260233597999999233e+00 1.096967546694999953e+02
1.736211162999999891e+00 -2.047609931399999805e+00 1.116018414599000010e+02
1.317938003999999941e-01 1.020552204680000052e+01 1.101220701985999995e+02
2.919489935600000141e+00 1.419907303169999935e+01 1.070981551958000040e+02
2.748214909900000169e+00 1.240390703589999966e+01 1.093565377971000032e+02
4.434030577699999753e+00 1.427216568889999948e+01 1.053495523240000011e+02
-2.113568512000000010e-01 -1.079482678029999931e+01 1.099719341250000042e+02
3.707981177000000184e+00 4.483013610599999588e+00 1.085715216784000035e+02
-1.453453013499999891e+00 1.810387004840000102e+01 1.044585026706999997e+02
4.195611891399999571e+00 1.220557849549999929e+01 1.062546050245999965e+02
-3.560270375500000029e+00 9.721348266399999716e+00 1.066788077796000067e+02
-1.323935887800000044e+00 4.954272687099999573e+00 1.107065282517000071e+02
3.198520895500000183e+00 4.567727384999999973e-01 1.092963059312999974e+02
-1.542412308500000107e+00 1.098356338369999996e+01 1.089942825492999958e+02
1.823438483399999921e+00 2.453412621600000065e+00 1.111267422388999933e+02
2.320252094599999815e+00 4.323419687000000233e-01 1.113670612643000055e+02
5.423235664000000122e-01 -1.179397485480000007e+01 1.094999383244999933e+02
2.825379623499999937e+00 1.670667238029999879e+01 1.084015760528999976e+02
1.799022453100000085e+00 -1.304338533630000008e+01 1.091643745861999975e+02
1.174712266800000071e+00 -1.304354717460000046e+01 1.092509915411999941e+02
-8.633262659999999533e-01 -1.308387724830000032e+01 1.091039021816999934e+02
-1.444475670199999895e+00 -1.307128793799999933e+01 1.089594370235000014e+02
-1.954170531099999941e+00 -1.304268697670000066e+01 1.087906078548000011e+02
-2.179208364299999978e+00 -1.307094841630000026e+01 1.086972521531999973e+02
-2.751697254299999784e+00 -1.308021425119999925e+01 1.083971607798000036e+02
-1.668896625299999936e+00 -6.758202480000000123e-02 1.097194688900000017e+02
-2.852984265199999925e+00 5.834401574900000220e+00 1.079755475749000055e+02
1.845489367000000103e+00 -1.244359102039999954e+01 1.092840818277000068e+02
1.171571124800000030e+00 -1.254367406349999925e+01 1.093269230843000059e+02
5.460653638000000365e-01 -1.241877420540000010e+01 1.093825246897999932e+02
5.463423090000000260e-01 -1.241883726300000035e+01 1.094162734985000043e+02
-1.465464268799999914e+00 -1.244860194149999977e+01 1.090424270591000067e+02
-1.986656340799999976e+00 -1.241346158500000030e+01 1.089096474897999940e+02
-2.261086710099999841e+00 -1.250223183920000025e+01 1.087159436550000038e+02
-3.214055351899999913e+00 -1.241649847380000082e+01 1.081645377589999981e+02
4.768716362300000178e+00 -1.225114774919999938e+01 1.081879224890000017e+02
1.545455657900000057e+00 -1.229383826539999980e+01 1.094188149447000029e+02
1.170505209299999905e+00 -1.229385241269999973e+01 1.094263866849999971e+02
3.910403241000000030e+00 -1.179237338429999937e+01 1.086428205130000038e+02
2.415487990199999935e+00 -1.179354258849999937e+01 1.092685864536999958e+02
1.875265720000000025e+00 -1.187706858509999996e+01 1.093703645012000010e+02
-2.078891504000000001e-01 -1.179393215139999995e+01 1.094770831462000018e+02
-2.077728004099999914e+00 -1.176257460100000074e+01 1.089182008931000070e+02
-2.720582844800000011e+00 -1.176073540470000012e+01 1.085675960810000049e+02
1.749032266499999988e+00 1.095603854069999983e+01 1.098576688346000054e+02
-7.094104824000000420e-01 -1.166880010350000063e+01 1.094084151360000021e+02
3.266927085499999883e+00 9.047639591099999379e+00 1.077931512533999978e+02
1.152100947699999933e+00 1.859585822829999913e+01 1.044274423436999939e+02
2.537711899800000115e+00 -1.129375164080000005e+01 1.093884924420000004e+02
1.787593967699999897e+00 -1.116894104230000018e+01 1.094918663636999980e+02
5.142010983999999452e-01 -1.112283461610000046e+01 1.096546612224999961e+02
-8.228323215999999718e-01 -1.112414190800000036e+01 1.095137040753999997e+02
-1.481390137400000029e+00 -1.115750609140000016e+01 1.092582145878999995e+02
-2.149715103300000152e+00 -1.114463857369999999e+01 1.089839803752000051e+02
-2.793559336800000015e+00 -1.118725445289999954e+01 1.085935663321999982e+02
-2.469389247400000098e+00 -1.104259403030000009e+01 1.087729413821000009e+02
4.028562858099999922e+00 -1.079249913379999981e+01 1.087261620154000070e+02
-8.040853063999999772e-01 -1.075284776410000021e+01 1.098967112933000010e+02
-1.683316253299999898e+00 -1.056178953550000088e+01 1.092926435891999972e+02
-2.055992930199999957e+00 -1.052789367089999928e+01 1.090857742478000034e+02
-2.480690719000000044e+00 -1.052390502179999920e+01 1.088935591879999976e+02
-2.838901656600000045e+00 -1.051435504560000034e+01 1.086249069537999929e+02
-3.318120083999999803e+00 -1.050997017519999943e+01 1.083088717078999963e+02
2.840320751300000168e+00 -1.037496959829999987e+01 1.110779365153999976e+02
1.731687291899999925e+00 -1.038009269750000030e+01 1.114038872809999958e+02
3.275448639499999981e+00 -9.793479976800000486e+00 1.092671553803999984e+02
2.897214367100000132e+00 -9.770983883899999611e+00 1.115274848138000010e+02
-2.112119499999999928e+00 -9.851094469499999562e+00 1.091162529023000047e+02
-2.892369471199999875e+00 -9.837444642699999520e+00 1.086501337470999999e+02
-3.366523139599999936e+00 -9.834814994100000263e+00 1.083506582992000062e+02
-1.236685968600000018e+00 -9.700589345099999150e+00 1.114166554470999984e+02
3.271548880700000161e+00 -9.168644660100000010e+00 1.093653196945000019e+02
2.423727316099999918e+00 -9.137346397099999962e+00 1.118195869038000012e+02
1.792003059700000067e+00 -9.173313322900000344e+00 1.118640195214999977e+02
5.421313052999999771e-01 -9.173352073000000217e+00 1.118847588144000014e+02
-2.082373214000000083e-01 -9.173273870499999205e+00 1.118429043067999942e+02
-2.097102237100000099e+00 -9.205424697599999817e+00 1.091674438148999968e+02
-2.573291301299999834e+00 -9.210338581300000271e+00 1.088989256941000008e+02
-2.989486211700000062e+00 -9.248387417500000041e+00 1.086540535520999953e+02
1.162906890099999924e+00 -8.548438060500000546e+00 1.119408046028000001e+02
-8.728070689000000382e-01 -8.589300401699999199e+00 1.117830340343000017e+02
-2.614865583899999901e+00 -8.550582095899999402e+00 1.089320068035000020e+02
-3.400534841199999825e+00 1.295042912559999948e+01 1.057380139875999987e+02
1.782865999700000037e+00 -7.923338144999999777e+00 1.118973539034000027e+02
5.331501550999999672e-01 -7.923412394099999645e+00 1.119370925255000060e+02
-2.172841177000000012e-01 -7.923319244600000033e+00 1.118872383002999982e+02
-8.425359176000000172e-01 -7.923266687399999952e+00 1.118591093057000023e+02
-3.019802486000000119e+00 -7.889236022000000403e+00 1.087014650957000015e+02
2.401486835500000083e+00 -7.272037964299999935e+00 1.118339560432000042e+02
1.777854357400000085e+00 -7.298249664000000081e+00 1.118600230004000053e+02
5.283012608999999582e-01 -7.298360969099999984e+00 1.119195942558000070e+02
-1.549376933900000086e+00 -7.248158877299999858e+00 1.116743548566000044e+02
-2.162309710999999801e+00 -7.232159295299999791e+00 1.092670924466000031e+02
-2.997903682700000072e+00 -7.292421116699999928e+00 1.087405452113000024e+02
2.396714310300000150e+00 -6.548110005599999894e+00 1.117973065368999954e+02
1.772271463799999891e+00 -6.548241638600000414e+00 1.118677573957999982e+02
1.147519532900000083e+00 -6.548302896200000056e+00 1.119005429176000064e+02
-2.278143750000000134e-01 -6.548237373800000150e+00 1.118654748496000053e+02
-1.519395413100000036e+00 -6.565405679600000433e+00 1.117132285855000049e+02
-2.186821312000000184e+00 -6.539834906800000347e+00 1.092792054699999937e+02
-2.747099648699999896e+00 -6.532536515200000338e+00 1.089694179309999953e+02
-2.773880753999999893e+00 -7.851895598999999448e-01 1.089538250906999934e+02
2.387964000499999795e+00 -5.981458246599999917e+00 1.118209980743999949e+02
1.142056572700000050e+00 -5.923111654899999579e+00 1.118082139561000048e+02
5.174509781999999669e-01 -5.923206231800000054e+00 1.118588321816999951e+02
-2.327412241000000048e-01 -5.923168199300000047e+00 1.118384769152000047e+02
-8.579991783000000538e-01 -5.923114240800000374e+00 1.118095979471000021e+02
-2.792127205899999964e+00 -5.950517170700000413e+00 1.089722129814000056e+02
-3.422605407399999855e+00 -5.985118447599999669e+00 1.085416028782999973e+02
1.762464264999999974e+00 -5.298113876999999583e+00 1.118194279937000033e+02
-2.375942212000000109e-01 -5.298115840100000362e+00 1.118204786632000065e+02
-1.550839977299999894e+00 -5.297529751199999914e+00 1.116866573716000062e+02
2.590961049300000152e+00 5.121091527699999979e+00 1.106277570286000014e+02
-2.133101621899999856e+00 -5.293460843900000157e+00 1.093290933118999959e+02
-3.428622808600000127e+00 -5.310594170099999900e+00 1.085532008431000008e+02
1.757516901400000053e+00 -4.673040031600000255e+00 1.117899301475000016e+02
1.132437423000000054e+00 -4.673026710100000258e+00 1.117828004116999949e+02
5.075343689000000325e-01 -4.673053558600000379e+00 1.117971699169000033e+02
-8.679814338000000351e-01 -4.672946620600000323e+00 1.117399359646999955e+02
-1.551946724800000066e+00 -4.614124809699999830e+00 1.116975978039999973e+02
-2.137670151900000093e+00 -4.668473254900000313e+00 1.093457605029000064e+02
-2.761793157300000079e+00 -4.654928601299999968e+00 1.090508736217000063e+02
-3.441633367300000135e+00 -4.631090892099999579e+00 1.085741180232000005e+02
4.411022459899999859e+00 -4.003224508499999779e+00 1.088944498192999930e+02
2.501841324799999988e+00 -4.047794649700000136e+00 1.116686248605000031e+02
-2.167073071299999931e+00 -4.093439355400000146e+00 1.093368399751999931e+02
-2.775426423299999890e+00 -3.996322504000000109e+00 1.090243073386999981e+02
-3.440471270200000209e+00 -4.007732121900000166e+00 1.085692171255000034e+02
-1.993143453999999926e+00 -3.939877104099999805e+00 1.095213216764000066e+02
2.512476783299999905e+00 -3.289455018600000002e+00 1.116169093503999932e+02
1.746349328400000012e+00 -3.297813050599999851e+00 1.116905027716999967e+02
1.121567309600000062e+00 -3.297867457600000218e+00 1.117196217561999987e+02
-7.539439677999999478e-01 -3.297765369800000013e+00 1.116649837223999953e+02
-1.455832970099999901e+00 -3.294033306499999814e+00 1.116051376371000003e+02
-2.211171295999999842e+00 -3.230889907299999919e+00 1.093242091572000021e+02
-3.445843013699999791e+00 -3.309823658600000051e+00 1.085611981640000039e+02
4.419669317500000361e+00 -2.702453815400000181e+00 1.088833734074000006e+02
2.510195748400000149e+00 -2.664354113799999979e+00 1.115767891614000007e+02
1.741058689599999987e+00 -2.672661044999999902e+00 1.116191730688999968e+02
1.116691062799999967e+00 -2.672809804699999958e+00 1.116987902709000053e+02
4.915274750999999998e-01 -2.672777332399999928e+00 1.116814108968000028e+02
-1.336976558999999898e-01 -2.672730847299999990e+00 1.116565317875000005e+02
-1.469455626400000048e+00 -2.676704222000000133e+00 1.115970079920000018e+02
-2.152807232799999859e+00 -2.668395075999999921e+00 1.093359977411000017e+02
-3.118865164699999859e+00 4.355083758800000204e+00 1.082664890790999976e+02
4.357340833100000310e+00 -2.021532254999999889e+00 1.089089576106999999e+02
2.485586889999999993e+00 -2.047462061000000055e+00 1.115227002385999953e+02
4.864474514000000083e-01 -2.047673281699999848e+00 1.116357469546999965e+02
-1.387010924000000034e-01 -2.047644234699999899e+00 1.116202008492000033e+02
-7.640192221999999589e-01 -2.047576574799999882e+00 1.115839888066000043e+02
-1.376703028699999942e+00 -2.031227513500000192e+00 1.115236918307000025e+02
-1.957655284599999934e+00 -2.182424871199999838e+00 1.095043503630000004e+02
-1.400019834400000107e+00 -7.971818604999999502e-01 1.113927844603999944e+02
4.317038041999999853e-01 4.453844052100000006e+00 1.109279168451000004e+02
-1.543772299200000031e+00 -9.212635332499999663e+00 1.109363470413999977e+02
4.458048686399999738e+00 -1.417229237299999944e+00 1.087320824853999994e+02
2.480271633800000153e+00 -1.422304450299999967e+00 1.114483706416999951e+02
1.731166697599999971e+00 -1.422513976899999921e+00 1.115605106981000034e+02
4.812580171999999989e-01 -1.422544319300000026e+00 1.115767501498000058e+02
-8.178976867999999678e-01 -1.410069754200000025e+00 1.115453143273000052e+02
-1.425449399799999961e+00 -1.464202407799999994e+00 1.114911408889999933e+02
-2.105091705400000013e+00 -1.463366241399999934e+00 1.092728864391000059e+02
3.517611720500000150e+00 -1.280254510780000032e+01 1.088657064200999969e+02
-1.683895152000000062e+00 -1.423936847700000063e+00 1.097240722824000017e+02
4.590349525999999791e+00 -7.594445146999999618e-01 1.086279674727999947e+02
4.252801108599999935e+00 -7.280159232999999785e-01 1.088940477997000045e+02
3.710544155900000085e+00 -7.583844598000000214e-01 1.092010932409999953e+02
3.054541143399999825e+00 -7.941298769000000313e-01 1.113651689088000012e+02
2.404212343799999818e+00 -8.329573834000000288e-01 1.114249862318000055e+02
1.725862382499999903e+00 -7.973588573000000013e-01 1.114875143873999974e+02
4.761779935000000075e-01 -7.974402685000000490e-01 1.115310862076999996e+02
-7.742832095999999664e-01 -7.973448073000000136e-01 1.114799947027999991e+02
-1.559021896700000021e+00 -7.867769131999999832e-01 1.097232223403999996e+02
2.723668276799999788e+00 -6.720621660000000164e-01 1.113307281244999984e+02
-3.047875249500000105e+00 -6.672008593999999571e-01 1.087289240817000007e+02
4.570913286299999712e+00 -4.668916669999999963e-02 1.085896283544999932e+02
4.222263374899999810e+00 -6.618100949999999871e-02 1.088663762633999994e+02
3.729473979399999806e+00 -4.499623900000000037e-02 1.091296853472999970e+02
2.618450100600000052e+00 2.988367200000000088e-03 1.113145091006000058e+02
1.720226011999999916e+00 -8.893514789999999726e-02 1.114505058437000002e+02
1.718220116399999942e+00 3.631105009999999883e-02 1.113207439801000049e+02
-1.279978244700000101e+00 -1.721045448000000089e-01 1.113614293440000012e+02
-1.580458839400000093e+00 -2.118768550000000098e-02 1.111529504142999940e+02
-2.231021697700000139e+00 -5.172423980000000199e-02 1.091825391136000007e+02
3.713488467699999962e+00 5.903229075000000492e-01 1.091083453943000023e+02
2.525359656200000025e+00 6.406869147000000542e-01 1.112184704274000069e+02
1.880621586800000022e+00 6.196343543000000231e-01 1.113354680509000048e+02
1.548499976800000066e+00 5.361629265999999783e-01 1.114080404585999986e+02
1.089737734100000077e+00 5.778535753000000330e-01 1.113958734157999970e+02
-1.180449305000000060e-01 5.361224700000000176e-01 1.114296930608999929e+02
-1.542361473900000002e+00 5.705735849999999942e-01 1.111306359315999970e+02
-2.154704839299999897e+00 6.039076236999999514e-01 1.091799442041999981e+02
-2.974696424099999792e+00 6.246031096999999921e-01 1.086761566864000059e+02
-3.458776405200000070e+00 5.900506923999999653e-01 1.084070258083999931e+02
3.718088251999999816e+00 1.174811293000000090e+00 1.090199383309000041e+02
1.740016591200000073e+00 1.234362907399999987e+00 1.112676030988999969e+02
-1.657241701999999928e-01 1.203035026400000040e+00 1.113087842942999970e+02
-8.226833113999999503e-01 1.234388845900000087e+00 1.112537206399999974e+02
-1.450825652500000063e+00 1.183061776900000028e+00 1.111491081763000039e+02
-2.106174748399999963e+00 1.206474740300000015e+00 1.091405406489000001e+02
1.083315115500000037e+00 1.328052797300000032e+00 1.113012780900999985e+02
4.579755215999999907e-01 1.452914820900000015e+00 1.113771289808999967e+02
3.738705002100000119e+00 1.860984510400000014e+00 1.089489283975999996e+02
1.204066087199999968e+00 1.828179117599999959e+00 1.112416904144999990e+02
-1.707563269000000050e-01 1.828128178300000073e+00 1.112689534794999986e+02
-1.508723579199999998e+00 1.819468000100000094e+00 1.110045276972000039e+02
-2.049689546499999793e+00 1.806948115800000032e+00 1.091402986245000051e+02
-1.549930164899999907e+00 1.489358524180000032e+01 1.065294844504000054e+02
3.623952209200000052e+00 2.485440920099999840e+00 1.089253722466999932e+02
3.181825554700000058e+00 2.477909397699999960e+00 1.092894769754999942e+02
2.448564741499999808e+00 2.487803142200000206e+00 1.110552061018999979e+02
1.198748095800000080e+00 2.453337351100000063e+00 1.111670274960000029e+02
4.489429328999999802e-01 2.453287258800000092e+00 1.111938372312000070e+02
-1.476401378000000042e+00 2.433998244300000113e+00 1.110361320629999966e+02
-2.880512357799999812e+00 2.455402218300000161e+00 1.085821943282000035e+02
4.433559622499999797e+00 3.212650079499999922e+00 1.083269635487999949e+02
3.874566895600000116e+00 3.254335279499999789e+00 1.086682730799000041e+02
3.558173064300000021e+00 3.152301136500000212e+00 1.088652130830000004e+02
2.486164904799999853e+00 3.194436472700000085e+00 1.109694594072999934e+02
4.424163743999999787e-01 3.203510146899999800e+00 1.110865756860000033e+02
-1.826829346999999937e-01 3.203527983599999907e+00 1.110770293686999963e+02
-2.841300083200000159e+00 3.184695089999999951e+00 1.085163290291999942e+02
-3.337618827900000085e+00 3.157518415499999787e+00 1.082351172608999974e+02
-2.328830706599999800e+00 3.457905828699999962e+00 1.087379870899000025e+02
4.328164120600000331e+00 3.798730321399999887e+00 1.083528757020999933e+02
3.786510930699999999e+00 3.870772276199999862e+00 1.086299457127999943e+02
2.435912325499999920e+00 3.828953713100000211e+00 1.108592007848999970e+02
-1.882259012999999981e-01 3.828737441599999958e+00 1.109749507514000015e+02
-1.439587005199999936e+00 3.829037800900000121e+00 1.108141964507999973e+02
-2.332398967400000078e+00 3.833086713800000211e+00 1.086471909625000052e+02
-2.756515154200000151e+00 3.866471391600000196e+00 1.084581543235999987e+02
-2.101461457600000138e+00 5.706733231700000353e+00 1.084670461351999933e+02
-1.656670823999999986e-01 1.545748449639999933e+01 1.091559616525999985e+02
4.657504097900000417e+00 4.459386542199999859e+00 1.079615388052999947e+02
3.415931655800000133e+00 4.207879172400000201e+00 1.087642833821000039e+02
3.090874050400000073e+00 4.435322317999999875e+00 1.091554471651000000e+02
1.806077635499999889e+00 4.453997129000000221e+00 1.108459890430000030e+02
1.181369468800000044e+00 4.453925906700000326e+00 1.108841077098999932e+02
-8.189215144999999474e-01 4.453976880699999974e+00 1.108568260461999984e+02
-1.559214287299999890e+00 4.473474104600000167e+00 1.104287698132000060e+02
-1.880404145800000038e+00 4.474384466800000126e+00 1.088648491004999954e+02
-2.241806345100000097e+00 4.470614293999999767e+00 1.085963066037000004e+02
-3.464722600500000027e+00 4.467057994400000176e+00 1.079038243518999991e+02
