-5.168490111099999673e+00 6.059896841519999811e+01 2.869021276930000042e+01
-5.170421803400000016e+00 6.047167438950000218e+01 2.939135830289999873e+01
-5.172363848099999828e+00 6.034545757010000244e+01 3.009267427380000015e+01
-5.174318072400000190e+00 6.022050809369999769e+01 3.079419076559999979e+01
-5.176286303600000416e+00 6.009701609750000273e+01 3.149593786209999990e+01
-5.178270368999999818e+00 5.997517171839999861e+01 3.219794564699999739e+01
-4.371118910999999940e+00 6.449540661829999522e+01 3.342547315800000085e+00
-4.373896474800000433e+00 6.445612923369999692e+01 4.057618974500000419e+00
-4.376618608700000301e+00 6.441108412479999856e+01 4.771778055200000423e+00
-4.379287139999999745e+00 6.436046142850000251e+01 5.485054641599999670e+00
-4.381903895899999846e+00 6.430445128179999870e+01 6.197478817600000411e+00
-4.384470703799999924e+00 6.424324382160000368e+01 6.909080666800000436e+00
-4.386989391000000182e+00 6.417702918499999498e+01 7.619890273100000222e+00
-4.389461784599999916e+00 6.410599750880000158e+01 8.329937720100000220e+00
-4.391889712100000231e+00 6.403033892999999921e+01 9.039253091599999124e+00
-4.394275000700000433e+00 6.395024358559999911e+01 9.747866471500000074e+00
-4.396619477599999826e+00 6.386590161249999653e+01 1.045580794329999996e+01
-4.398924970200000395e+00 6.377750314779999741e+01 1.116310759099999927e+01
-4.401193305799999678e+00 6.368523832830000231e+01 1.186979549830000025e+01
-4.403426311599999643e+00 6.358929729100000117e+01 1.257590174879999978e+01
-4.405625814899999604e+00 6.348987017289999812e+01 1.328145642640000013e+01
-4.407793642999999761e+00 6.338714711099999732e+01 1.398648961479999997e+01
-4.409931623100000309e+00 6.328131824209999934e+01 1.469103139779999978e+01
-4.412041582699999687e+00 6.317257370330000299e+01 1.539511185910000002e+01
-4.414125348899999857e+00 6.306110363150000353e+01 1.609876108250000115e+01
-4.416184749000000132e+00 6.294709816369999800e+01 1.680200915180000010e+01
-4.418221610399999832e+00 6.283074743689999764e+01 1.750488615060000086e+01
-4.420237760200000032e+00 6.271224158790000303e+01 1.820742216280000036e+01
-4.422235025900000061e+00 6.259177075379999877e+01 1.890964727209999907e+01
-4.424215234600000102e+00 6.246952507150000145e+01 1.961159156220000099e+01
-4.426180213700000365e+00 6.234569467800000098e+01 2.031328511699999950e+01
-4.428131790400000156e+00 6.222046971019999972e+01 2.101475802010000038e+01
-4.430071792099999684e+00 6.209404030510000183e+01 2.171604035540000055e+01
-4.432002045900000020e+00 6.196659659969999723e+01 2.241716220649999869e+01
-4.433924379299999607e+00 6.183832873090000248e+01 2.311815365720000059e+01
-4.435840619400000406e+00 6.170942683559999864e+01 2.381904479139999964e+01
-4.437752593599999962e+00 6.158008105089999873e+01 2.451986569270000160e+01
-4.439662129100000243e+00 6.145048151369999800e+01 2.522064644479999984e+01
-4.441571053299999683e+00 6.132081836089999882e+01 2.592141713170000017e+01
-4.443481193400000251e+00 6.119128172960000001e+01 2.662220783689999948e+01
-4.445394376700000372e+00 6.106206175660000213e+01 2.732304864429999824e+01
-4.447312430500000247e+00 6.093334857890000222e+01 2.802396963769999871e+01
-4.449237182000000068e+00 6.080533233359999912e+01 2.872500090069999956e+01
-4.451170458600000046e+00 6.067820315739999870e+01 2.942617251709999948e+01
-4.453114087500000373e+00 6.055215118750000158e+01 3.012751457070000072e+01
-4.455069896100000371e+00 6.042736656080000301e+01 3.082905714520000018e+01
-4.457039711600000231e+00 6.030403941419999825e+01 3.153083032449999834e+01
-4.459025361200000148e+00 6.018235988469999853e+01 3.223286419219999743e+01
-3.651521999399999885e+00 6.466597764310000684e+01 3.371672241899999811e+00
-3.654301147500000013e+00 6.462686510810000584e+01 4.086769983299999964e+00
-3.657024865599999952e+00 6.458198484870000300e+01 4.800955146799999795e+00
-3.659694981099999911e+00 6.453152700200000425e+01 5.514257815999999757e+00
-3.662313321400000099e+00 6.447568170489999773e+01 6.226708074700000317e+00
-3.664881713499999805e+00 6.441463909430000001e+01 6.938336006600000161e+00
-3.667401984900000134e+00 6.434858930720000103e+01 7.649171695599999765e+00
-3.669875962899999955e+00 6.427772248060000493e+01 8.359245225400000479e+00
-3.672305474599999897e+00 6.420222875139999985e+01 9.068586679699999209e+00
-3.674692347400000170e+00 6.412229825660000415e+01 9.777226142299999978e+00
-3.677038408600000086e+00 6.403812113319999355e+01 1.048519369689999969e+01
-3.679345485499999846e+00 6.394988751799999704e+01 1.119251942730000060e+01
-3.681615405300000088e+00 6.385778754809999924e+01 1.189923341729999962e+01
-3.683849995400000132e+00 6.376201136040000250e+01 1.260536575060000075e+01
-3.686051082900000164e+00 6.366274909189999676e+01 1.331094651099999915e+01
-3.688220495299999957e+00 6.356019087949999857e+01 1.401600578210000059e+01
-3.690360059700000139e+00 6.345452686029999967e+01 1.472057364790000022e+01
-3.692471603500000032e+00 6.334594717110000062e+01 1.542468019190000028e+01
-3.694556953999999838e+00 6.323464194889999845e+01 1.612835549809999947e+01
-3.696617938400000192e+00 6.312080133069999732e+01 1.683162965009999823e+01
-3.698656383999999964e+00 6.300461545339999958e+01 1.753453273170000060e+01
-3.700674118099999799e+00 6.288627445400000227e+01 1.823709482659999992e+01
-3.702672968099999906e+00 6.276596846950000241e+01 1.893934601859999844e+01
-3.704654761000000018e+00 6.264388763680000238e+01 1.964131639149999842e+01
-3.706621324399999917e+00 6.252022209279999743e+01 2.034303602900000030e+01
-3.708574485399999787e+00 6.239516197460000058e+01 2.104453501489999923e+01
-3.710516071299999830e+00 6.226889741909999998e+01 2.174584343289999921e+01
-3.712447909399999801e+00 6.214161856329999978e+01 2.244699136679999896e+01
-3.714371826999999904e+00 6.201351554410000233e+01 2.314800890029999891e+01
-3.716289651399999894e+00 6.188477849840000289e+01 2.384892611720000133e+01
-3.718203209899999973e+00 6.175559756330000027e+01 2.454977310119999956e+01
-3.720114329699999889e+00 6.162616287560000217e+01 2.525057993609999940e+01
-3.722024838099999844e+00 6.149666457250000207e+01 2.595137670569999955e+01
-3.723936562500000047e+00 6.136729279069999876e+01 2.665219349370000046e+01
-3.725851329999999795e+00 6.123823766729999818e+01 2.735306038390000083e+01
-3.727770968100000193e+00 6.110968933920000268e+01 2.805400745989999933e+01
-3.729697303900000094e+00 6.098183794349999687e+01 2.875506480569999823e+01
-3.731632164700000143e+00 6.085487361690000085e+01 2.945626250489999975e+01
-3.733577377900000105e+00 6.072898649660000103e+01 3.015763064120000081e+01
-3.735534770800000182e+00 6.060436671949999976e+01 3.085919929849999832e+01
-3.737506170500000113e+00 6.048120442249999940e+01 3.156099856049999985e+01
-3.739493404400000109e+00 6.035968974250000230e+01 3.226305851090000232e+01
-2.931639309399999949e+00 6.480681216940000411e+01 3.396092214599999881e+00
-2.934420041700000148e+00 6.476786448400000040e+01 4.111216038800000305e+00
-2.937145344100000166e+00 6.472314907419999486e+01 4.825427284999999955e+00
-2.939817043900000204e+00 6.467285607709999340e+01 5.538756036899999735e+00
-2.942436968400000019e+00 6.461717562959999839e+01 6.251232378300000114e+00
-2.945006944799999804e+00 6.455629786859999797e+01 6.962886393099999793e+00
-2.947528800500000212e+00 6.449041293109999629e+01 7.673748164800000104e+00
-2.950004362700000105e+00 6.441971095409999748e+01 8.383847777299999748e+00
-2.952435458700000126e+00 6.434438207450000391e+01 9.093215314400000082e+00
-2.954823915800000034e+00 6.426461642930000551e+01 9.801880859700000670e+00
-2.957171561200000021e+00 6.418060415540000463e+01 1.050987449710000021e+01
-2.959480222399999860e+00 6.409253538980000542e+01 1.121722631029999917e+01
-2.961751726500000181e+00 6.400060026949999781e+01 1.192396638299999978e+01
-2.963987900799999853e+00 6.390498893139999836e+01 1.263012479900000073e+01
-2.966190572599999964e+00 6.380589151249999702e+01 1.333573164210000073e+01
-2.968361569199999828e+00 6.370349814970000324e+01 1.404081699610000022e+01
-2.970502717900000089e+00 6.359799897999999985e+01 1.474541094449999967e+01
-2.972615846000000062e+00 6.348958414039999809e+01 1.544954357139999956e+01
-2.974702780699999938e+00 6.337844376780000033e+01 1.615324496030000034e+01
-2.976765349399999927e+00 6.326476799919999650e+01 1.685654519499999893e+01
-2.978805379299999778e+00 6.314874697150000316e+01 1.755947435930000111e+01
-2.980824697700000137e+00 6.303057082170000314e+01 1.826206253699999849e+01
-2.982825131799999863e+00 6.291042968669999880e+01 1.896433981179999861e+01
-2.984808509100000062e+00 6.278851370360000317e+01 1.966633626739999841e+01
-2.986776656700000032e+00 6.266501300929999729e+01 2.036808198769999834e+01
-2.988731401899999973e+00 6.254011774069999774e+01 2.106960705630000064e+01
-2.990674572100000095e+00 6.241401803469999976e+01 2.177094155709999868e+01
-2.992607994500000146e+00 6.228690402849999685e+01 2.247211557369999824e+01
-2.994533496399999883e+00 6.215896585880000202e+01 2.317315918990000156e+01
-2.996452904999999944e+00 6.203039366280000166e+01 2.387410248959999848e+01
-2.998368047800000102e+00 6.190137757720000167e+01 2.457497555639999831e+01
-3.000280751800000090e+00 6.177210773920000264e+01 2.527580847400000152e+01
-3.002192844500000124e+00 6.164277428559999805e+01 2.597663132639999972e+01
-3.004106153199999962e+00 6.151356735339999915e+01 2.667747419710000045e+01
-3.006022504999999789e+00 6.138467707960000297e+01 2.737836717000000064e+01
-3.007943727299999814e+00 6.125629360109999766e+01 2.807934032880000075e+01
-3.009871647399999794e+00 6.112860705490000157e+01 2.878042375729999947e+01
-3.011808092499999923e+00 6.100180757799999753e+01 2.948164753929999904e+01
-3.013754889899999956e+00 6.087608530730000211e+01 3.018304175840000170e+01
-3.015713867000000104e+00 6.075163037970000346e+01 3.088463649839999903e+01
-3.017686851000000114e+00 6.062863293230000039e+01 3.158646184310000038e+01
-3.019675669200000190e+00 6.050728310190000059e+01 3.228854787630000089e+01
-2.211472011600000176e+00 6.491803200729999901e+01 3.415826506899999782e+00
-2.214254328200000010e+00 6.487924917150000681e+01 4.130976413800000024e+00
-2.216981214900000108e+00 6.483469861140000035e+01 4.845213742700000381e+00
-2.219654498900000217e+00 6.478457046379999440e+01 5.558568577399999988e+00
-2.222276007700000111e+00 6.472905486589999668e+01 6.271071001600000194e+00
-2.224847568399999975e+00 6.466834195449999356e+01 6.982751099099999692e+00
-2.227371008300000010e+00 6.460262186660000339e+01 7.693638953499999822e+00
-2.229848154699999974e+00 6.453208473910000009e+01 8.403764648799999293e+00
-2.232280835000000074e+00 6.445692070910000382e+01 9.113158268599999445e+00
-2.234670876400000061e+00 6.437731991350000271e+01 9.821849896699999860e+00
-2.237020106100000127e+00 6.429347248919999913e+01 1.052986961679999922e+01
-2.239330351500000038e+00 6.420556857319999722e+01 1.123724751279999978e+01
-2.241603439799999986e+00 6.411379830250000111e+01 1.194401366820000021e+01
-2.243841198400000181e+00 6.401835181389999718e+01 1.265019816699999922e+01
-2.246045454499999927e+00 6.391941924460000024e+01 1.335583109290000081e+01
-2.248218035399999870e+00 6.381719073139999665e+01 1.406094252950000012e+01
-2.250360768400000211e+00 6.371185641129999766e+01 1.476556256079999940e+01
-2.252475480699999810e+00 6.360360642130000031e+01 1.546972127039999911e+01
-2.254563999700000210e+00 6.349263089829999984e+01 1.617344874200000149e+01
-2.256628152599999826e+00 6.337911997919999862e+01 1.687677505950000167e+01
-2.258669766800000200e+00 6.326326380110000258e+01 1.757973030659999836e+01
-2.260690669400000186e+00 6.314525250089999986e+01 1.828234456699999910e+01
-2.262692687899999999e+00 6.302527621560000171e+01 1.898464792449999905e+01
-2.264677649399999826e+00 6.290352508210000337e+01 1.968667046290000044e+01
-2.266647381199999867e+00 6.278018923730000012e+01 2.038844226590000019e+01
-2.268603710799999895e+00 6.265545881829999786e+01 2.108999341730000054e+01
-2.270548465200000088e+00 6.252952396189999718e+01 2.179135400079999840e+01
-2.272483471800000210e+00 6.240257480529999867e+01 2.249255410019999957e+01
-2.274410558000000027e+00 6.227480148520000114e+01 2.319362379920000095e+01
-2.276331550900000167e+00 6.214639413870000340e+01 2.389459318160000123e+01
-2.278248277899999952e+00 6.201754290280000248e+01 2.459549233110000088e+01
-2.280162566200000018e+00 6.188843791429999897e+01 2.529635133149999859e+01
-2.282076243200000132e+00 6.175926931029999878e+01 2.599720026660000016e+01
-2.283991136100000041e+00 6.163022722769999717e+01 2.669806922009999894e+01
-2.285909072199999947e+00 6.150150180349999829e+01 2.739898827569999895e+01
-2.287831878700000043e+00 6.137328317459999738e+01 2.809998751730000066e+01
-2.289761383100000103e+00 6.124576147799999859e+01 2.880109702860000098e+01
-2.291699412399999858e+00 6.111912685069999895e+01 2.950234689319999859e+01
-2.293647794199999979e+00 6.099356942949999905e+01 3.020376719509999930e+01
-2.295608355500000197e+00 6.086927935159999947e+01 3.090538801789999823e+01
-2.297582923799999843e+00 6.074644675369999902e+01 3.160723944540000119e+01
-2.299573326199999990e+00 6.062526177299999830e+01 3.230935156129999797e+01
-1.491021276699999953e+00 6.499975896680000176e+01 3.430894391599999871e+00
-1.493805177500000081e+00 6.496114098060000686e+01 4.146070381300000385e+00
-1.496533648500000035e+00 6.491675526999999590e+01 4.860333792999999680e+00
-1.499208516800000002e+00 6.486679197210000325e+01 5.573714710399999994e+00
-1.501831609799999967e+00 6.481144122370000105e+01 6.286243217400000027e+00
-1.504404754799999910e+00 6.475089316189999522e+01 6.997949397600000232e+00
-1.506929779000000025e+00 6.468533792360000234e+01 7.708863334800000189e+00
-1.509408509700000067e+00 6.461496564579999813e+01 8.419015112800000367e+00
-1.511842774200000017e+00 6.453996646529999737e+01 9.128434815400000346e+00
-1.514234399800000075e+00 6.446053051929999356e+01 9.837152526200000580e+00
-1.516585213799999998e+00 6.437684794460000148e+01 1.054519832909999977e+01
-1.518897043499999988e+00 6.428910887819999687e+01 1.125260230780000015e+01
-1.521171716100000015e+00 6.419750345699999627e+01 1.195939454600000040e+01
-1.523411058900000059e+00 6.410222181810000563e+01 1.266560512749999923e+01
-1.525616899300000107e+00 6.400345409839999888e+01 1.337126413610000064e+01
-1.527791064399999899e+00 6.390139043469999791e+01 1.407640165559999978e+01
-1.529935381700000097e+00 6.379622096420000332e+01 1.478104776960000066e+01
-1.532051678299999997e+00 6.368813582380000327e+01 1.548523256190000019e+01
-1.534141781500000024e+00 6.357732515040000010e+01 1.618898611630000062e+01
-1.536207518699999941e+00 6.346397908090000328e+01 1.689233851650000062e+01
-1.538250717099999942e+00 6.334828775239999743e+01 1.759531984630000068e+01
-1.540273204000000007e+00 6.323044130179999911e+01 1.829796018949999947e+01
-1.542276806699999891e+00 6.311062986599999647e+01 1.900028962980000102e+01
-1.544263352500000019e+00 6.298904358210000254e+01 1.970233825089999868e+01
-1.546234668699999926e+00 6.286587258689999658e+01 2.040413613670000004e+01
-1.548192582400000017e+00 6.274130701749999872e+01 2.110571337080000021e+01
-1.550138921100000067e+00 6.261553701070000244e+01 2.180710003709999967e+01
-1.552075512000000046e+00 6.248875270370000123e+01 2.250832621920000065e+01
-1.554004182499999942e+00 6.236114423320000100e+01 2.320942200089999830e+01
-1.555926759599999931e+00 6.223290173630000055e+01 2.391041746610000018e+01
-1.557845070900000017e+00 6.210421534990000225e+01 2.461134269829999965e+01
-1.559760943499999941e+00 6.197527521109999782e+01 2.531222778149999897e+01
-1.561676204699999904e+00 6.184627145660000025e+01 2.601310279939999859e+01
-1.563592681899999892e+00 6.171739422360000304e+01 2.671399783560000074e+01
-1.565512202200000091e+00 6.158883364900000146e+01 2.741494297399999880e+01
-1.567436593000000045e+00 6.146077986969999785e+01 2.811596829830000033e+01
-1.569367681599999953e+00 6.133342302270000346e+01 2.881710389230000047e+01
-1.571307295300000018e+00 6.120695324489999933e+01 2.951837983969999968e+01
-1.573257261299999987e+00 6.108156067339999851e+01 3.021982622430000021e+01
-1.575219406900000063e+00 6.095743544500000155e+01 3.092147312990000074e+01
-1.577195559400000002e+00 6.083476769669999840e+01 3.162335064009999996e+01
-1.579187546100000006e+00 6.071374756560000208e+01 3.232548883879999835e+01
-7.702882752999999916e-01 6.505211485789999415e+01 3.441315141900000096e+00
-7.730737603999999763e-01 6.501366172129999654e+01 4.156517214299999985e+00
-7.758038156000000019e-01 6.496944086029999710e+01 4.870806708799999996e+00
-7.784802682000000473e-01 6.491964241200000174e+01 5.584213709000000136e+00
-7.811049454999999808e-01 6.486445651319999683e+01 6.296768298699999988e+00
-7.836796746999999952e-01 6.480407330100000252e+01 7.008500561600000012e+00
-7.862062830999999585e-01 6.473868291220000515e+01 7.719440581599999796e+00
-7.886865980999999692e-01 6.466847548399999823e+01 8.429618442400000689e+00
-7.911224468999999981e-01 6.459364115309999477e+01 9.139064227700000487e+00
-7.935156568000000243e-01 6.451437005670000246e+01 9.847808021200000539e+00
-7.958680551000000269e-01 6.443085233150000590e+01 1.055587990689999955e+01
-7.981814689999999768e-01 6.434327811469999858e+01 1.126330996829999975e+01
-8.004577258999999723e-01 6.425183754319999707e+01 1.197012828929999984e+01
-8.026986529999999842e-01 6.415672075380000194e+01 1.267636495360000026e+01
-8.049060775999999917e-01 6.405811788370000670e+01 1.338205004489999972e+01
-8.070818269999999739e-01 6.395621906969999770e+01 1.408721364710000046e+01
-8.092277285000000209e-01 6.385121444869999863e+01 1.479188584379999938e+01
-8.113456094000000007e-01 6.374329415790000297e+01 1.549609671890000051e+01
-8.134372968999999953e-01 6.363264833400000242e+01 1.619987635600000075e+01
-8.155046182999999838e-01 6.351946711419999758e+01 1.690325483899999881e+01
-8.175494009999999534e-01 6.340394063530000324e+01 1.760626225160000047e+01
-8.195734721999999861e-01 6.328625903420000043e+01 1.830892867749999908e+01
-8.215786591000000527e-01 6.316661244800000219e+01 1.901128420059999868e+01
-8.235667892000000379e-01 6.304519101369999845e+01 1.971335890439999972e+01
-8.255396896000000151e-01 6.292218486809999689e+01 2.041518287290000089e+01
-8.274991875999999635e-01 6.279778414830000344e+01 2.111678618979999911e+01
-8.294471105999999816e-01 6.267217899109999735e+01 2.181819893879999839e+01
-8.313852858000000401e-01 6.254555953359999876e+01 2.251945120370000097e+01
-8.333155403999999988e-01 6.241811591270000292e+01 2.322057306820000022e+01
-8.352397018999999645e-01 6.229003826539999977e+01 2.392159461609999838e+01
-8.371595974000000107e-01 6.216151672859999877e+01 2.462254593109999945e+01
-8.390770543000000137e-01 6.203274143939999874e+01 2.532345709699999858e+01
-8.409938998000000554e-01 6.190390253449999847e+01 2.602435819760000157e+01
-8.429119612000000039e-01 6.177519015109999856e+01 2.672527931659999823e+01
-8.448330657999999493e-01 6.164679442610000137e+01 2.742625053769999965e+01
-8.467590408999999818e-01 6.151890549630000038e+01 2.812730194479999923e+01
-8.486917136999999611e-01 6.139171349890000329e+01 2.882846362160000098e+01
-8.506329115999999857e-01 6.126540857069999646e+01 2.952976565170000001e+01
-8.525844619000000346e-01 6.114018084880000004e+01 3.023123811909999858e+01
-8.545481917999999677e-01 6.101622047000000038e+01 3.093291110739999894e+01
-8.565259285999999861e-01 6.089371757130000162e+01 3.163481470039999977e+01
-8.585194994999999496e-01 6.077286228970000082e+01 3.233697898180000152e+01
-4.927417810000000314e-02 6.507522149060000061e+01 3.447108030699999937e+00
-5.206124740000000334e-02 6.503693320360000030e+01 4.162336185800000088e+00
-5.479288689999999712e-02 6.499287719219999815e+01 4.876651762999999917e+00
-5.747092370000000255e-02 6.494324359339999830e+01 5.590084845899999877e+00
-6.009718530000000142e-02 6.488822254420000490e+01 6.302665518400000444e+00
-6.267349869999999656e-02 6.482800418159999367e+01 7.014423864100000294e+00
-6.520169150000000580e-02 6.476277864239999360e+01 7.725389966799999897e+00
-6.768359070000000421e-02 6.469273606379999819e+01 8.435593910299999720e+00
-7.012102380000000135e-02 6.461806658250000623e+01 9.145065778399999346e+00
-7.251581790000000138e-02 6.453896033559999523e+01 9.853835654699999225e+00
-7.486980049999999998e-02 6.445560746009999775e+01 1.056193362309999983e+01
-7.718479860000000692e-02 6.436819809290000194e+01 1.126938976729999986e+01
-7.946263979999999838e-02 6.427692237089999594e+01 1.197623417099999976e+01
-8.170515109999999803e-02 6.418197043119999989e+01 1.268249691800000001e+01
-8.391416000000000153e-02 6.408353241060000016e+01 1.338820809209999929e+01
-8.609149369999999357e-02 6.398179844620000267e+01 1.409339777699999985e+01
-8.823897949999999490e-02 6.387695867480000089e+01 1.479809605650000037e+01
-9.035844460000000411e-02 6.376920323360000253e+01 1.550233301429999955e+01
-9.245171639999999469e-02 6.365872225929999928e+01 1.620613873419999962e+01
-9.452062210000000686e-02 6.354570588899999706e+01 1.690954329999999928e+01
-9.656698900000000585e-02 6.343034425970000001e+01 1.761257679530000075e+01
-9.859264450000000679e-02 6.331282750820000160e+01 1.831526930400000097e+01
-1.005994157000000000e-01 6.319334577170000244e+01 1.901765090980000039e+01
-1.025891300000000006e-01 6.307208918690000132e+01 1.971975169639999947e+01
-1.045636147000000016e-01 6.294924789089999706e+01 2.042160174769999870e+01
-1.065246970000000015e-01 6.282501202059999912e+01 2.112323114730000029e+01
-1.084742041999999934e-01 6.269957171309999922e+01 2.182466997899999939e+01
-1.104139635999999980e-01 6.257311710519999792e+01 2.252594832659999824e+01
-1.123458026000000026e-01 6.244583833389999938e+01 2.322709627389999909e+01
-1.142715482999999976e-01 6.231792553609999885e+01 2.392814390450000062e+01
-1.161930280999999981e-01 6.218956884899999693e+01 2.462912130229999974e+01
-1.181120692000000028e-01 6.206095840929999952e+01 2.533005855100000048e+01
-1.200304989000000044e-01 6.193228435399999654e+01 2.603098573429999973e+01
-1.219501446000000044e-01 6.180373682020000103e+01 2.673193293599999976e+01
-1.238728335000000014e-01 6.167550594469999936e+01 2.743293023989999924e+01
-1.258003927999999938e-01 6.154778186459999745e+01 2.813400772980000042e+01
-1.277346500000000051e-01 6.142075471679999765e+01 2.883519548929999843e+01
-1.296774320999999897e-01 6.129461463820000233e+01 2.953652360219999906e+01
-1.316305667000000068e-01 6.116955176580000142e+01 3.023802215230000101e+01
-1.335958808000000109e-01 6.104575623659999906e+01 3.093972122330000118e+01
-1.355752017999999892e-01 6.092341818749999760e+01 3.164165089899999828e+01
-1.375703571000000125e-01 6.080272775550000119e+01 3.234384126319999808e+01
6.720198443999999549e-01 6.506920067490000292e+01 3.448292330800000194e+00
6.692311908000000420e-01 6.503107723739999813e+01 4.163546568700000172e+00
6.664979669999999690e-01 6.498718607559999327e+01 4.877888228599999820e+00
6.638183458999999953e-01 6.493771732640000494e+01 5.591347394299999607e+00
6.611905001000000226e-01 6.488286112679999462e+01 6.303954149499999993e+00
6.586126023999999690e-01 6.482280761379999490e+01 7.015738577999999670e+00
6.560828253999999582e-01 6.475774692420000633e+01 7.726730763499999988e+00
6.535993419000000193e-01 6.468786919519999401e+01 8.436960789700000518e+00
6.511603245999999512e-01 6.461336456349999935e+01 9.146458740499999962e+00
6.487639461999999968e-01 6.453442316619999986e+01 9.855254699599999668e+00
6.464083793999999550e-01 6.445123514029999967e+01 1.056337875070000010e+01
6.440917968999999577e-01 6.436399062259999937e+01 1.127086097769999995e+01
6.418123715000000340e-01 6.427287975020000488e+01 1.197773146409999967e+01
6.395682758999999828e-01 6.417809266010000613e+01 1.268402029389999974e+01
6.373576827000000389e-01 6.407981948910000369e+01 1.338975755080000063e+01
6.351787648000000175e-01 6.397825037420000172e+01 1.409497331839999923e+01
6.330296948000000423e-01 6.387357545249999902e+01 1.479969768069999958e+01
6.309086454000000233e-01 6.376598486080000328e+01 1.550396072120000035e+01
6.288137892999999812e-01 6.365566873609999732e+01 1.620779252390000025e+01
6.267432993999999535e-01 6.354281721550000128e+01 1.691122317239999973e+01
6.246953481999999447e-01 6.342762043569999975e+01 1.761428275040000102e+01
6.226681084999999838e-01 6.331026853390000042e+01 1.831700134189999929e+01
6.206597529999999807e-01 6.319095164689999677e+01 1.901940903039999853e+01
6.186684543999999564e-01 6.306985991170000005e+01 1.972153589979999921e+01
6.166923855000000509e-01 6.294718346530000019e+01 2.042341203379999826e+01
6.147297189000000550e-01 6.282311244459999955e+01 2.112506751609999966e+01
6.127786273999999977e-01 6.269783698660000226e+01 2.182653243060000037e+01
6.108372837000000111e-01 6.257154722829999827e+01 2.252783686100000082e+01
6.089038605000000048e-01 6.244443330659999702e+01 2.322901089100000149e+01
6.069765305000000000e-01 6.231668535840000089e+01 2.393008460440000107e+01
6.050534665000000256e-01 6.218849352080000159e+01 2.463108808490000001e+01
6.031328410999999834e-01 6.206004793070000147e+01 2.533205141630000057e+01
6.012128271000000135e-01 6.193153872509999758e+01 2.603300468240000143e+01
5.992915971000000175e-01 6.180315604079999758e+01 2.673397796689999950e+01
5.973673240000000328e-01 6.167509001500000210e+01 2.743500135360000058e+01
5.954381803999999612e-01 6.154753078440000280e+01 2.813610492609999980e+01
5.935023390000000454e-01 6.142066848620000030e+01 2.883731876839999941e+01
5.915579725999999816e-01 6.129469325720000228e+01 2.953867296399999987e+01
5.896032538000000045e-01 6.116979523439999866e+01 3.024019759689999987e+01
5.876363554000000322e-01 6.104616455480000070e+01 3.094192275070000164e+01
5.856554500999999746e-01 6.092399135529999654e+01 3.164387850909999855e+01
5.836587105999999636e-01 6.080346577289999743e+01 3.234609495610000351e+01
1.393592621400000064e+00 6.503417422079999710e+01 3.444887315299999919e+00
1.390802383600000081e+00 6.499621563290000381e+01 4.160167635999999725e+00
1.388067575600000048e+00 6.495248932069999626e+01 4.874535378700000088e+00
1.385386370199999995e+00 6.490318542110000521e+01 5.588020627099999693e+00
1.382756940099999943e+00 6.484849407110000641e+01 6.300653464999999898e+00
1.380177458099999921e+00 6.478860540760000220e+01 7.012463976200000282e+00
1.377646096899999950e+00 6.472370956759999672e+01 7.723482244500000427e+00
1.375161029100000043e+00 6.465399668809999412e+01 8.433738353500000784e+00
1.372720427500000007e+00 6.457965690599999675e+01 9.143262387000000047e+00
1.370322464800000084e+00 6.450088035829999455e+01 9.852084428899999580e+00
1.367965313800000082e+00 6.441785718200000588e+01 1.056023456269999983e+01
1.365647147100000014e+00 6.433077751390000287e+01 1.126774287239999950e+01
1.363366137399999900e+00 6.423983149110000568e+01 1.197463944160000082e+01
1.361120457499999992e+00 6.414520925060000422e+01 1.268095435420000072e+01
1.358908280100000088e+00 6.404710092919999909e+01 1.338671769379999965e+01
1.356727777899999987e+00 6.394569666390000151e+01 1.409195954419999985e+01
1.354577123599999933e+00 6.384118659180000321e+01 1.479670998920000002e+01
1.352454489899999945e+00 6.373376084969999766e+01 1.550099911250000062e+01
1.350358049600000054e+00 6.362360957460000321e+01 1.620485699789999856e+01
1.348285975400000058e+00 6.351092290350000269e+01 1.690831372910000141e+01
1.346236439899999970e+00 6.339589097329999845e+01 1.761139938990000076e+01
1.344207616000000050e+00 6.327870392100000174e+01 1.831414406409999884e+01
1.342197676200000078e+00 6.315955188360000250e+01 1.901657783539999969e+01
1.340204793400000094e+00 6.303862499800000307e+01 1.971873078750000019e+01
1.338227140200000109e+00 6.291611340120000051e+01 2.042063300430000083e+01
1.336262889299999923e+00 6.279220723009999716e+01 2.112231456940000029e+01
1.334310213600000017e+00 6.266709662169999717e+01 2.182380556660000082e+01
1.332367285599999951e+00 6.254097171299999758e+01 2.252513607970000109e+01
1.330432278199999985e+00 6.241402264090000074e+01 2.322633619249999981e+01
1.328503363899999901e+00 6.228643954230000190e+01 2.392743598859999921e+01
1.326578715599999958e+00 6.215841255429999990e+01 2.462846555189999975e+01
1.324656505999999956e+00 6.203013181379999708e+01 2.532945496609999836e+01
1.322734907699999907e+00 6.190178745770000290e+01 2.603043431489999904e+01
1.320812093500000062e+00 6.177356962310000199e+01 2.673143368210000048e+01
1.318886236099999998e+00 6.164566844680000202e+01 2.743248315150000138e+01
1.316955508199999958e+00 6.151827406580000002e+01 2.813361280690000044e+01
1.315018082599999971e+00 6.139157661720000192e+01 2.883485273180000164e+01
1.313072131800000042e+00 6.126576623780000119e+01 2.953623301029999837e+01
1.311115828799999994e+00 6.114103306460000198e+01 3.023778372590000174e+01
1.309147346100000053e+00 6.101756723449999953e+01 3.093953496239999978e+01
1.307164856600000036e+00 6.089555888459999977e+01 3.164151680359999830e+01
1.305166532799999946e+00 6.077519815179999796e+01 3.234375933329999953e+01
2.115442982399999838e+00 6.497026393820000578e+01 3.436912257199999932e+00
2.112651160299999997e+00 6.493247019989999558e+01 4.152218660600000000e+00
2.109914767999999885e+00 6.488890873729999953e+01 4.866612486000000182e+00
2.107231978400000205e+00 6.483976968730000578e+01 5.580123817199999614e+00
2.104600963999999852e+00 6.478524318680000249e+01 6.292782737899999645e+00
2.102019897799999981e+00 6.472551937299999736e+01 7.004619331799999848e+00
2.099486952299999931e+00 6.466078838260000339e+01 7.715663682799999812e+00
2.097000300199999945e+00 6.459124035269999808e+01 8.425945874599999996e+00
2.094558114399999837e+00 6.451706542019999802e+01 9.135495990900000862e+00
2.092158567399999836e+00 6.443845372209999312e+01 9.844344115500000214e+00
2.089799832100000199e+00 6.435559539529999995e+01 1.055252033210000029e+01
2.087480081099999829e+00 6.426868057679999424e+01 1.126005472449999978e+01
2.085197487199999866e+00 6.417789940359999434e+01 1.196697737649999915e+01
2.082950223000000101e+00 6.408344201260000261e+01 1.267331837180000065e+01
2.080736461399999904e+00 6.398549854080000188e+01 1.337910779409999940e+01
2.078554374899999946e+00 6.388425912520000338e+01 1.408437572729999943e+01
2.076402136400000042e+00 6.377991390260000060e+01 1.478915225499999941e+01
2.074277918399999976e+00 6.367265301009999945e+01 1.549346746109999984e+01
2.072179893900000014e+00 6.356266658460000230e+01 1.619735142920000115e+01
2.070106235399999939e+00 6.345014476309999907e+01 1.690083424319999850e+01
2.068055115599999993e+00 6.333527768249999923e+01 1.760394598679999945e+01
2.066024707399999993e+00 6.321825547979999982e+01 1.830671674370000090e+01
2.064013183400000173e+00 6.309926829199999787e+01 1.900917659770000157e+01
2.062018716299999888e+00 6.297850625600000285e+01 1.971135563260000012e+01
2.060039478799999824e+00 6.285615950879999758e+01 2.041328393210000058e+01
2.058073643699999788e+00 6.273241818729999864e+01 2.111499158000000165e+01
2.056119383700000025e+00 6.260747242850000305e+01 2.181650866000000022e+01
2.054174871499999888e+00 6.248151236929999897e+01 2.251786525580000031e+01
2.052238279800000065e+00 6.235472814679999942e+01 2.321909145129999885e+01
2.050307781299999910e+00 6.222730989779999788e+01 2.392021733019999985e+01
2.048381548700000110e+00 6.209944775940000028e+01 2.462127297620000022e+01
2.046457754800000028e+00 6.197133186850000186e+01 2.532228847320000042e+01
2.044534572199999900e+00 6.184315236199999788e+01 2.602329390470000092e+01
2.042610173799999984e+00 6.171509937689999958e+01 2.672431935470000042e+01
2.040682732100000063e+00 6.158736305019999691e+01 2.742539490689999937e+01
2.038750419999999952e+00 6.146013351879999931e+01 2.812655064490000001e+01
2.036811409999999878e+00 6.133360091979999851e+01 2.882781665270000104e+01
2.034863875100000108e+00 6.120795538990000040e+01 2.952922301379999936e+01
2.032905987799999981e+00 6.108338706629999848e+01 3.023079981220000079e+01
2.030935920800000183e+00 6.096008608590000222e+01 3.093257713150000043e+01
2.028951847000000086e+00 6.083824258559999976e+01 3.163458505539999877e+01
2.026951938999999925e+00 6.071804670230000056e+01 3.233685366790000160e+01
2.837569756699999779e+00 6.487759163719999833e+01 3.424386429300000145e+00
2.834776350299999859e+00 6.483996274849999963e+01 4.139718915499999596e+00
2.832038373800000119e+00 6.479656613550000088e+01 4.854138823699999605e+00
2.829353999799999908e+00 6.474759193500000265e+01 5.567676237599999745e+00
2.826721401299999936e+00 6.469323028419999844e+01 6.280361240999999595e+00
2.824138750699999978e+00 6.463367131990000303e+01 6.992223917699999625e+00
2.821604220899999849e+00 6.456910517910000635e+01 7.703294351500000303e+00
2.819115984599999791e+00 6.449972199879999835e+01 8.413602625999999418e+00
2.816672214500000049e+00 6.442571191589999557e+01 9.123178825000000103e+00
2.814271083299999976e+00 6.434726506740000218e+01 9.832053032399999282e+00
2.811910763699999816e+00 6.426457159020000631e+01 1.054025533169999918e+01
2.809589428499999819e+00 6.417782162129999790e+01 1.124781580690000027e+01
2.807305250300000221e+00 6.408720529769999530e+01 1.195476454159999946e+01
2.805056401899999940e+00 6.399291275630000086e+01 1.266113161970000078e+01
2.802841056000000108e+00 6.389513413409999742e+01 1.336694712479999936e+01
2.800657385200000071e+00 6.379405956800000155e+01 1.407224114069999921e+01
2.798503562400000089e+00 6.368987919500000316e+01 1.477704375110000079e+01
2.796377760199999951e+00 6.358278315209999931e+01 1.548138503999999926e+01
2.794278151399999910e+00 6.347296157619999946e+01 1.618529509089999863e+01
2.792202908600000200e+00 6.336060460430000063e+01 1.688880398759999935e+01
2.790150204600000183e+00 6.324590237329999809e+01 1.759194181390000011e+01
2.788118212100000104e+00 6.312904502020000308e+01 1.829473865359999962e+01
2.786105103800000204e+00 6.301022268189999664e+01 1.899722459039999833e+01
2.784109052499999848e+00 6.288962549549999892e+01 1.969942970800000026e+01
2.782128230800000157e+00 6.276744359789999805e+01 2.040138409020000054e+01
2.780160811400000043e+00 6.264386712600000351e+01 2.110311782080000143e+01
2.778204967100000200e+00 6.251908621670000343e+01 2.180466098360000160e+01
2.776258870599999984e+00 6.239329100719999843e+01 2.250604366219999974e+01
2.774320694700000089e+00 6.226667163420000151e+01 2.320729594040000165e+01
2.772388611899999855e+00 6.213941823489999905e+01 2.390844790210000070e+01
2.770460795099999984e+00 6.201172094599999696e+01 2.460952963089999912e+01
2.768535416899999824e+00 6.188376990470000294e+01 2.531057121050000092e+01
2.766610650100000068e+00 6.175575524780000336e+01 2.601160272490000125e+01
2.764684667300000065e+00 6.162786711230000236e+01 2.671265425760000056e+01
2.762755641400000073e+00 6.150029563519999698e+01 2.741375589249999933e+01
2.760821744999999883e+00 6.137323095339999668e+01 2.811493771330000158e+01
2.758881150800000182e+00 6.124686320389999850e+01 2.881622980379999888e+01
2.756932031599999888e+00 6.112138252369999947e+01 2.951766224769999880e+01
2.754972560000000126e+00 6.099697904970000195e+01 3.021926512880000004e+01
2.753000908799999813e+00 6.087384291880000120e+01 3.092106853079999951e+01
2.751015250700000081e+00 6.075216426810000314e+01 3.162310253760000123e+01
2.749013758399999841e+00 6.063213323440000124e+01 3.232539723269999854e+01
3.559971773600000056e+00 6.475627912779999917e+01 3.407329104700000055e+00
3.557176782900000056e+00 6.471881508869999777e+01 4.122687673699999777e+00
3.554437222199999802e+00 6.467558332519999453e+01 4.837133664599999605e+00
3.551751263999999964e+00 6.462677397439999538e+01 5.550697161299999571e+00
3.549117081099999904e+00 6.457257717320000268e+01 6.263408247400000128e+00
3.546532846299999875e+00 6.451318305850000456e+01 6.975297006899999985e+00
3.543996732300000119e+00 6.444878176730000519e+01 7.686393523399999594e+00
3.541506911699999982e+00 6.437956343650000690e+01 8.396727880600000304e+00
3.539061557400000169e+00 6.430571820320000143e+01 9.106330162400000816e+00
3.536658841900000017e+00 6.422743620430000533e+01 9.815230452499999814e+00
3.534296938000000221e+00 6.414490757670000676e+01 1.052345883459999953e+01
3.531974018500000145e+00 6.405832245739999564e+01 1.123104539260000045e+01
3.529688256100000032e+00 6.396787098330000276e+01 1.193802020999999947e+01
3.527437823400000116e+00 6.387374329149999852e+01 1.264441337080000061e+01
3.525220893200000205e+00 6.377612951889999948e+01 1.335025495860000078e+01
3.523035638200000097e+00 6.367521980240000090e+01 1.405557505730000045e+01
3.520880231100000035e+00 6.357120427899999981e+01 1.476040375050000009e+01
3.518752844699999827e+00 6.346427308570000037e+01 1.546477112210000016e+01
3.516651651600000150e+00 6.335461635939999780e+01 1.616870725569999934e+01
3.514574824499999917e+00 6.324242423700000160e+01 1.687224223520000166e+01
3.512520536299999829e+00 6.312788685560000346e+01 1.757540614430000048e+01
3.510486959500000115e+00 6.301119435209999864e+01 1.827822906669999981e+01
3.508472267000000144e+00 6.289253686349999839e+01 1.898074108619999834e+01
3.506474631400000153e+00 6.277210452660000328e+01 1.968297228659999831e+01
3.504492225399999938e+00 6.265008747859999971e+01 2.038495275160000020e+01
3.502523221800000197e+00 6.252667585630000247e+01 2.108671256499999913e+01
3.500565793199999831e+00 6.240205979659999969e+01 2.178828181049999912e+01
3.498618112499999988e+00 6.227642943669999909e+01 2.248969057180000064e+01
3.496678352200000006e+00 6.214997491329999946e+01 2.319096893280000060e+01
3.494744685200000145e+00 6.202288636349999962e+01 2.389214697719999947e+01
3.492815284100000195e+00 6.189535392429999661e+01 2.459325478870000126e+01
3.490888321599999955e+00 6.176756773249999810e+01 2.529432245119999934e+01
3.488961970600000129e+00 6.163971792520000292e+01 2.599538004820000126e+01
3.487034403600000054e+00 6.151199463929999922e+01 2.669645766369999862e+01
3.485103793399999983e+00 6.138458801179999824e+01 2.739758538139999899e+01
3.483168312700000158e+00 6.125768817960000234e+01 2.809879328490000105e+01
3.481226134299999941e+00 6.113148527970000146e+01 2.880011145819999996e+01
3.479275430800000013e+00 6.100616944899999794e+01 2.950156998479999970e+01
3.477314374900000171e+00 6.088193082459999772e+01 3.020319894869999899e+01
3.475341139499999787e+00 6.075895954330000137e+01 3.090502843350000006e+01
3.473353897099999976e+00 6.063744574220000061e+01 3.160708852289999982e+01
3.471350820600000109e+00 6.051757955810000311e+01 3.230940930090000052e+01
4.282647862600000188e+00 6.460644822000000431e+01 3.385759556400000037e+00
4.279851287599999665e+00 6.456914903050000021e+01 4.101144208000000013e+00
4.277110142599999776e+00 6.452608211659999427e+01 4.815616281699999668e+00
4.274422600200000311e+00 6.447743761540000662e+01 5.529205861100000341e+00
4.271786833000000172e+00 6.442340566369999522e+01 6.241943030099999845e+00
4.269201014000000072e+00 6.436417639859999440e+01 6.953857872300000409e+00
4.266663315699999792e+00 6.429993995700000653e+01 7.664980471499999837e+00
4.264171910800000020e+00 6.423088647580000554e+01 8.375340911500000374e+00
4.261724972199999684e+00 6.415720609209999736e+01 9.084969276100000712e+00
4.259320672500000349e+00 6.407908894269999678e+01 9.793895648899999529e+00
4.256957184400000038e+00 6.399672516470000261e+01 1.050215011380000085e+01
4.254632680600000327e+00 6.391030489500000300e+01 1.120976275439999981e+01
4.252345333900000135e+00 6.382001827060000210e+01 1.191676365460000042e+01
4.250093316900000140e+00 6.372605542840000226e+01 1.262318289819999961e+01
4.247874802500000158e+00 6.362860650529999873e+01 1.332905056879999961e+01
4.245687963199999970e+00 6.352786163839999745e+01 1.403439675020000088e+01
4.243530971900000281e+00 6.342401096460000076e+01 1.473925152620000034e+01
4.241402001199999994e+00 6.331724462079999682e+01 1.544364498050000023e+01
4.239299223799999794e+00 6.320775274409999867e+01 1.614760719690000101e+01
4.237220812500000378e+00 6.309572547140000154e+01 1.685116825909999960e+01
4.235164939999999767e+00 6.298135293949999891e+01 1.755435825089999824e+01
4.233129779000000426e+00 6.286482528559999849e+01 1.825720725609999917e+01
4.231113502100000368e+00 6.274633264660000265e+01 1.895974535839999930e+01
4.229114282300000305e+00 6.262606515929999773e+01 1.966200264149999910e+01
4.227130292000000011e+00 6.250421296089999856e+01 2.036400918920000080e+01
4.225159704100000191e+00 6.238096618809999683e+01 2.106579508529999956e+01
4.223200691299999754e+00 6.225651497810000023e+01 2.176739041360000115e+01
4.221251426300000276e+00 6.213104946770000225e+01 2.246882525770000072e+01
4.219310081799999779e+00 6.200475979389999992e+01 2.317012970140000050e+01
4.217374830499999838e+00 6.187783609369999738e+01 2.387133382860000097e+01
4.215443845100000253e+00 6.175046850409999877e+01 2.457246772279999902e+01
4.213515298399999942e+00 6.162284716189999756e+01 2.527356146800000047e+01
4.211587363099999592e+00 6.149516220419999968e+01 2.597464514780000044e+01
4.209658211799999883e+00 6.136760376790000038e+01 2.667574884609999941e+01
4.207726017399999741e+00 6.124036198990000202e+01 2.737690264649999961e+01
4.205788952399999836e+00 6.111362700730000341e+01 2.807813663279999972e+01
4.203845189699999985e+00 6.098758895699999982e+01 2.877948088879999844e+01
4.201892901999999985e+00 6.086243797590000071e+01 2.948096549819999979e+01
4.199930261899999628e+00 6.073836420109999779e+01 3.018262054479999890e+01
4.197955442199999609e+00 6.061555776939999873e+01 3.088447611229999978e+01
4.195966615499999719e+00 6.049420881780000059e+01 3.158656228450000114e+01
4.193961954699999772e+00 6.037450748340000217e+01 3.228890914520000166e+01
5.005596852900000115e+00 6.442822072379999554e+01 3.359697057200000003e+00
5.002798693699999966e+00 6.439108638380000116e+01 4.075107791599999807e+00
5.000055964400000441e+00 6.434818431950000672e+01 4.789605948000000168e+00
4.997366837699999564e+00 6.429970466790000216e+01 5.503221610199999780e+00
4.994729486299999799e+00 6.424583756580000227e+01 6.215984861899999991e+00
4.992142083000000063e+00 6.418677315029999875e+01 6.927925786800000374e+00
4.989602800400000149e+00 6.412270155829999396e+01 7.639074468799999629e+00
4.987109811299999862e+00 6.405381292670000448e+01 8.349460991600000881e+00
4.984661288399999890e+00 6.398029739249999892e+01 9.059115438899999262e+00
4.982255404500000040e+00 6.390234509279999742e+01 9.768067894399999673e+00
4.979890332100000094e+00 6.382014616440000054e+01 1.047634844210000082e+01
4.977564243999999860e+00 6.373389074419999645e+01 1.118398716549999961e+01
4.975275313100000041e+00 6.364376896939999995e+01 1.189101414840000004e+01
4.973021711900000419e+00 6.354997097679999740e+01 1.259745947470000083e+01
4.970801613099999905e+00 6.345268690329999828e+01 1.330335322810000065e+01
4.968613189600000091e+00 6.335210688600000140e+01 1.400872549219999996e+01
4.966454613999999879e+00 6.324842106180000201e+01 1.471360635089999924e+01
4.964324058999999956e+00 6.314181956760000247e+01 1.541802588800000073e+01
4.962219697400000129e+00 6.303249254050000161e+01 1.612201418709999956e+01
4.960139701800000189e+00 6.292063011729999999e+01 1.682560133209999975e+01
4.958082245099999952e+00 6.280642243509999645e+01 1.752881740669999999e+01
4.956045499800000087e+00 6.269005963069999865e+01 1.823169249460000074e+01
4.954027638700000402e+00 6.257173184130000010e+01 1.893425667960000069e+01
4.952026834499999808e+00 6.245162920359999958e+01 1.963654004549999854e+01
4.950041259999999887e+00 6.232994185470000303e+01 2.033857267599999830e+01
4.948069087900000440e+00 6.220685993160000038e+01 2.104038465489999865e+01
4.946108490800000368e+00 6.208257357109999930e+01 2.174200606590000007e+01
4.944157641500000366e+00 6.195727291029999861e+01 2.244346699269999945e+01
4.942214712700000234e+00 6.183114808610000068e+01 2.314479751920000083e+01
4.940277877199999779e+00 6.170438923550000254e+01 2.384602772910000112e+01
4.938345307599999678e+00 6.157718649539999944e+01 2.454718770610000078e+01
4.936415176599999732e+00 6.144973000289999732e+01 2.524830753399999850e+01
4.934485656999999748e+00 6.132220989470000205e+01 2.594941729660000007e+01
4.932554921500000411e+00 6.119481630800000005e+01 2.665054707759999886e+01
4.930621142799999745e+00 6.106773937970000077e+01 2.735172696069999887e+01
4.928682493600000214e+00 6.094116924659999768e+01 2.805298702980000058e+01
4.926737146599999839e+00 6.081529604589999849e+01 2.875435736849999913e+01
4.924783274600000205e+00 6.069030991439999667e+01 2.945586806069999852e+01
4.922819050200000213e+00 6.056640098919999815e+01 3.015754919000000100e+01
4.920842646199999670e+00 6.044375940710000350e+01 3.085943084029999994e+01
4.918852235300000153e+00 6.032257530510000265e+01 3.156154309529999935e+01
4.916845990299999691e+00 6.020303882019999975e+01 3.226391603870000324e+01
5.728817573999999802e+00 6.422171844909999550e+01 3.329160880099999886e+00
5.726017830600000025e+00 6.418474895880000020e+01 4.044597697300000405e+00
5.723273516999999977e+00 6.414201174410000306e+01 4.759121936499999705e+00
5.720582806000000353e+00 6.409369694199999401e+01 5.472763681400000024e+00
5.717943870400000073e+00 6.403999468950000562e+01 6.185553015800000054e+00
5.715354882799999814e+00 6.398109512359999940e+01 6.897520023500000264e+00
5.712814016000000272e+00 6.391718838109999723e+01 7.608694788200000225e+00
5.710319442600000350e+00 6.384846459909999794e+01 8.319107393799999528e+00
5.707869335399999855e+00 6.377511391459999857e+01 9.028787923799999504e+00
5.705461867200000370e+00 6.369732646439999968e+01 9.737766462099999742e+00
5.703095210499999901e+00 6.361529238560000010e+01 1.044607309250000071e+01
5.700767538200000040e+00 6.352920181510000219e+01 1.115373789869999932e+01
5.698477022999999697e+00 6.343924488980000120e+01 1.186079096439999958e+01
5.696221837500000440e+00 6.334561174670000128e+01 1.256726237340000019e+01
5.694000154500000299e+00 6.324849252290000123e+01 1.327318220949999983e+01
5.691810146699999962e+00 6.314807735509999986e+01 1.397858055640000075e+01
5.689649986900000123e+00 6.304455638049999777e+01 1.468348749789999985e+01
5.687517847599999676e+00 6.293811973590000264e+01 1.538793311769999939e+01
5.685411901700000215e+00 6.282895755839999907e+01 1.609194749959999982e+01
5.683330321899999760e+00 6.271725998480000186e+01 1.679556072729999983e+01
5.681271280899999887e+00 6.260321715220000272e+01 1.749880288459999989e+01
5.679232951300000387e+00 6.248701919740000221e+01 1.820170405529999869e+01
5.677213506000000187e+00 6.236885625749999917e+01 1.890429432310000024e+01
5.675211117599999966e+00 6.224891846949999774e+01 1.960660377170000146e+01
5.673223958800000410e+00 6.212739597019999849e+01 2.030866248490000103e+01
5.671250202400000440e+00 6.200447889659999845e+01 2.101050054650000121e+01
5.669288021099999852e+00 6.188035738570000177e+01 2.171214804030000067e+01
5.667335587500000216e+00 6.175522157449999838e+01 2.241363504990000166e+01
5.665391074499999569e+00 6.162926159989999775e+01 2.311499165909999931e+01
5.663452654600000358e+00 6.150266759889999690e+01 2.381624795180000120e+01
5.661518500799999742e+00 6.137562970839999821e+01 2.451743401150000068e+01
5.659586785500000161e+00 6.124833806539999870e+01 2.521857992220000000e+01
5.657655681699999661e+00 6.112098280690000252e+01 2.591971576750000139e+01
5.655723361899999801e+00 6.099375406970000313e+01 2.662087163129999823e+01
5.653787998900000389e+00 6.086684199100000114e+01 2.732207759710000161e+01
5.651847765400000334e+00 6.074043670750000246e+01 2.802336374900000138e+01
5.649900834200000332e+00 6.061472835640000056e+01 2.872476017039999974e+01
5.647945377900000175e+00 6.048990707450000315e+01 2.942629694540000074e+01
5.645979569299999667e+00 6.036616299880000014e+01 3.012800415739999949e+01
5.644001581000000378e+00 6.024368626630000279e+01 3.082991189050000003e+01
5.642009585900000346e+00 6.012266701389999923e+01 3.153205022819999925e+01
5.640001756500000241e+00 6.000329537870000252e+01 3.223444925439999764e+01
