3.969684140800000094e+00 -5.302645891489999741e+01 8.647063276020000444e+01 0.000000000000000000e+00 0.000000000000000000e+00 0.000000000000000000e+00
2.293263350999999783e+00 -6.023692806030000213e+01 8.153817257890000292e+01 0.000000000000000000e+00 0.000000000000000000e+00 0.000000000000000000e+00
2.452123194799999961e+00 -6.051840362309999932e+01 8.109602110049999624e+01 0.000000000000000000e+00 0.000000000000000000e+00 0.000000000000000000e+00
3.383747951700000201e+00 -6.202284405380000010e+01 7.417308597829999428e+01 0.000000000000000000e+00 0.000000000000000000e+00 0.000000000000000000e+00
1.234394755599999893e+00 -6.417663243110000337e+01 7.641351003610000703e+01 0.000000000000000000e+00 0.000000000000000000e+00 0.000000000000000000e+00
4.233078606800000365e+00 -5.319762738749999897e+01 8.611484916259999522e+01 0.000000000000000000e+00 0.000000000000000000e+00 0.000000000000000000e+00
-1.644001525999999880e-01 -5.715225000000000222e+01 8.557376171149999777e+01 0.000000000000000000e+00 0.000000000000000000e+00 0.000000000000000000e+00
2.402950285799999808e+00 -5.713109289829999682e+01 8.556914964450000127e+01 0.000000000000000000e+00 0.000000000000000000e+00 0.000000000000000000e+00
2.540922432399999931e+00 -5.690364693040000077e+01 8.576243803980000280e+01 0.000000000000000000e+00 0.000000000000000000e+00 0.000000000000000000e+00
-1.510968875699999936e+00 -4.754115902649999725e+01 9.284204093639999655e+01 0.000000000000000000e+00 0.000000000000000000e+00 0.000000000000000000e+00
2.963916895200000123e+00 -5.669374277450000221e+01 8.566946964480000304e+01 0.000000000000000000e+00 0.000000000000000000e+00 0.000000000000000000e+00
3.014653157900000213e+00 -5.612184945919999990e+01 8.565880251950000002e+01 0.000000000000000000e+00 0.000000000000000000e+00 0.000000000000000000e+00
3.003972146699999790e+00 -5.549500390720000098e+01 8.565923363979999294e+01 0.000000000000000000e+00 0.000000000000000000e+00 0.000000000000000000e+00
3.050487898000000087e+00 -5.466498300819999656e+01 8.566027670169999908e+01 0.000000000000000000e+00 0.000000000000000000e+00 0.000000000000000000e+00
3.238871762700000101e+00 -5.418234352590000213e+01 8.568725975629999425e+01 0.000000000000000000e+00 0.000000000000000000e+00 0.000000000000000000e+00
3.632912953199999961e+00 -5.387644817129999808e+01 8.570857660260000443e+01 0.000000000000000000e+00 0.000000000000000000e+00 0.000000000000000000e+00
3.956106924100000199e+00 -5.355186211769999716e+01 8.590133495249999385e+01 0.000000000000000000e+00 0.000000000000000000e+00 0.000000000000000000e+00
4.449040805100000107e+00 -5.342556534530000079e+01 8.569170035659999485e+01 0.000000000000000000e+00 0.000000000000000000e+00 0.000000000000000000e+00
4.909797938199999656e+00 -5.319770876180000130e+01 8.560183542480000085e+01 0.000000000000000000e+00 0.000000000000000000e+00 0.000000000000000000e+00
-8.398561826999999536e-01 -6.387574628539999821e+01 7.662926353199999596e+01 0.000000000000000000e+00 0.000000000000000000e+00 0.000000000000000000e+00
3.008233166400000158e+00 -6.266578451769999702e+01 7.725308487959999582e+01 0.000000000000000000e+00 0.000000000000000000e+00 0.000000000000000000e+00
4.210295939099999885e+00 -5.635101650640000059e+01 8.221779934059999562e+01 0.000000000000000000e+00 0.000000000000000000e+00 0.000000000000000000e+00
-2.847823414500000094e+00 -6.267933379750000000e+01 7.210190842320000115e+01 0.000000000000000000e+00 0.000000000000000000e+00 0.000000000000000000e+00
4.138210472099999926e+00 -5.377668459350000063e+01 8.549845206349999671e+01 0.000000000000000000e+00 0.000000000000000000e+00 0.000000000000000000e+00
4.915320449800000269e+00 -5.901301193930000011e+01 7.780642895930000691e+01 0.000000000000000000e+00 0.000000000000000000e+00 0.000000000000000000e+00
3.289197800200000188e+00 -5.942935332590000286e+01 7.849693524229999753e+01 0.000000000000000000e+00 0.000000000000000000e+00 0.000000000000000000e+00
-1.347945248600000090e+00 -6.458437037369999700e+01 7.531509989459999588e+01 0.000000000000000000e+00 0.000000000000000000e+00 0.000000000000000000e+00
4.773454422999999780e-01 -5.748757053060000288e+01 8.513648983650000446e+01 0.000000000000000000e+00 0.000000000000000000e+00 0.000000000000000000e+00
1.191567712799999956e+00 -5.748579119800000115e+01 8.514625466430000245e+01 0.000000000000000000e+00 0.000000000000000000e+00 0.000000000000000000e+00
2.902611562999999784e+00 -5.732725894189999849e+01 8.496371936260000268e+01 0.000000000000000000e+00 0.000000000000000000e+00 0.000000000000000000e+00
3.012991770899999810e+00 -5.610942614750000246e+01 8.505877842280000323e+01 0.000000000000000000e+00 0.000000000000000000e+00 0.000000000000000000e+00
3.167246597200000124e+00 -5.475681236810000030e+01 8.507353895990000581e+01 0.000000000000000000e+00 0.000000000000000000e+00 0.000000000000000000e+00
4.379532037799999777e+00 -5.402727069200000187e+01 8.502390054830000565e+01 0.000000000000000000e+00 0.000000000000000000e+00 0.000000000000000000e+00
-2.186865461800000077e+00 -5.421592793069999772e+01 8.509345104540000193e+01 0.000000000000000000e+00 0.000000000000000000e+00 0.000000000000000000e+00
2.407336176799999894e+00 -6.552617010049999635e+01 7.453291114040000309e+01 0.000000000000000000e+00 0.000000000000000000e+00 0.000000000000000000e+00
-7.527766662000000553e-01 -5.771036393299999645e+01 8.480924227479999900e+01 0.000000000000000000e+00 0.000000000000000000e+00 0.000000000000000000e+00
-1.227577464000000063e-01 -5.772101935650000115e+01 8.483239639679999300e+01 0.000000000000000000e+00 0.000000000000000000e+00 0.000000000000000000e+00
1.096217416500000041e+00 -5.773292296809999868e+01 8.484679090820000624e+01 0.000000000000000000e+00 0.000000000000000000e+00 0.000000000000000000e+00
1.769866207400000002e+00 -6.448243663040000229e+01 7.593953757040000596e+01 0.000000000000000000e+00 0.000000000000000000e+00 0.000000000000000000e+00
1.747493285000000007e+00 -5.771292751800000076e+01 8.483903145050000205e+01 0.000000000000000000e+00 0.000000000000000000e+00 0.000000000000000000e+00
2.322600209700000029e+00 -5.769774330789999794e+01 8.483656330910000065e+01 0.000000000000000000e+00 0.000000000000000000e+00 0.000000000000000000e+00
-2.000432628999999907e-01 -6.303040841850000220e+01 7.783997691790000317e+01 0.000000000000000000e+00 0.000000000000000000e+00 0.000000000000000000e+00
-1.868796866999999917e-01 -6.557200398790000406e+01 7.448833629909999843e+01 0.000000000000000000e+00 0.000000000000000000e+00 0.000000000000000000e+00
-3.385538369099999834e+00 -5.796820774519999731e+01 7.921426664210000013e+01 0.000000000000000000e+00 0.000000000000000000e+00 0.000000000000000000e+00
-8.110953124999999986e-01 -5.805441564899999918e+01 8.432224954509999293e+01 0.000000000000000000e+00 0.000000000000000000e+00 0.000000000000000000e+00
-1.877318004000000096e-01 -5.806463870409999828e+01 8.435499656380000033e+01 0.000000000000000000e+00 0.000000000000000000e+00 0.000000000000000000e+00
2.912644937600000095e+00 -5.779289855870000281e+01 8.433536272770000153e+01 0.000000000000000000e+00 0.000000000000000000e+00 0.000000000000000000e+00
3.011650191000000198e+00 -5.670558254150000010e+01 8.445825753319999762e+01 0.000000000000000000e+00 0.000000000000000000e+00 0.000000000000000000e+00
4.578238922099999719e+00 -5.423727517969999923e+01 8.459566666140000279e+01 0.000000000000000000e+00 0.000000000000000000e+00 0.000000000000000000e+00
2.421751183600000079e+00 -6.250744030709999777e+01 7.847604062169999395e+01 0.000000000000000000e+00 0.000000000000000000e+00 0.000000000000000000e+00
4.376293390599999888e+00 -6.441330140659999870e+01 6.881805694199999834e+01 0.000000000000000000e+00 0.000000000000000000e+00 0.000000000000000000e+00
3.450030223200000190e+00 -5.517961155769999948e+01 8.422814904800000591e+01 0.000000000000000000e+00 0.000000000000000000e+00 0.000000000000000000e+00
3.715623203099999827e+00 -5.784385008230000125e+01 8.049784993020000456e+01 0.000000000000000000e+00 0.000000000000000000e+00 0.000000000000000000e+00
-1.807290451000000131e-01 -5.853389915740000049e+01 8.374560062509999625e+01 0.000000000000000000e+00 0.000000000000000000e+00 0.000000000000000000e+00
1.145365664000000061e+00 -5.854750133179999949e+01 8.375687736310000275e+01 0.000000000000000000e+00 0.000000000000000000e+00 0.000000000000000000e+00
2.959689626199999868e+00 -5.803648133669999964e+01 8.378297446000000548e+01 0.000000000000000000e+00 0.000000000000000000e+00 0.000000000000000000e+00
3.131460634799999809e+00 -5.594847913350000113e+01 8.373686471739999604e+01 0.000000000000000000e+00 0.000000000000000000e+00 0.000000000000000000e+00
3.328976865300000032e+00 -5.543383159119999704e+01 8.401175513680000506e+01 0.000000000000000000e+00 0.000000000000000000e+00 0.000000000000000000e+00
4.429785332699999856e+00 -5.489825975000000113e+01 8.389983718300000248e+01 0.000000000000000000e+00 0.000000000000000000e+00 0.000000000000000000e+00
-3.488116393199999887e+00 -6.001718159709999867e+01 7.602163143340000317e+01 0.000000000000000000e+00 0.000000000000000000e+00 0.000000000000000000e+00
4.320959423299999713e+00 -5.525380459309999992e+01 8.355576967890000617e+01 0.000000000000000000e+00 0.000000000000000000e+00 0.000000000000000000e+00
4.976606362900000136e+00 -5.856371759310000158e+01 7.846891961439999363e+01 0.000000000000000000e+00 0.000000000000000000e+00 0.000000000000000000e+00
3.024666626000000136e+00 -6.445708907579999902e+01 7.335160439940000288e+01 0.000000000000000000e+00 0.000000000000000000e+00 0.000000000000000000e+00
-1.420511508599999972e+00 -5.087312487500000202e+01 9.147137633020000180e+01 0.000000000000000000e+00 0.000000000000000000e+00 0.000000000000000000e+00
4.071255961999999951e-01 -5.883262876820000287e+01 8.333740622349999683e+01 0.000000000000000000e+00 0.000000000000000000e+00 0.000000000000000000e+00
1.024865640600000072e+00 -5.884717111730000028e+01 8.335349580400000491e+01 0.000000000000000000e+00 0.000000000000000000e+00 0.000000000000000000e+00
1.723824171299999986e+00 -5.883568053829999656e+01 8.335797525789999440e+01 0.000000000000000000e+00 0.000000000000000000e+00 0.000000000000000000e+00
4.834011734299999752e+00 -5.503749508090000120e+01 8.342377506379999375e+01 0.000000000000000000e+00 0.000000000000000000e+00 0.000000000000000000e+00
-1.698277065999999891e-01 -5.914238786840000017e+01 8.295545682430000056e+01 0.000000000000000000e+00 0.000000000000000000e+00 0.000000000000000000e+00
1.177602782099999912e+00 -5.916089961530000352e+01 8.297458256090000361e+01 0.000000000000000000e+00 0.000000000000000000e+00 0.000000000000000000e+00
1.799417336299999892e+00 -5.914117678960000291e+01 8.297750730849999456e+01 0.000000000000000000e+00 0.000000000000000000e+00 0.000000000000000000e+00
2.946921759099999871e+00 -5.864066135619999898e+01 8.302354708779999726e+01 0.000000000000000000e+00 0.000000000000000000e+00 0.000000000000000000e+00
1.857618030999999892e+00 -6.390074107019999872e+01 7.214293308889999423e+01 0.000000000000000000e+00 0.000000000000000000e+00 0.000000000000000000e+00
3.016647326899999815e+00 -5.790668776169999887e+01 8.295725765090000436e+01 0.000000000000000000e+00 0.000000000000000000e+00 0.000000000000000000e+00
3.113800476899999836e+00 -5.659712540400000336e+01 8.289189968700000577e+01 0.000000000000000000e+00 0.000000000000000000e+00 0.000000000000000000e+00
3.226455333500000133e+00 -5.621998829059999991e+01 8.320076982179999447e+01 0.000000000000000000e+00 0.000000000000000000e+00 0.000000000000000000e+00
4.307108632200000287e+00 -5.574986451160000200e+01 8.294650877360000152e+01 0.000000000000000000e+00 0.000000000000000000e+00 0.000000000000000000e+00
4.497251299800000268e+00 -5.544031381890000176e+01 8.318592215459999295e+01 0.000000000000000000e+00 0.000000000000000000e+00 0.000000000000000000e+00
3.642601258400000042e+00 -5.704967047059999885e+01 8.163615418169999316e+01 0.000000000000000000e+00 0.000000000000000000e+00 0.000000000000000000e+00
-2.597989117600000064e+00 -5.771238449669999682e+01 8.025231768940000165e+01 0.000000000000000000e+00 0.000000000000000000e+00 0.000000000000000000e+00
-2.006726471999999983e-01 -5.941259006500000339e+01 8.254522574640000698e+01 0.000000000000000000e+00 0.000000000000000000e+00 0.000000000000000000e+00
4.864591367000000166e-01 -5.972858366949999720e+01 8.221206027120000215e+01 0.000000000000000000e+00 0.000000000000000000e+00 0.000000000000000000e+00
1.162247690600000105e+00 -5.970812715959999650e+01 8.224470589080000593e+01 0.000000000000000000e+00 0.000000000000000000e+00 0.000000000000000000e+00
2.355071322100000142e+00 -5.968854956570000070e+01 8.220548328690000517e+01 0.000000000000000000e+00 0.000000000000000000e+00 0.000000000000000000e+00
2.918873352099999874e+00 -5.924167289279999693e+01 8.237143247459999884e+01 0.000000000000000000e+00 0.000000000000000000e+00 0.000000000000000000e+00
3.014565660999999785e+00 -5.850153945230000119e+01 8.235673207029999787e+01 0.000000000000000000e+00 0.000000000000000000e+00 0.000000000000000000e+00
3.012765682099999953e+00 -5.789035033999999769e+01 8.235721948149999605e+01 0.000000000000000000e+00 0.000000000000000000e+00 0.000000000000000000e+00
3.057384287600000139e+00 -5.717900053209999811e+01 8.230741066080000223e+01 0.000000000000000000e+00 0.000000000000000000e+00 0.000000000000000000e+00
3.223191544200000092e+00 -5.676451482870000120e+01 8.237918781560000525e+01 0.000000000000000000e+00 0.000000000000000000e+00 0.000000000000000000e+00
3.795891449600000023e+00 -5.625764980259999959e+01 8.258204722360000005e+01 0.000000000000000000e+00 0.000000000000000000e+00 0.000000000000000000e+00
3.023039389300000046e+00 -6.028830617930000102e+01 7.905521470499999737e+01 0.000000000000000000e+00 0.000000000000000000e+00 0.000000000000000000e+00
-1.425718515300000044e+00 -5.207492169980000085e+01 8.962278780639999809e+01 0.000000000000000000e+00 0.000000000000000000e+00 0.000000000000000000e+00
-8.045259756999999512e-01 -5.973348357670000297e+01 8.214039704809999876e+01 0.000000000000000000e+00 0.000000000000000000e+00 0.000000000000000000e+00
-1.794265877000000009e-01 -5.974223706130000267e+01 8.215351212570000428e+01 0.000000000000000000e+00 0.000000000000000000e+00 0.000000000000000000e+00
4.820285637999999762e-01 -6.000977363509999662e+01 8.179416356779999830e+01 0.000000000000000000e+00 0.000000000000000000e+00 0.000000000000000000e+00
2.464225250100000153e+00 -5.998725336439999722e+01 8.177717732700000397e+01 0.000000000000000000e+00 0.000000000000000000e+00 0.000000000000000000e+00
2.991351681299999843e+00 -5.924203305929999885e+01 8.186460317220000604e+01 0.000000000000000000e+00 0.000000000000000000e+00 0.000000000000000000e+00
3.021045220300000000e+00 -5.850346787699999851e+01 8.175675957369999480e+01 0.000000000000000000e+00 0.000000000000000000e+00 0.000000000000000000e+00
3.187703087900000121e+00 -5.728117064660000324e+01 8.176157331310000131e+01 0.000000000000000000e+00 0.000000000000000000e+00 0.000000000000000000e+00
3.712585645399999912e+00 -5.680667709930000342e+01 8.194359562990000256e+01 0.000000000000000000e+00 0.000000000000000000e+00 0.000000000000000000e+00
3.099626937900000101e+00 -6.183851962389999812e+01 7.514529501650000043e+01 0.000000000000000000e+00 0.000000000000000000e+00 0.000000000000000000e+00
-2.173747109999999982e-01 -6.573757925030000138e+01 7.392458747199999891e+01 0.000000000000000000e+00 0.000000000000000000e+00 0.000000000000000000e+00
-7.393874501999999627e-01 -6.024083542150000170e+01 8.151351676320000195e+01 0.000000000000000000e+00 0.000000000000000000e+00 0.000000000000000000e+00
-2.435608258999999998e-01 -6.025395341629999990e+01 8.153275607720000551e+01 0.000000000000000000e+00 0.000000000000000000e+00 0.000000000000000000e+00
4.212507913999999909e-01 -6.025970381169999968e+01 8.154920335490000127e+01 0.000000000000000000e+00 0.000000000000000000e+00 0.000000000000000000e+00
1.145773574699999964e+00 -6.025715584070000119e+01 8.155665545559999430e+01 0.000000000000000000e+00 0.000000000000000000e+00 0.000000000000000000e+00
1.793323618100000072e+00 -6.025745608089999905e+01 8.156638017900000648e+01 0.000000000000000000e+00 0.000000000000000000e+00 0.000000000000000000e+00
4.912986334500000218e+00 -5.644062270719999930e+01 8.154691118300000596e+01 0.000000000000000000e+00 0.000000000000000000e+00 0.000000000000000000e+00
-1.335570282999999914e-01 -6.502752692040000682e+01 7.525698137759999895e+01 0.000000000000000000e+00 0.000000000000000000e+00 0.000000000000000000e+00
4.246148211999999589e+00 -5.901835340289999721e+01 7.838580326780000007e+01 0.000000000000000000e+00 0.000000000000000000e+00 0.000000000000000000e+00
-8.475704456999999525e-01 -6.050828739229999798e+01 8.111006228860000533e+01 0.000000000000000000e+00 0.000000000000000000e+00 0.000000000000000000e+00
-1.855039883000000056e-01 -6.056553346439999785e+01 8.106466865199999461e+01 0.000000000000000000e+00 0.000000000000000000e+00 0.000000000000000000e+00
1.148819184699999996e+00 -6.058196078649999805e+01 8.107904366969999899e+01 0.000000000000000000e+00 0.000000000000000000e+00 0.000000000000000000e+00
1.814273146899999967e+00 -6.056275594670000118e+01 8.108896864950000349e+01 0.000000000000000000e+00 0.000000000000000000e+00 0.000000000000000000e+00
3.024884242500000209e+00 -5.910875719399999895e+01 8.115627152029999536e+01 0.000000000000000000e+00 0.000000000000000000e+00 0.000000000000000000e+00
4.326406910500000258e+00 -6.103035259509999833e+01 7.515074291249999305e+01 0.000000000000000000e+00 0.000000000000000000e+00 0.000000000000000000e+00
3.003101941100000172e+00 -5.846234109249999733e+01 8.115663227720000350e+01 0.000000000000000000e+00 0.000000000000000000e+00 0.000000000000000000e+00
3.182746781900000155e+00 -5.784746310220000254e+01 8.102388109890000578e+01 0.000000000000000000e+00 0.000000000000000000e+00 0.000000000000000000e+00
3.781782496099999946e+00 -6.437393663529999799e+01 6.940953579979999688e+01 0.000000000000000000e+00 0.000000000000000000e+00 0.000000000000000000e+00
3.250522044899999852e+00 -5.752193735240000194e+01 8.127424216069999829e+01 0.000000000000000000e+00 0.000000000000000000e+00 0.000000000000000000e+00
3.724599567599999883e+00 -5.735716289039999793e+01 8.115594727100000227e+01 0.000000000000000000e+00 0.000000000000000000e+00 0.000000000000000000e+00
4.583350675300000177e+00 -5.680987383109999911e+01 8.131490343650000341e+01 0.000000000000000000e+00 0.000000000000000000e+00 0.000000000000000000e+00
4.998542000000000263e-01 -6.510126977740000598e+01 7.264549556430000621e+01 0.000000000000000000e+00 0.000000000000000000e+00 0.000000000000000000e+00
-3.211885684199999869e+00 -6.030787494940000215e+01 7.581802461520000236e+01 0.000000000000000000e+00 0.000000000000000000e+00 0.000000000000000000e+00
2.901904415799999803e+00 -6.036845610459999989e+01 8.099737882479999485e+01 0.000000000000000000e+00 0.000000000000000000e+00 0.000000000000000000e+00
1.808654455499999925e+00 -5.939157587390000259e+01 8.255654041239999685e+01 0.000000000000000000e+00 0.000000000000000000e+00 0.000000000000000000e+00
2.390579157199999916e+00 -6.106474628229999979e+01 8.040105753010000456e+01 0.000000000000000000e+00 0.000000000000000000e+00 0.000000000000000000e+00
2.954095398000000205e+00 -6.055479024440000302e+01 8.053728456410000547e+01 0.000000000000000000e+00 0.000000000000000000e+00 0.000000000000000000e+00
3.018042253399999986e+00 -5.908720095919999693e+01 8.055621458740000662e+01 0.000000000000000000e+00 0.000000000000000000e+00 0.000000000000000000e+00
3.254159167800000141e+00 -5.808106790469999936e+01 8.052679069449999361e+01 0.000000000000000000e+00 0.000000000000000000e+00 0.000000000000000000e+00
-8.046704369999999606e-01 -6.356687797229999859e+01 7.706825693759999751e+01 0.000000000000000000e+00 0.000000000000000000e+00 0.000000000000000000e+00
3.903296585200000113e+00 -5.761011663869999921e+01 8.071432310459999826e+01 0.000000000000000000e+00 0.000000000000000000e+00 0.000000000000000000e+00
4.454867428500000059e+00 -5.739127358310000204e+01 8.059906857709999883e+01 0.000000000000000000e+00 0.000000000000000000e+00 0.000000000000000000e+00
2.867059938100000149e+00 -6.541189013880000402e+01 7.439963153850000310e+01 0.000000000000000000e+00 0.000000000000000000e+00 0.000000000000000000e+00
4.506135363800000349e+00 -5.879118576569999988e+01 7.856151371810000228e+01 0.000000000000000000e+00 0.000000000000000000e+00 0.000000000000000000e+00
3.847066551000000167e-01 -6.141371196560000101e+01 7.998624768290000020e+01 0.000000000000000000e+00 0.000000000000000000e+00 0.000000000000000000e+00
1.103084512399999939e+00 -6.142160197220000128e+01 7.998918554460000507e+01 0.000000000000000000e+00 0.000000000000000000e+00 0.000000000000000000e+00
1.756885308800000045e+00 -6.139942426110000184e+01 8.001096961310000211e+01 0.000000000000000000e+00 0.000000000000000000e+00 0.000000000000000000e+00
2.939345044299999987e+00 -6.114898616800000042e+01 7.975744784280000488e+01 0.000000000000000000e+00 0.000000000000000000e+00 0.000000000000000000e+00
3.223908632000000107e+00 -5.857514084820000022e+01 7.986109372069999779e+01 0.000000000000000000e+00 0.000000000000000000e+00 0.000000000000000000e+00
3.788855270700000055e+00 -5.815833411629999716e+01 7.998852806150000561e+01 0.000000000000000000e+00 0.000000000000000000e+00 0.000000000000000000e+00
4.399284730399999788e+00 -5.796009074389999682e+01 7.983210787970000410e+01 0.000000000000000000e+00 0.000000000000000000e+00 0.000000000000000000e+00
-1.694060312000000013e-01 -6.157497051760000062e+01 7.974758761050000544e+01 0.000000000000000000e+00 0.000000000000000000e+00 0.000000000000000000e+00
1.825334234699999891e+00 -6.165106286529999835e+01 7.967601949650000392e+01 0.000000000000000000e+00 0.000000000000000000e+00 0.000000000000000000e+00
3.698223615099999861e+00 -5.847271000570000155e+01 7.958947612369999547e+01 0.000000000000000000e+00 0.000000000000000000e+00 0.000000000000000000e+00
3.234278843699999850e+00 -5.911265971640000316e+01 7.905935297390000471e+01 0.000000000000000000e+00 0.000000000000000000e+00 0.000000000000000000e+00
1.168345960799999972e+00 -6.394372004990000136e+01 7.662270170649999557e+01 0.000000000000000000e+00 0.000000000000000000e+00 0.000000000000000000e+00
4.966381390399999596e+00 -5.976319829439999864e+01 7.662316338910000013e+01 0.000000000000000000e+00 0.000000000000000000e+00 0.000000000000000000e+00
-8.173033238000000367e-01 -6.185846681679999648e+01 7.929780469290000156e+01 0.000000000000000000e+00 0.000000000000000000e+00 0.000000000000000000e+00
-1.740405338000000079e-01 -6.189546027549999963e+01 7.931300660409999637e+01 0.000000000000000000e+00 0.000000000000000000e+00 0.000000000000000000e+00
4.337252283999999958e-01 -6.191644495389999747e+01 7.929702783880000538e+01 0.000000000000000000e+00 0.000000000000000000e+00 0.000000000000000000e+00
1.759050515800000047e+00 -6.190938466970000320e+01 7.929740867190000131e+01 0.000000000000000000e+00 0.000000000000000000e+00 0.000000000000000000e+00
2.440496913600000095e+00 -6.191984532139999686e+01 7.924794611949999990e+01 0.000000000000000000e+00 0.000000000000000000e+00 0.000000000000000000e+00
2.779721316299999856e+00 -6.169052745989999664e+01 7.950218619170000522e+01 0.000000000000000000e+00 0.000000000000000000e+00 0.000000000000000000e+00
4.966451252299999730e+00 -5.779638625759999826e+01 7.957807719769999721e+01 0.000000000000000000e+00 0.000000000000000000e+00 0.000000000000000000e+00
2.903788447200000178e+00 -6.186876609000000116e+01 7.904314351790000615e+01 0.000000000000000000e+00 0.000000000000000000e+00 0.000000000000000000e+00
3.001172274700000031e+00 -6.125568760969999715e+01 7.914128644139999835e+01 0.000000000000000000e+00 0.000000000000000000e+00 0.000000000000000000e+00
3.020499324299999788e+00 -5.967581236360000219e+01 7.905569742529999644e+01 0.000000000000000000e+00 0.000000000000000000e+00 0.000000000000000000e+00
3.795019308000000091e+00 -5.871731840350000198e+01 7.917785997740000425e+01 0.000000000000000000e+00 0.000000000000000000e+00 0.000000000000000000e+00
3.166224490199999853e+00 -6.121790137869999882e+01 7.596082329390000609e+01 0.000000000000000000e+00 0.000000000000000000e+00 0.000000000000000000e+00
2.928681832200000112e+00 -6.509264221249999594e+01 7.466435917210000639e+01 0.000000000000000000e+00 0.000000000000000000e+00 0.000000000000000000e+00
3.151349228199999963e+00 -6.240723929060000330e+01 7.393186101979999592e+01 0.000000000000000000e+00 0.000000000000000000e+00 0.000000000000000000e+00
-1.375122817500000094e+00 -5.018211273770000247e+01 9.417389867609999499e+01 0.000000000000000000e+00 0.000000000000000000e+00 0.000000000000000000e+00
3.004356024099999800e+00 -6.024587469149999919e+01 7.845508271769999453e+01 0.000000000000000000e+00 0.000000000000000000e+00 0.000000000000000000e+00
2.314770217099999972e+00 -6.497212434589999930e+01 7.271626178809999885e+01 0.000000000000000000e+00 0.000000000000000000e+00 0.000000000000000000e+00
-7.604370927000000391e-01 -6.228544795980000259e+01 7.886828336130000139e+01 0.000000000000000000e+00 0.000000000000000000e+00 0.000000000000000000e+00
4.776775134999999839e-01 -6.227563421469999838e+01 7.889597594539999648e+01 0.000000000000000000e+00 0.000000000000000000e+00 0.000000000000000000e+00
1.785935732700000056e+00 -6.226678572899999864e+01 7.890754482580000229e+01 0.000000000000000000e+00 0.000000000000000000e+00 0.000000000000000000e+00
-8.139965821000000323e-01 -6.249100398499999898e+01 7.846106402700000615e+01 0.000000000000000000e+00 0.000000000000000000e+00 0.000000000000000000e+00
-1.888742448000000074e-01 -6.248085938170000020e+01 7.849953677550000464e+01 0.000000000000000000e+00 0.000000000000000000e+00 0.000000000000000000e+00
4.445014977000000256e-01 -6.255512666090000096e+01 7.844379005819999406e+01 0.000000000000000000e+00 0.000000000000000000e+00 0.000000000000000000e+00
1.783658820999999950e+00 -6.257594436330000320e+01 7.843427547640000341e+01 0.000000000000000000e+00 0.000000000000000000e+00 0.000000000000000000e+00
3.000134843100000115e+00 -6.206248088579999944e+01 7.845355950239999743e+01 0.000000000000000000e+00 0.000000000000000000e+00 0.000000000000000000e+00
2.873691242200000051e+00 -6.438490214959999491e+01 7.280046875989999933e+01 0.000000000000000000e+00 0.000000000000000000e+00 0.000000000000000000e+00
2.883877807899999812e+00 -6.357951298340000079e+01 7.200118033069999512e+01 0.000000000000000000e+00 0.000000000000000000e+00 0.000000000000000000e+00
-2.069677474200000145e+00 -5.589721733910000268e+01 8.307328600740000013e+01 0.000000000000000000e+00 0.000000000000000000e+00 0.000000000000000000e+00
-7.745520715999999473e-01 -6.302099970799999795e+01 7.781040613499999381e+01 0.000000000000000000e+00 0.000000000000000000e+00 0.000000000000000000e+00
1.131145027999999941e+00 -6.307763524370000141e+01 7.777214080570000476e+01 0.000000000000000000e+00 0.000000000000000000e+00 0.000000000000000000e+00
1.766533601599999947e+00 -6.306683321789999752e+01 7.779597660500000700e+01 0.000000000000000000e+00 0.000000000000000000e+00 0.000000000000000000e+00
2.416467012800000091e+00 -6.303765408019999938e+01 7.780601950439999825e+01 0.000000000000000000e+00 0.000000000000000000e+00 0.000000000000000000e+00
3.037478679899999978e+00 -6.029477243499999872e+01 7.785527909340000008e+01 0.000000000000000000e+00 0.000000000000000000e+00 0.000000000000000000e+00
3.776213287400000063e+00 -5.948561950959999933e+01 7.802399438310000335e+01 0.000000000000000000e+00 0.000000000000000000e+00 0.000000000000000000e+00
-2.541325663199999862e+00 -6.225019980849999968e+01 7.308960479009999744e+01 0.000000000000000000e+00 0.000000000000000000e+00 0.000000000000000000e+00
2.842724596600000098e+00 -6.298914493670000070e+01 7.770154718780000280e+01 0.000000000000000000e+00 0.000000000000000000e+00 0.000000000000000000e+00
4.438941404999999785e-01 -6.358637507979999981e+01 7.712163711190000015e+01 0.000000000000000000e+00 0.000000000000000000e+00 0.000000000000000000e+00
1.857260546100000020e+00 -6.340979936600000144e+01 7.737249857659999464e+01 0.000000000000000000e+00 0.000000000000000000e+00 0.000000000000000000e+00
-8.978003230000000112e-01 -4.675563783489999992e+01 9.376117723699999829e+01 0.000000000000000000e+00 0.000000000000000000e+00 0.000000000000000000e+00
2.931742019100000096e+00 -6.313894196580000084e+01 7.731742599070000210e+01 0.000000000000000000e+00 0.000000000000000000e+00 0.000000000000000000e+00
3.020978418599999937e+00 -6.126875821400000177e+01 7.720432844600000521e+01 0.000000000000000000e+00 0.000000000000000000e+00 0.000000000000000000e+00
3.329192470400000214e+00 -6.003333715280000149e+01 7.746329871470000228e+01 0.000000000000000000e+00 0.000000000000000000e+00 0.000000000000000000e+00
3.737314628600000077e+00 -5.997747326249999844e+01 7.725951273830000332e+01 0.000000000000000000e+00 0.000000000000000000e+00 0.000000000000000000e+00
4.346568574199999979e+00 -5.974474879689999796e+01 7.720306357709999645e+01 0.000000000000000000e+00 0.000000000000000000e+00 0.000000000000000000e+00
-2.742609039099999979e+00 -4.933147233489999905e+01 9.014860265539999773e+01 0.000000000000000000e+00 0.000000000000000000e+00 0.000000000000000000e+00
5.911485790999999601e-01 -6.416897071789999529e+01 7.648300887489999411e+01 0.000000000000000000e+00 0.000000000000000000e+00 0.000000000000000000e+00
-2.102326776800000019e+00 -6.350825735040000097e+01 7.126485548280000160e+01 0.000000000000000000e+00 0.000000000000000000e+00 0.000000000000000000e+00
-1.786878483999999878e-01 -6.392270442400000263e+01 7.662375886959999605e+01 0.000000000000000000e+00 0.000000000000000000e+00 0.000000000000000000e+00
4.910749153000000256e-01 -6.392706283230000253e+01 7.663115943239999694e+01 0.000000000000000000e+00 0.000000000000000000e+00 0.000000000000000000e+00
3.028354080899999801e+00 -6.329977730750000120e+01 7.665270002610000688e+01 0.000000000000000000e+00 0.000000000000000000e+00 0.000000000000000000e+00
3.025073929900000014e+00 -6.268597878839999993e+01 7.665317805550000685e+01 0.000000000000000000e+00 0.000000000000000000e+00 0.000000000000000000e+00
3.032154982999999859e+00 -6.209044611569999716e+01 7.665372175749999428e+01 0.000000000000000000e+00 0.000000000000000000e+00 0.000000000000000000e+00
3.038336046600000007e+00 -6.118931888670000063e+01 7.665450916519999680e+01 0.000000000000000000e+00 0.000000000000000000e+00 0.000000000000000000e+00
3.312890146199999997e+00 -6.061744672049999849e+01 7.657888314250000406e+01 0.000000000000000000e+00 0.000000000000000000e+00 0.000000000000000000e+00
4.005159743100000114e+00 -6.016004178250000223e+01 7.681288528519999659e+01 0.000000000000000000e+00 0.000000000000000000e+00 0.000000000000000000e+00
4.469047404800000400e+00 -6.001199104269999651e+01 7.668069004410000389e+01 0.000000000000000000e+00 0.000000000000000000e+00 0.000000000000000000e+00
1.824984568799999929e+00 -4.851797010819999656e+01 9.499256898439999475e+01 0.000000000000000000e+00 0.000000000000000000e+00 0.000000000000000000e+00
-8.983102340000000130e-02 -6.418449838780000505e+01 7.647769496799999445e+01 0.000000000000000000e+00 0.000000000000000000e+00 0.000000000000000000e+00
1.787271477100000006e+00 -6.420236512600000367e+01 7.634563529170000606e+01 0.000000000000000000e+00 0.000000000000000000e+00 0.000000000000000000e+00
2.294707713999999843e+00 -6.413210859790000029e+01 7.649630067859999372e+01 0.000000000000000000e+00 0.000000000000000000e+00 0.000000000000000000e+00
4.346078641600000125e+00 -6.173748262739999859e+01 7.392331583150000540e+01 0.000000000000000000e+00 0.000000000000000000e+00 0.000000000000000000e+00
3.197551047300000171e+00 -6.194589836280000128e+01 7.456718982440000332e+01 0.000000000000000000e+00 0.000000000000000000e+00 0.000000000000000000e+00
-1.465813272699999947e+00 -6.452501029399999766e+01 7.391581349160000514e+01 0.000000000000000000e+00 0.000000000000000000e+00 0.000000000000000000e+00
-2.021110522000000020e-01 -6.446685691529999929e+01 7.594941907579999452e+01 0.000000000000000000e+00 0.000000000000000000e+00 0.000000000000000000e+00
1.137017343199999919e+00 -6.446974154229999954e+01 7.595781595729999935e+01 0.000000000000000000e+00 0.000000000000000000e+00 0.000000000000000000e+00
2.891089601000000009e+00 -6.438216909860000214e+01 7.580887207019999607e+01 0.000000000000000000e+00 0.000000000000000000e+00 0.000000000000000000e+00
3.009760197499999901e+00 -6.386314587340000060e+01 7.590206639420000556e+01 0.000000000000000000e+00 0.000000000000000000e+00 0.000000000000000000e+00
3.012080927600000013e+00 -6.265120527500000236e+01 7.590307874379999475e+01 0.000000000000000000e+00 0.000000000000000000e+00 0.000000000000000000e+00
3.345781227099999811e+00 -6.081217164880000325e+01 7.620719590650000441e+01 0.000000000000000000e+00 0.000000000000000000e+00 0.000000000000000000e+00
4.384784454300000078e+00 -6.051803014349999899e+01 7.593113037999999904e+01 0.000000000000000000e+00 0.000000000000000000e+00 0.000000000000000000e+00
4.684477958499999595e+00 -6.013209080069999857e+01 7.621817509539999946e+01 0.000000000000000000e+00 0.000000000000000000e+00 0.000000000000000000e+00
3.588853169900000140e+00 -6.099733742530000313e+01 7.571497706979999975e+01 0.000000000000000000e+00 0.000000000000000000e+00 0.000000000000000000e+00
4.961885292299999861e+00 -6.030778751270000271e+01 7.578200566249999781e+01 0.000000000000000000e+00 0.000000000000000000e+00 0.000000000000000000e+00
4.651964700099999739e+00 -5.624396206219999783e+01 8.201899442500000248e+01 0.000000000000000000e+00 0.000000000000000000e+00 0.000000000000000000e+00
1.783080350499999911e+00 -6.505432608050000454e+01 7.522498834430000159e+01 0.000000000000000000e+00 0.000000000000000000e+00 0.000000000000000000e+00
2.877512875299999884e+00 -6.483416983659999744e+01 7.515021357039999828e+01 0.000000000000000000e+00 0.000000000000000000e+00 0.000000000000000000e+00
3.027850807700000146e+00 -6.388316989869999674e+01 7.515216410050000206e+01 0.000000000000000000e+00 0.000000000000000000e+00 0.000000000000000000e+00
3.029011172700000198e+00 -6.327719959939999939e+01 7.515267027529999666e+01 0.000000000000000000e+00 0.000000000000000000e+00 0.000000000000000000e+00
3.790983309500000065e+00 -6.121407943269999663e+01 7.523677115789999448e+01 0.000000000000000000e+00 0.000000000000000000e+00 0.000000000000000000e+00
4.656319477200000279e+00 -6.072589460649999893e+01 7.535372777109999731e+01 0.000000000000000000e+00 0.000000000000000000e+00 0.000000000000000000e+00
-1.390125471099999954e+00 -5.327825830140000107e+01 8.889104035149999561e+01 0.000000000000000000e+00 0.000000000000000000e+00 0.000000000000000000e+00
-1.644063088100000014e+00 -5.496467752209999702e+01 8.454299851640000441e+01 0.000000000000000000e+00 0.000000000000000000e+00 0.000000000000000000e+00
3.414566603299999947e+00 -6.152246095139999937e+01 7.500710593780000579e+01 0.000000000000000000e+00 0.000000000000000000e+00 0.000000000000000000e+00
-7.835520593999999450e-01 -6.552311634599999479e+01 7.455911406970000144e+01 0.000000000000000000e+00 0.000000000000000000e+00 0.000000000000000000e+00
4.052129467999999735e-01 -6.555651976229999889e+01 7.456064329429999304e+01 0.000000000000000000e+00 0.000000000000000000e+00 0.000000000000000000e+00
3.010008000600000067e+00 -6.262618840599999714e+01 7.455303508090000264e+01 0.000000000000000000e+00 0.000000000000000000e+00 0.000000000000000000e+00
3.851586660300000187e+00 -6.145498403780000274e+01 7.480075699569999870e+01 0.000000000000000000e+00 0.000000000000000000e+00 0.000000000000000000e+00
-1.907721521999999892e-01 -6.484293066409999540e+01 6.938193881460000512e+01 0.000000000000000000e+00 0.000000000000000000e+00 0.000000000000000000e+00
-1.338586357100000068e+00 -6.057819168959999701e+01 8.045785534399999506e+01 0.000000000000000000e+00 0.000000000000000000e+00 0.000000000000000000e+00
-1.429257791900000019e+00 -5.532419163339999812e+01 8.704588174859999583e+01 0.000000000000000000e+00 0.000000000000000000e+00 0.000000000000000000e+00
2.329538579699999890e+00 -6.450425902610000151e+01 7.208522950840000476e+01 0.000000000000000000e+00 0.000000000000000000e+00 0.000000000000000000e+00
4.138289979499999660e+00 -6.157279216780000297e+01 7.441267720209999936e+01 0.000000000000000000e+00 0.000000000000000000e+00 0.000000000000000000e+00
1.154043039500000090e+00 -6.573350721430000476e+01 7.397317699379999567e+01 0.000000000000000000e+00 0.000000000000000000e+00 0.000000000000000000e+00
1.851681039400000062e+00 -6.572298527719999583e+01 7.394433639199999675e+01 0.000000000000000000e+00 0.000000000000000000e+00 0.000000000000000000e+00
2.871039803700000004e+00 -6.541415905450000423e+01 7.409964998099999889e+01 0.000000000000000000e+00 0.000000000000000000e+00 0.000000000000000000e+00
2.961303382900000170e+00 -6.516477665280000053e+01 7.390055012509999699e+01 0.000000000000000000e+00 0.000000000000000000e+00 0.000000000000000000e+00
3.805146699199999816e+00 -6.194985330400000123e+01 7.396821308559999864e+01 0.000000000000000000e+00 0.000000000000000000e+00 0.000000000000000000e+00
5.260339851999999983e-01 -6.521799211200000457e+01 7.318152390340000579e+01 0.000000000000000000e+00 0.000000000000000000e+00 0.000000000000000000e+00
1.082205710900000062e+00 -6.428853729479999402e+01 7.060736251939999875e+01 0.000000000000000000e+00 0.000000000000000000e+00 0.000000000000000000e+00
3.539874637400000079e+00 -6.220198509869999981e+01 7.376103922539999758e+01 0.000000000000000000e+00 0.000000000000000000e+00 0.000000000000000000e+00
4.830929743199999571e+00 -6.156832584549999865e+01 7.381805144870000390e+01 0.000000000000000000e+00 0.000000000000000000e+00 0.000000000000000000e+00
-8.214584770999999730e-01 -6.567579849240000556e+01 7.333831095680000089e+01 0.000000000000000000e+00 0.000000000000000000e+00 0.000000000000000000e+00
-1.913334469000000093e-01 -6.575494354769999461e+01 7.331532542249999551e+01 0.000000000000000000e+00 0.000000000000000000e+00 0.000000000000000000e+00
4.557201591000000218e-01 -6.570319626239999877e+01 7.334581938809999713e+01 0.000000000000000000e+00 0.000000000000000000e+00 0.000000000000000000e+00
1.152691327299999902e+00 -6.565791707799999699e+01 7.334993988269999932e+01 0.000000000000000000e+00 0.000000000000000000e+00 0.000000000000000000e+00
2.323626764400000155e+00 -6.569529418630000350e+01 7.346665657970000041e+01 0.000000000000000000e+00 0.000000000000000000e+00 0.000000000000000000e+00
3.015465786800000103e+00 -6.383285293029999963e+01 7.335204490149999401e+01 0.000000000000000000e+00 0.000000000000000000e+00 0.000000000000000000e+00
3.209071417000000093e+00 -6.261157166360000303e+01 7.329147468060000392e+01 0.000000000000000000e+00 0.000000000000000000e+00 0.000000000000000000e+00
3.748787313399999821e+00 -6.231208296260000168e+01 7.338163346950000232e+01 0.000000000000000000e+00 0.000000000000000000e+00 0.000000000000000000e+00
4.424286157700000111e+00 -6.198939932609999914e+01 7.343401198899999827e+01 0.000000000000000000e+00 0.000000000000000000e+00 0.000000000000000000e+00
-8.862510681999999917e-01 -6.516032762749999563e+01 7.317057710820000693e+01 0.000000000000000000e+00 0.000000000000000000e+00 0.000000000000000000e+00
1.196652383500000028e+00 -6.518419859579999809e+01 7.318677213780000557e+01 0.000000000000000000e+00 0.000000000000000000e+00 0.000000000000000000e+00
-3.509240156100000174e+00 -6.197269514460000295e+01 7.268877760350000017e+01 0.000000000000000000e+00 0.000000000000000000e+00 0.000000000000000000e+00
-8.247787640000000531e-01 -6.390004545229999877e+01 7.138240249749999577e+01 0.000000000000000000e+00 0.000000000000000000e+00 0.000000000000000000e+00
3.750470989000000088e+00 -6.263820651750000224e+01 7.282520582019999722e+01 0.000000000000000000e+00 0.000000000000000000e+00 0.000000000000000000e+00
4.361974345700000200e+00 -6.244281497299999728e+01 7.269464422800000136e+01 0.000000000000000000e+00 0.000000000000000000e+00 0.000000000000000000e+00
-3.268476358000000026e+00 -6.222726882930000158e+01 7.252341609399999811e+01 0.000000000000000000e+00 0.000000000000000000e+00 0.000000000000000000e+00
-8.147536075000000322e-01 -6.436485273559999598e+01 7.257176494579999826e+01 0.000000000000000000e+00 0.000000000000000000e+00 0.000000000000000000e+00
-2.694198847000000008e-01 -6.441420186249999347e+01 7.257596967569999435e+01 0.000000000000000000e+00 0.000000000000000000e+00 0.000000000000000000e+00
3.507732195200000014e+00 -6.286475735850000035e+01 7.260664454599999829e+01 0.000000000000000000e+00 0.000000000000000000e+00 0.000000000000000000e+00
4.952362409300000046e+00 -6.222553935740000242e+01 7.255495276819999617e+01 0.000000000000000000e+00 0.000000000000000000e+00 0.000000000000000000e+00
-1.870976833799999905e+00 -6.222868304459999678e+01 7.374532393040000500e+01 0.000000000000000000e+00 0.000000000000000000e+00 0.000000000000000000e+00
-8.476514066000000458e-01 -6.389518338300000266e+01 7.217187993160000303e+01 0.000000000000000000e+00 0.000000000000000000e+00 0.000000000000000000e+00
4.978790842999999966e-01 -6.393571052010000244e+01 7.213231934780000643e+01 0.000000000000000000e+00 0.000000000000000000e+00 0.000000000000000000e+00
2.510474364899999866e+00 -6.383563467479999787e+01 7.214806874159999950e+01 0.000000000000000000e+00 0.000000000000000000e+00 0.000000000000000000e+00
3.217161990500000179e+00 -6.327524390260000331e+01 7.206294779479999590e+01 0.000000000000000000e+00 0.000000000000000000e+00 0.000000000000000000e+00
4.413253278900000076e+00 -6.268515595350000069e+01 7.212046262949999686e+01 0.000000000000000000e+00 0.000000000000000000e+00 0.000000000000000000e+00
-2.603793478900000125e+00 -6.293078349040000319e+01 7.186950287809999338e+01 0.000000000000000000e+00 0.000000000000000000e+00 0.000000000000000000e+00
-1.675282494900000030e+00 -6.323315452050000118e+01 7.202976957219999576e+01 0.000000000000000000e+00 0.000000000000000000e+00 0.000000000000000000e+00
4.292377406700000009e+00 -6.293270333689999774e+01 7.181030740090000108e+01 0.000000000000000000e+00 0.000000000000000000e+00 0.000000000000000000e+00
-3.515251746300000146e+00 -6.265349920159999897e+01 7.148995922970000549e+01 0.000000000000000000e+00 0.000000000000000000e+00 0.000000000000000000e+00
-2.774669983099999904e+00 -6.309686849340000236e+01 7.145314976999999601e+01 0.000000000000000000e+00 0.000000000000000000e+00 0.000000000000000000e+00
-1.693088851700000008e+00 -6.341689442469999705e+01 7.163889361069999495e+01 0.000000000000000000e+00 0.000000000000000000e+00 0.000000000000000000e+00
-1.419343790099999891e+00 -6.367727597639999715e+01 7.140461131600000044e+01 0.000000000000000000e+00 0.000000000000000000e+00 0.000000000000000000e+00
-1.809214356000000135e-01 -6.394782891389999691e+01 7.141467036299999904e+01 0.000000000000000000e+00 0.000000000000000000e+00 0.000000000000000000e+00
5.145480849000000356e-01 -6.397995712710000049e+01 7.141938085939999326e+01 0.000000000000000000e+00 0.000000000000000000e+00 0.000000000000000000e+00
1.211283136500000079e+00 -6.396481195430000355e+01 7.142402834550000534e+01 0.000000000000000000e+00 0.000000000000000000e+00 0.000000000000000000e+00
-3.237460422799999904e+00 -6.293990240579999806e+01 7.134038725649999435e+01 0.000000000000000000e+00 0.000000000000000000e+00 0.000000000000000000e+00
3.697880299499999968e+00 -6.350707641919999702e+01 7.126597148140000115e+01 0.000000000000000000e+00 0.000000000000000000e+00 0.000000000000000000e+00
3.783042764300000194e+00 -6.325971302319999978e+01 7.147357059079999431e+01 0.000000000000000000e+00 0.000000000000000000e+00 0.000000000000000000e+00
4.351922314800000358e+00 -6.313573559499999988e+01 7.139573989049999625e+01 0.000000000000000000e+00 0.000000000000000000e+00 0.000000000000000000e+00
-1.464420029300000037e+00 -5.931233077920000341e+01 8.045440345810000338e+01 0.000000000000000000e+00 0.000000000000000000e+00 0.000000000000000000e+00
4.950484294799999851e+00 -6.299541889780000048e+01 7.117637569459999725e+01 0.000000000000000000e+00 0.000000000000000000e+00 0.000000000000000000e+00
5.680537656999999907e-01 -6.458274821679999889e+01 7.000422058179999851e+01 0.000000000000000000e+00 0.000000000000000000e+00 0.000000000000000000e+00
-2.686093517499999805e+00 -6.358702598090000180e+01 7.056299721220000265e+01 0.000000000000000000e+00 0.000000000000000000e+00 0.000000000000000000e+00
-1.517914100200000060e+00 -6.391336878450000114e+01 7.069815949930000443e+01 0.000000000000000000e+00 0.000000000000000000e+00 0.000000000000000000e+00
-8.615419761999999482e-01 -6.400286498180000194e+01 7.084838748479999992e+01 0.000000000000000000e+00 0.000000000000000000e+00 0.000000000000000000e+00
-8.385091838999999547e-01 -6.419140921189999460e+01 7.052009107889999484e+01 0.000000000000000000e+00 0.000000000000000000e+00 0.000000000000000000e+00
-2.428723874000000005e-01 -6.426350929340000562e+01 7.054876469219999535e+01 0.000000000000000000e+00 0.000000000000000000e+00 0.000000000000000000e+00
2.398647722299999785e+00 -6.397239074120000168e+01 7.090003694620000374e+01 0.000000000000000000e+00 0.000000000000000000e+00 0.000000000000000000e+00
3.161898359199999842e+00 -6.387392348790000085e+01 7.077753356159999498e+01 0.000000000000000000e+00 0.000000000000000000e+00 0.000000000000000000e+00
4.290072953200000150e+00 -6.356170268999999706e+01 7.061713237870000626e+01 0.000000000000000000e+00 0.000000000000000000e+00 0.000000000000000000e+00
4.518298908300000249e+00 -6.330485727220000314e+01 7.081483858859999714e+01 0.000000000000000000e+00 0.000000000000000000e+00 0.000000000000000000e+00
-1.470331944600000051e+00 -5.737469922689999891e+01 8.240011915019999833e+01 0.000000000000000000e+00 0.000000000000000000e+00 0.000000000000000000e+00
-1.393755818800000101e+00 -5.025941412459999924e+01 9.286778544290000070e+01 0.000000000000000000e+00 0.000000000000000000e+00 0.000000000000000000e+00
-1.260969874399999968e+00 -6.415300003359999437e+01 7.046839038230000085e+01 0.000000000000000000e+00 0.000000000000000000e+00 0.000000000000000000e+00
2.882634448700000185e+00 -6.416160087129999567e+01 7.050063971420000541e+01 0.000000000000000000e+00 0.000000000000000000e+00 0.000000000000000000e+00
-3.338184905099999877e+00 -6.357678310400000044e+01 7.001251846229999387e+01 0.000000000000000000e+00 0.000000000000000000e+00 0.000000000000000000e+00
-2.798078078600000129e+00 -6.382876385019999788e+01 7.001465599040000143e+01 0.000000000000000000e+00 0.000000000000000000e+00 0.000000000000000000e+00
-7.839561658999999461e-01 -6.446212610530000120e+01 6.997017042660000641e+01 0.000000000000000000e+00 0.000000000000000000e+00 0.000000000000000000e+00
-1.277379611999999998e-01 -6.454847392870000533e+01 6.999968752350000045e+01 0.000000000000000000e+00 0.000000000000000000e+00 0.000000000000000000e+00
1.218909614900000049e+00 -6.457291013969999938e+01 6.999117622519999316e+01 0.000000000000000000e+00 0.000000000000000000e+00 0.000000000000000000e+00
3.162163119300000158e+00 -6.427056519079999930e+01 7.001748259939999741e+01 0.000000000000000000e+00 0.000000000000000000e+00 0.000000000000000000e+00
4.350688593900000178e+00 -6.382719387270000055e+01 7.004047424280000200e+01 0.000000000000000000e+00 0.000000000000000000e+00 0.000000000000000000e+00
4.888275145099999719e+00 -6.355331962289999836e+01 7.007097496480000132e+01 0.000000000000000000e+00 0.000000000000000000e+00 0.000000000000000000e+00
-3.426075995700000210e+00 -6.383012956209999800e+01 6.939635190570000134e+01 0.000000000000000000e+00 0.000000000000000000e+00 0.000000000000000000e+00
-2.960479373400000114e+00 -6.399593064929999997e+01 6.946971120470000471e+01 0.000000000000000000e+00 0.000000000000000000e+00 0.000000000000000000e+00
-2.695989495600000119e+00 -6.422174005739999814e+01 6.933637314560000675e+01 0.000000000000000000e+00 0.000000000000000000e+00 0.000000000000000000e+00
-1.507093009299999897e+00 -6.458270216600000424e+01 6.939081215820000637e+01 0.000000000000000000e+00 0.000000000000000000e+00 0.000000000000000000e+00
