2.406315280899999909e+00 6.642936965149999651e+01 6.381374381299999676e+00 0.000000000000000000e+00 0.000000000000000000e+00 0.000000000000000000e+00
-4.040944917000000025e+00 6.235647955430000167e+01 3.016265202490000163e+01 0.000000000000000000e+00 0.000000000000000000e+00 0.000000000000000000e+00
6.587675493299999907e+00 6.185657849270000241e+01 3.010167974180000172e+01 0.000000000000000000e+00 0.000000000000000000e+00 0.000000000000000000e+00
5.067025503900000061e+00 6.407467847600000255e+01 2.721304661879999998e+01 0.000000000000000000e+00 0.000000000000000000e+00 0.000000000000000000e+00
8.328829936200000006e+00 5.986573438109999756e+01 2.783572693429999845e+01 0.000000000000000000e+00 0.000000000000000000e+00 0.000000000000000000e+00
-9.206105321900000860e+00 6.134001983600000329e+01 1.397513938570000036e+01 0.000000000000000000e+00 0.000000000000000000e+00 0.000000000000000000e+00
8.271540650400000416e+00 6.104826808499999657e+01 2.131921699769999989e+01 0.000000000000000000e+00 0.000000000000000000e+00 0.000000000000000000e+00
-2.141760674799999986e+00 6.577086990959999468e+01 1.345462765209999922e+01 0.000000000000000000e+00 0.000000000000000000e+00 0.000000000000000000e+00
-4.630915599399999749e+00 6.569577114460000189e+01 1.347310825509999965e+01 0.000000000000000000e+00 0.000000000000000000e+00 0.000000000000000000e+00
5.738722265699999880e+00 6.155683891609999847e+01 2.995748751469999860e+01 0.000000000000000000e+00 0.000000000000000000e+00 0.000000000000000000e+00
5.659417984700000126e+00 6.527563708899999995e+01 1.806021529870000109e+01 0.000000000000000000e+00 0.000000000000000000e+00 0.000000000000000000e+00
-7.767482551499999666e+00 6.075783071019999682e+01 2.251689152180000164e+01 0.000000000000000000e+00 0.000000000000000000e+00 0.000000000000000000e+00
5.553376882800000303e+00 6.637536207760000195e+01 8.917113672099999278e+00 0.000000000000000000e+00 0.000000000000000000e+00 0.000000000000000000e+00
-1.750466146000000112e-01 6.483687228099999800e+01 2.124225277380000065e+01 0.000000000000000000e+00 0.000000000000000000e+00 0.000000000000000000e+00
2.418919191200000096e+00 6.464374498440000139e+01 2.277816447549999879e+01 0.000000000000000000e+00 0.000000000000000000e+00 0.000000000000000000e+00
5.006963657600000062e+00 6.377969852719999722e+01 2.908302112570000020e+01 0.000000000000000000e+00 0.000000000000000000e+00 0.000000000000000000e+00
7.799875691499999597e+00 6.321712267699999899e+01 2.058655381970000064e+01 0.000000000000000000e+00 0.000000000000000000e+00 0.000000000000000000e+00
-6.032752783800000351e+00 5.986853719919999861e+01 3.176028151499999908e+01 0.000000000000000000e+00 0.000000000000000000e+00 0.000000000000000000e+00
-7.524105304899999958e+00 6.231077747879999862e+01 1.291160915809999921e+01 0.000000000000000000e+00 0.000000000000000000e+00 0.000000000000000000e+00
-8.426356256000000489e-01 6.411245299380000517e+01 2.655764117889999909e+01 0.000000000000000000e+00 0.000000000000000000e+00 0.000000000000000000e+00
5.660653728699999832e+00 6.396184330319999845e+01 4.249144432099999591e+00 0.000000000000000000e+00 0.000000000000000000e+00 0.000000000000000000e+00
3.067450835899999895e+00 6.636737537359999806e+01 8.349931359199999292e+00 0.000000000000000000e+00 0.000000000000000000e+00 0.000000000000000000e+00
-7.222369378299999809e+00 6.288067795799999971e+01 2.520870874250000071e+01 0.000000000000000000e+00 0.000000000000000000e+00 0.000000000000000000e+00
6.966811244699999683e+00 6.380771608290000074e+01 2.912677622160000013e+01 0.000000000000000000e+00 0.000000000000000000e+00 0.000000000000000000e+00
7.785657751399999604e+00 6.575075700310000570e+01 7.704387270299999813e+00 0.000000000000000000e+00 0.000000000000000000e+00 0.000000000000000000e+00
7.019609100800000334e+00 6.362525632780000251e+01 3.191699652300000078e+00 0.000000000000000000e+00 0.000000000000000000e+00 0.000000000000000000e+00
-4.048623020399999994e+00 6.310696463709999904e+01 2.991506209989999832e+01 0.000000000000000000e+00 0.000000000000000000e+00 0.000000000000000000e+00
7.777645826199999668e+00 6.569966456589999382e+01 1.025414427880000012e+01 0.000000000000000000e+00 0.000000000000000000e+00 0.000000000000000000e+00
9.039278892500000495e+00 6.256395987359999822e+01 7.076795715000000264e+00 0.000000000000000000e+00 0.000000000000000000e+00 0.000000000000000000e+00
-7.241922397399999767e+00 6.344535807569999974e+01 2.010747222359999853e+01 0.000000000000000000e+00 0.000000000000000000e+00 0.000000000000000000e+00
3.687267802000000039e+00 6.474440847459999304e+01 2.199998718399999831e+01 0.000000000000000000e+00 0.000000000000000000e+00 0.000000000000000000e+00
7.629367915399999589e+00 6.354132916220000027e+01 5.638952975399999623e+00 0.000000000000000000e+00 0.000000000000000000e+00 0.000000000000000000e+00
4.375529094300000033e+00 6.400011014780000096e+01 2.781639237530000131e+01 0.000000000000000000e+00 0.000000000000000000e+00 0.000000000000000000e+00
5.240001778999999749e-01 6.627928207280000095e+01 8.943928259599999819e+00 0.000000000000000000e+00 0.000000000000000000e+00 0.000000000000000000e+00
7.845578365599999771e+00 6.082079499240000331e+01 2.776938034000000144e+01 0.000000000000000000e+00 0.000000000000000000e+00 0.000000000000000000e+00
-6.890996222100000068e+00 5.935583440759999974e+01 3.196424782700000122e+01 0.000000000000000000e+00 0.000000000000000000e+00 0.000000000000000000e+00
4.774556165899999982e+00 6.655018083289999709e+01 7.571176441100000432e+00 0.000000000000000000e+00 0.000000000000000000e+00 0.000000000000000000e+00
8.993725256299999415e+00 6.080792822869999981e+01 2.056481023519999951e+01 0.000000000000000000e+00 0.000000000000000000e+00 0.000000000000000000e+00
3.263575000499999934e+00 6.655217493479999291e+01 7.076707427199999678e+00 0.000000000000000000e+00 0.000000000000000000e+00 0.000000000000000000e+00
-2.491995294000000083e-01 6.656042127599999958e+01 6.512236436600000289e+00 0.000000000000000000e+00 0.000000000000000000e+00 0.000000000000000000e+00
1.724855318299999940e+00 6.454304644890000020e+01 4.976411263200000157e+00 0.000000000000000000e+00 0.000000000000000000e+00 0.000000000000000000e+00
-7.497318743600000168e+00 6.253549230840000206e+01 1.081088045519999952e+01 0.000000000000000000e+00 0.000000000000000000e+00 0.000000000000000000e+00
-9.926116840000000219e-02 6.457423161010000001e+01 2.290667658499999959e+01 0.000000000000000000e+00 0.000000000000000000e+00 0.000000000000000000e+00
5.173339781000000137e+00 6.555300216829999727e+01 1.549392504270000082e+01 0.000000000000000000e+00 0.000000000000000000e+00 0.000000000000000000e+00
8.908746635800000035e+00 6.189096937960000133e+01 1.358266689989999954e+01 0.000000000000000000e+00 0.000000000000000000e+00 0.000000000000000000e+00
-2.808553469300000049e+00 6.096056291000000016e+01 3.115860771870000079e+01 0.000000000000000000e+00 0.000000000000000000e+00 0.000000000000000000e+00
-8.287529536399999230e+00 5.933586200690000112e+01 2.867366450160000113e+01 0.000000000000000000e+00 0.000000000000000000e+00 0.000000000000000000e+00
-7.444111503000000463e-01 6.437954352719999918e+01 2.453821801639999833e+01 0.000000000000000000e+00 0.000000000000000000e+00 0.000000000000000000e+00
7.830968222100000098e+00 6.319070250970000302e+01 2.598645277720000024e+01 0.000000000000000000e+00 0.000000000000000000e+00 0.000000000000000000e+00
-1.423178022699999934e+00 6.310688337050000030e+01 2.995855651209999948e+01 0.000000000000000000e+00 0.000000000000000000e+00 0.000000000000000000e+00
5.598605530899999572e+00 6.455546976659999814e+01 2.271805991740000152e+01 0.000000000000000000e+00 0.000000000000000000e+00 0.000000000000000000e+00
-5.657212670499999874e+00 6.110658413329999661e+01 3.008663118229999967e+01 0.000000000000000000e+00 0.000000000000000000e+00 0.000000000000000000e+00
-4.123775641299999961e+00 6.520529563709999366e+01 1.753245654150000021e+01 0.000000000000000000e+00 0.000000000000000000e+00 0.000000000000000000e+00
-7.195429704300000395e+00 6.339994089919999709e+01 3.778056012299999988e+00 0.000000000000000000e+00 0.000000000000000000e+00 0.000000000000000000e+00
4.341434133000000029e-01 6.585059598150000681e+01 1.286386284950000025e+01 0.000000000000000000e+00 0.000000000000000000e+00 0.000000000000000000e+00
6.370767887899999593e+00 6.228502346639999843e+01 3.017623330589999853e+01 0.000000000000000000e+00 0.000000000000000000e+00 0.000000000000000000e+00
4.188009923000000079e-01 6.654839935690000630e+01 6.987098190800000275e+00 0.000000000000000000e+00 0.000000000000000000e+00 0.000000000000000000e+00
1.077570276299999907e+00 6.298194261390000293e+01 2.992484409640000109e+01 0.000000000000000000e+00 0.000000000000000000e+00 0.000000000000000000e+00
1.134101928300000006e+00 6.600568516250000073e+01 1.163800847079999912e+01 0.000000000000000000e+00 0.000000000000000000e+00 0.000000000000000000e+00
-7.322508603500000213e+00 6.400453489640000271e+01 7.656439022399999850e+00 0.000000000000000000e+00 0.000000000000000000e+00 0.000000000000000000e+00
7.489247771899999684e+00 6.609705780560000221e+01 1.025806596590000019e+01 0.000000000000000000e+00 0.000000000000000000e+00 0.000000000000000000e+00
-6.649519521400000244e+00 6.569601720139999657e+01 1.287787246499999938e+01 0.000000000000000000e+00 0.000000000000000000e+00 0.000000000000000000e+00
-7.200294838899999661e+00 6.350130785110000176e+01 2.850732381999999987e+01 0.000000000000000000e+00 0.000000000000000000e+00 0.000000000000000000e+00
7.802862055800000363e+00 6.273368756440000027e+01 1.353279189639999913e+01 0.000000000000000000e+00 0.000000000000000000e+00 0.000000000000000000e+00
4.500764857500000105e+00 6.227334201219999699e+01 3.005652656350000029e+01 0.000000000000000000e+00 0.000000000000000000e+00 0.000000000000000000e+00
3.668959139700000094e+00 6.414061946539999326e+01 2.662047927329999908e+01 0.000000000000000000e+00 0.000000000000000000e+00 0.000000000000000000e+00
3.008242142399999874e+00 6.444306355950000409e+01 4.443834661800000418e+00 0.000000000000000000e+00 0.000000000000000000e+00 0.000000000000000000e+00
4.265855340999999967e+00 6.424184796759999472e+01 5.006301274200000151e+00 0.000000000000000000e+00 0.000000000000000000e+00 0.000000000000000000e+00
-5.471196271800000233e+00 6.380583203479999810e+01 2.844987723710000083e+01 0.000000000000000000e+00 0.000000000000000000e+00 0.000000000000000000e+00
3.727620916299999809e+00 6.637019209540000020e+01 8.325521724399999712e+00 0.000000000000000000e+00 0.000000000000000000e+00 0.000000000000000000e+00
7.825894034500000096e+00 6.317325441109999673e+01 2.658636816239999945e+01 0.000000000000000000e+00 0.000000000000000000e+00 0.000000000000000000e+00
-7.251569253199999565e+00 6.422243294870000341e+01 1.675576458979999828e+01 0.000000000000000000e+00 0.000000000000000000e+00 0.000000000000000000e+00
4.314384667499999715e+00 6.581890583089999325e+01 1.291149172709999959e+01 0.000000000000000000e+00 0.000000000000000000e+00 0.000000000000000000e+00
4.937542335699999896e+00 6.572889661099999614e+01 1.410048188779999911e+01 0.000000000000000000e+00 0.000000000000000000e+00 0.000000000000000000e+00
-5.857647355200000128e+00 6.015319314879999979e+01 3.097262982250000007e+01 0.000000000000000000e+00 0.000000000000000000e+00 0.000000000000000000e+00
-6.598069491799999575e+00 6.464382258460000230e+01 2.172497102679999870e+01 0.000000000000000000e+00 0.000000000000000000e+00 0.000000000000000000e+00
-5.909427184200000127e+00 6.135666539790000229e+01 3.004714769270000119e+01 0.000000000000000000e+00 0.000000000000000000e+00 0.000000000000000000e+00
9.617298327500000354e+00 6.024876598539999861e+01 2.202854966860000019e+01 0.000000000000000000e+00 0.000000000000000000e+00 0.000000000000000000e+00
5.630078864199999700e+00 6.043262578680000274e+01 3.109725299460000159e+01 0.000000000000000000e+00 0.000000000000000000e+00 0.000000000000000000e+00
-6.069587890300000232e+00 6.479682058660000621e+01 2.067283700420000159e+01 0.000000000000000000e+00 0.000000000000000000e+00 0.000000000000000000e+00
8.073179818099999849e+00 6.335450752119999862e+01 2.585865270399999805e+00 0.000000000000000000e+00 0.000000000000000000e+00 0.000000000000000000e+00
-7.217122630000000427e+00 6.285292046069999827e+01 2.400869652729999970e+01 0.000000000000000000e+00 0.000000000000000000e+00 0.000000000000000000e+00
-1.375220664900000056e+00 6.654459593900000414e+01 6.520389561600000050e+00 0.000000000000000000e+00 0.000000000000000000e+00 0.000000000000000000e+00
3.631868687899999948e+00 6.658565773360000151e+01 6.600877854200000172e+00 0.000000000000000000e+00 0.000000000000000000e+00 0.000000000000000000e+00
9.718116683699999925e+00 6.058456446510000148e+01 1.891048389170000021e+01 0.000000000000000000e+00 0.000000000000000000e+00 0.000000000000000000e+00
6.986072592200000209e+00 6.657072225449999792e+01 7.063203884099999996e+00 0.000000000000000000e+00 0.000000000000000000e+00 0.000000000000000000e+00
-4.096828764199999640e+00 6.370882977130000313e+01 2.912020166390000142e+01 0.000000000000000000e+00 0.000000000000000000e+00 0.000000000000000000e+00
-1.415376832700000032e+00 6.235637026210000045e+01 3.022114590780000043e+01 0.000000000000000000e+00 0.000000000000000000e+00 0.000000000000000000e+00
-6.623881275899999643e+00 5.960310574609999890e+01 3.177876948999999840e+01 0.000000000000000000e+00 0.000000000000000000e+00 0.000000000000000000e+00
-7.225351472799999897e+00 6.225869924170000047e+01 2.401003063559999973e+01 0.000000000000000000e+00 0.000000000000000000e+00 0.000000000000000000e+00
-2.815341185799999923e+00 6.235635144980000177e+01 3.023121438029999908e+01 0.000000000000000000e+00 0.000000000000000000e+00 0.000000000000000000e+00
2.475956558700000087e+00 6.088694609160000226e+01 3.231867397509999762e+01 0.000000000000000000e+00 0.000000000000000000e+00 0.000000000000000000e+00
-1.845820942999999992e-01 6.634963176249999606e+01 8.348107784099999762e+00 0.000000000000000000e+00 0.000000000000000000e+00 0.000000000000000000e+00
9.561049558500000600e+00 6.272037186069999848e+01 3.125863184299999986e+00 0.000000000000000000e+00 0.000000000000000000e+00 0.000000000000000000e+00
3.588316673300000037e+00 6.430643017590000454e+01 4.983776365699999822e+00 0.000000000000000000e+00 0.000000000000000000e+00 0.000000000000000000e+00
8.908049471200000013e+00 6.031762723429999795e+01 2.386171337489999900e+01 0.000000000000000000e+00 0.000000000000000000e+00 0.000000000000000000e+00
-8.126101985000000472e-01 6.371123455859999751e+01 2.915788713230000084e+01 0.000000000000000000e+00 0.000000000000000000e+00 0.000000000000000000e+00
-2.817483135999999888e+00 6.566959134990000280e+01 1.414492308560000033e+01 0.000000000000000000e+00 0.000000000000000000e+00 0.000000000000000000e+00
-7.778613662199999723e+00 5.946725468199999654e+01 2.966995980829999979e+01 0.000000000000000000e+00 0.000000000000000000e+00 0.000000000000000000e+00
3.098423995500000139e+00 6.547474488599999631e+01 1.612656789709999927e+01 0.000000000000000000e+00 0.000000000000000000e+00 0.000000000000000000e+00
-7.349489011600000232e+00 6.094445559609999918e+01 2.326367723119999908e+01 0.000000000000000000e+00 0.000000000000000000e+00 0.000000000000000000e+00
-7.219034251100000077e+00 6.217588362539999736e+01 1.936002513709999917e+01 0.000000000000000000e+00 0.000000000000000000e+00 0.000000000000000000e+00
-2.132275269400000006e+00 6.462724881600000515e+01 2.260449675650000145e+01 0.000000000000000000e+00 0.000000000000000000e+00 0.000000000000000000e+00
7.799384036200000203e+00 6.323391414070000138e+01 1.938663149610000147e+01 0.000000000000000000e+00 0.000000000000000000e+00 0.000000000000000000e+00
-6.643188458100000027e+00 6.563146026309999570e+01 1.347765308059999967e+01 0.000000000000000000e+00 0.000000000000000000e+00 0.000000000000000000e+00
-7.210269818199999570e+00 6.171116090820000011e+01 2.971127877889999880e+01 0.000000000000000000e+00 0.000000000000000000e+00 0.000000000000000000e+00
-6.672956552599999647e+00 6.298200335810000183e+01 2.989233339869999995e+01 0.000000000000000000e+00 0.000000000000000000e+00 0.000000000000000000e+00
-6.888177226299999845e+00 5.932405916660000145e+01 3.251350871359999672e+01 0.000000000000000000e+00 0.000000000000000000e+00 0.000000000000000000e+00
4.320695102500000218e+00 6.426047254270000053e+01 3.793729264099999998e+00 0.000000000000000000e+00 0.000000000000000000e+00 0.000000000000000000e+00
-5.473844191899999601e+00 6.179386839069999837e+01 3.021312527050000085e+01 0.000000000000000000e+00 0.000000000000000000e+00 0.000000000000000000e+00
1.073924794799999916e+00 6.564443420230000470e+01 1.493734016750000038e+01 0.000000000000000000e+00 0.000000000000000000e+00 0.000000000000000000e+00
-7.103153867599999671e+00 6.334596555560000297e+01 2.955703081160000067e+01 0.000000000000000000e+00 0.000000000000000000e+00 0.000000000000000000e+00
8.286757617699999301e+00 6.308948539059999661e+01 5.058265264000000094e+00 0.000000000000000000e+00 0.000000000000000000e+00 0.000000000000000000e+00
5.058004599200000229e+00 6.298378092979999820e+01 2.998298729389999906e+01 0.000000000000000000e+00 0.000000000000000000e+00 0.000000000000000000e+00
-2.663642612899999929e+00 6.595224831630000040e+01 1.165773974969999927e+01 0.000000000000000000e+00 0.000000000000000000e+00 0.000000000000000000e+00
4.994145296700000181e+00 6.440025612469999317e+01 2.449388699929999902e+01 0.000000000000000000e+00 0.000000000000000000e+00 0.000000000000000000e+00
5.030815470200000306e+00 6.482837684289999913e+01 2.121515361979999881e+01 0.000000000000000000e+00 0.000000000000000000e+00 0.000000000000000000e+00
1.787988095200000016e+00 6.125633756890000114e+01 3.058227397450000140e+01 0.000000000000000000e+00 0.000000000000000000e+00 0.000000000000000000e+00
1.117719293599999997e+00 6.655349347339999611e+01 6.984574450800000278e+00 0.000000000000000000e+00 0.000000000000000000e+00 0.000000000000000000e+00
7.559864003200000404e+00 6.556784355850000168e+01 1.415413856950000060e+01 0.000000000000000000e+00 0.000000000000000000e+00 0.000000000000000000e+00
8.398140290800000685e+00 6.195712864080000060e+01 1.442504612319999957e+01 0.000000000000000000e+00 0.000000000000000000e+00 0.000000000000000000e+00
-8.126418548600000236e+00 5.927125408210000046e+01 2.977274386790000094e+01 0.000000000000000000e+00 0.000000000000000000e+00 0.000000000000000000e+00
-1.838527632999999994e-01 6.463826909070000681e+01 2.259151623469999848e+01 0.000000000000000000e+00 0.000000000000000000e+00 0.000000000000000000e+00
-4.061409387700000373e+00 6.601585273070000426e+01 1.091517098309999945e+01 0.000000000000000000e+00 0.000000000000000000e+00 0.000000000000000000e+00
6.205420877399999924e+00 6.629188235659999862e+01 9.514145644499999221e+00 0.000000000000000000e+00 0.000000000000000000e+00 0.000000000000000000e+00
-5.470341902400000400e+00 6.385666249150000340e+01 4.491216018500000295e+00 0.000000000000000000e+00 0.000000000000000000e+00 0.000000000000000000e+00
-4.032459356300000408e+00 6.590418617849999805e+01 1.219895639239999952e+01 0.000000000000000000e+00 0.000000000000000000e+00 0.000000000000000000e+00
-4.623489149700000134e+00 6.563311699569999291e+01 1.411709495470000064e+01 0.000000000000000000e+00 0.000000000000000000e+00 0.000000000000000000e+00
-7.917775866500000426e+00 5.959379513950000273e+01 2.852059680560000032e+01 0.000000000000000000e+00 0.000000000000000000e+00 0.000000000000000000e+00
5.731406395999999681e+00 6.042852885290000131e+01 3.053569253979999942e+01 0.000000000000000000e+00 0.000000000000000000e+00 0.000000000000000000e+00
6.967932155999999821e+00 6.098185813509999775e+01 2.993797862190000103e+01 0.000000000000000000e+00 0.000000000000000000e+00 0.000000000000000000e+00
-6.637459291099999881e+00 5.950228572820000039e+01 3.231296509850000120e+01 0.000000000000000000e+00 0.000000000000000000e+00 0.000000000000000000e+00
4.581259212000000081e-01 6.509683990240000639e+01 1.941606625689999888e+01 0.000000000000000000e+00 0.000000000000000000e+00 0.000000000000000000e+00
-6.013385764799999755e+00 6.396882094290000254e+01 2.711101636200000087e+01 0.000000000000000000e+00 0.000000000000000000e+00 0.000000000000000000e+00
3.733831228900000188e+00 6.240650571430000326e+01 3.014945295809999948e+01 0.000000000000000000e+00 0.000000000000000000e+00 0.000000000000000000e+00
7.007046098600000050e+00 6.515095909379999739e+01 1.880333323159999992e+01 0.000000000000000000e+00 0.000000000000000000e+00 0.000000000000000000e+00
-3.345800017599999787e+00 6.591478970190000553e+01 1.222223949400000009e+01 0.000000000000000000e+00 0.000000000000000000e+00 0.000000000000000000e+00
1.062618755099999923e+00 6.509739383330000351e+01 1.945615826870000120e+01 0.000000000000000000e+00 0.000000000000000000e+00 0.000000000000000000e+00
8.247207949199999888e+00 6.301227316880000018e+01 5.732878882699999679e+00 0.000000000000000000e+00 0.000000000000000000e+00 0.000000000000000000e+00
7.786565831999999965e+00 6.505445247469999970e+01 1.489963481989999927e+01 0.000000000000000000e+00 0.000000000000000000e+00 0.000000000000000000e+00
-4.148180560000000128e+00 6.388792002910000178e+01 2.795583637249999853e+01 0.000000000000000000e+00 0.000000000000000000e+00 0.000000000000000000e+00
-7.560602661399999924e+00 5.930680051249999707e+01 3.106886845109999840e+01 0.000000000000000000e+00 0.000000000000000000e+00 0.000000000000000000e+00
7.103618408800000061e+00 6.455768211689999703e+01 2.334887333980000079e+01 0.000000000000000000e+00 0.000000000000000000e+00 0.000000000000000000e+00
2.974411591399999999e+00 6.440531582100000207e+01 4.970145411999999929e+00 0.000000000000000000e+00 0.000000000000000000e+00 0.000000000000000000e+00
7.558099913400000425e+00 6.363276015699999988e+01 2.913566847170000074e+01 0.000000000000000000e+00 0.000000000000000000e+00 0.000000000000000000e+00
5.767569553200000421e+00 6.544108032770000705e+01 1.670988667190000143e+01 0.000000000000000000e+00 0.000000000000000000e+00 0.000000000000000000e+00
4.995769522899999870e+00 6.395814023989999697e+01 2.825245729510000103e+01 0.000000000000000000e+00 0.000000000000000000e+00 0.000000000000000000e+00
5.709934913299999693e+00 6.229395897690000083e+01 3.017266269910000176e+01 0.000000000000000000e+00 0.000000000000000000e+00 0.000000000000000000e+00
7.494233593399999727e+00 6.543633740859999648e+01 1.550348170140000015e+01 0.000000000000000000e+00 0.000000000000000000e+00 0.000000000000000000e+00
-3.995613434500000061e+00 6.529201470089999759e+01 1.733896401819999866e+01 0.000000000000000000e+00 0.000000000000000000e+00 0.000000000000000000e+00
7.100657383099999720e+00 6.521964433530000349e+01 1.825346478850000054e+01 0.000000000000000000e+00 0.000000000000000000e+00 0.000000000000000000e+00
7.646678049800000210e+00 6.038555909640000152e+01 2.994759039750000085e+01 0.000000000000000000e+00 0.000000000000000000e+00 0.000000000000000000e+00
6.373754329599999657e+00 6.037906173150000200e+01 3.046795478820000014e+01 0.000000000000000000e+00 0.000000000000000000e+00 0.000000000000000000e+00
-6.902585644100000195e+00 6.048157367539999996e+01 3.008220358430000019e+01 0.000000000000000000e+00 0.000000000000000000e+00 0.000000000000000000e+00
7.097050098699999587e+00 6.060655304809999677e+01 3.009524840030000092e+01 0.000000000000000000e+00 0.000000000000000000e+00 0.000000000000000000e+00
7.613611211900000342e+00 6.093563149450000083e+01 2.991749649790000021e+01 0.000000000000000000e+00 0.000000000000000000e+00 0.000000000000000000e+00
6.510318722800000124e+00 6.102328721189999783e+01 3.006580663740000148e+01 0.000000000000000000e+00 0.000000000000000000e+00 0.000000000000000000e+00
6.178911015799999795e+00 6.093965323590000338e+01 3.022537597410000032e+01 0.000000000000000000e+00 0.000000000000000000e+00 0.000000000000000000e+00
-4.679250109399999857e+00 6.096070596069999681e+01 3.045572447840000052e+01 0.000000000000000000e+00 0.000000000000000000e+00 0.000000000000000000e+00
-5.925085092999999858e+00 6.077898623629999975e+01 3.012904631370000175e+01 0.000000000000000000e+00 0.000000000000000000e+00 0.000000000000000000e+00
-2.748935166299999899e+00 6.090346261839999897e+01 3.172854864629999838e+01 0.000000000000000000e+00 0.000000000000000000e+00 0.000000000000000000e+00
-3.921523940899999783e+00 6.080897157540000109e+01 3.104151646509999907e+01 0.000000000000000000e+00 0.000000000000000000e+00 0.000000000000000000e+00
-4.082101746600000247e+00 6.088928502579999957e+01 3.056488300839999894e+01 0.000000000000000000e+00 0.000000000000000000e+00 0.000000000000000000e+00
6.963453889600000224e+00 6.160682517200000063e+01 2.996564542460000169e+01 0.000000000000000000e+00 0.000000000000000000e+00 0.000000000000000000e+00
5.123630730900000430e+00 6.167824176279999904e+01 2.997320322639999901e+01 0.000000000000000000e+00 0.000000000000000000e+00 0.000000000000000000e+00
4.968271536999999682e+00 6.135613401119999821e+01 3.033154943659999958e+01 0.000000000000000000e+00 0.000000000000000000e+00 0.000000000000000000e+00
4.280657445800000183e+00 6.141854947440000245e+01 3.037779659570000135e+01 0.000000000000000000e+00 0.000000000000000000e+00 0.000000000000000000e+00
-4.034272022099999688e+00 6.160622334690000201e+01 3.028774627399999986e+01 0.000000000000000000e+00 0.000000000000000000e+00 0.000000000000000000e+00
-5.360162552400000280e+00 6.145666861670000003e+01 3.004702893059999980e+01 0.000000000000000000e+00 0.000000000000000000e+00 0.000000000000000000e+00
-6.723077149799999930e+00 6.141931576390000203e+01 2.996767329229999888e+01 0.000000000000000000e+00 0.000000000000000000e+00 0.000000000000000000e+00
1.720416827800000048e+00 6.160519967420000143e+01 3.083562281960000107e+01 0.000000000000000000e+00 0.000000000000000000e+00 0.000000000000000000e+00
1.096172287799999978e+00 6.160502288890000244e+01 3.093023949210000012e+01 0.000000000000000000e+00 0.000000000000000000e+00 0.000000000000000000e+00
-7.787604820000000316e-01 6.160499325650000202e+01 3.094609896969999951e+01 0.000000000000000000e+00 0.000000000000000000e+00 0.000000000000000000e+00
-1.279556020500000058e+00 6.160517057229999693e+01 3.085119832959999897e+01 0.000000000000000000e+00 0.000000000000000000e+00 0.000000000000000000e+00
-1.426015656699999967e+00 6.165956871289999697e+01 3.043244213590000058e+01 0.000000000000000000e+00 0.000000000000000000e+00 0.000000000000000000e+00
-2.086560281000000128e+00 6.177000030140000320e+01 3.039492604550000010e+01 0.000000000000000000e+00 0.000000000000000000e+00 0.000000000000000000e+00
-4.411159035199999856e+00 6.160665013509999710e+01 3.005932634459999875e+01 0.000000000000000000e+00 0.000000000000000000e+00 0.000000000000000000e+00
-6.611635892599999842e+00 6.175648927459999982e+01 3.014782593159999990e+01 0.000000000000000000e+00 0.000000000000000000e+00 0.000000000000000000e+00
5.588275360199999930e+00 6.185643426939999756e+01 3.017886903699999834e+01 0.000000000000000000e+00 0.000000000000000000e+00 0.000000000000000000e+00
-1.765644754000000038e-01 6.172155414299999876e+01 3.040323268799999923e+01 0.000000000000000000e+00 0.000000000000000000e+00 0.000000000000000000e+00
-2.912940120800000088e+00 6.185664608249999930e+01 3.006550520829999940e+01 0.000000000000000000e+00 0.000000000000000000e+00 0.000000000000000000e+00
7.643579054599999978e+00 6.239515168490000008e+01 2.996764706480000129e+01 0.000000000000000000e+00 0.000000000000000000e+00 0.000000000000000000e+00
6.960030066199999865e+00 6.223155212329999841e+01 3.012180769140000081e+01 0.000000000000000000e+00 0.000000000000000000e+00 0.000000000000000000e+00
6.957987453700000380e+00 6.241920141949999845e+01 3.004491073959999881e+01 0.000000000000000000e+00 0.000000000000000000e+00 0.000000000000000000e+00
3.585282775500000074e+00 6.210667932279999803e+01 3.005172467679999926e+01 0.000000000000000000e+00 0.000000000000000000e+00 0.000000000000000000e+00
3.012849728599999999e+00 6.235648261869999942e+01 3.016101194210000003e+01 0.000000000000000000e+00 0.000000000000000000e+00 0.000000000000000000e+00
1.833549567199999952e+00 6.235663953939999971e+01 3.007702693030000063e+01 0.000000000000000000e+00 0.000000000000000000e+00 0.000000000000000000e+00
1.834226544200000086e+00 6.235648539879999674e+01 3.015952401810000083e+01 0.000000000000000000e+00 0.000000000000000000e+00 0.000000000000000000e+00
4.593507924999999936e-01 6.235644660380000204e+01 3.018028731260000086e+01 0.000000000000000000e+00 0.000000000000000000e+00 0.000000000000000000e+00
-1.654435348999999944e-01 6.235639499940000263e+01 3.020790635019999826e+01 0.000000000000000000e+00 0.000000000000000000e+00 0.000000000000000000e+00
-2.082284867399999850e+00 6.239801661799999977e+01 3.023268469899999999e+01 0.000000000000000000e+00 0.000000000000000000e+00 0.000000000000000000e+00
-2.332732289399999992e+00 6.227332710489999812e+01 3.006450508480000039e+01 0.000000000000000000e+00 0.000000000000000000e+00 0.000000000000000000e+00
-3.415511906199999892e+00 6.235638573720000011e+01 3.021286357330000172e+01 0.000000000000000000e+00 0.000000000000000000e+00 0.000000000000000000e+00
-6.210337215700000080e+00 6.522782819020000034e+01 1.694654446159999850e+01 0.000000000000000000e+00 0.000000000000000000e+00 0.000000000000000000e+00
-5.383615747300000365e+00 6.235622357249999936e+01 3.029965521560000141e+01 0.000000000000000000e+00 0.000000000000000000e+00 0.000000000000000000e+00
-6.854168752899999717e+00 6.235662287689999772e+01 3.008594478879999912e+01 0.000000000000000000e+00 0.000000000000000000e+00 0.000000000000000000e+00
-7.187893563700000321e+00 6.223570025570000297e+01 2.980622081590000150e+01 0.000000000000000000e+00 0.000000000000000000e+00 0.000000000000000000e+00
5.707676898899999962e+00 6.248165731790000166e+01 3.006951667390000082e+01 0.000000000000000000e+00 0.000000000000000000e+00 0.000000000000000000e+00
5.083102899400000041e+00 6.252315203930000109e+01 3.016221126619999993e+01 0.000000000000000000e+00 0.000000000000000000e+00 0.000000000000000000e+00
-5.668228854599999700e+00 6.235698716819999987e+01 2.989097364750000096e+01 0.000000000000000000e+00 0.000000000000000000e+00 0.000000000000000000e+00
6.206105487400000342e+00 6.260680840839999917e+01 2.999065700339999907e+01 0.000000000000000000e+00 0.000000000000000000e+00 0.000000000000000000e+00
6.952819692500000315e+00 6.298193070890000200e+01 2.993121575429999837e+01 0.000000000000000000e+00 0.000000000000000000e+00 0.000000000000000000e+00
4.580131208400000098e+00 6.285659677959999669e+01 3.010793200790000057e+01 0.000000000000000000e+00 0.000000000000000000e+00 0.000000000000000000e+00
2.497551220600000121e+00 6.298354520819999891e+01 3.002641545999999906e+01 0.000000000000000000e+00 0.000000000000000000e+00 0.000000000000000000e+00
-1.226296679999999972e-01 6.300693686660000026e+01 2.992832110879999874e+01 0.000000000000000000e+00 0.000000000000000000e+00 0.000000000000000000e+00
-8.585089230000000349e-01 6.297550693440000202e+01 3.012406173140000121e+01 0.000000000000000000e+00 0.000000000000000000e+00 0.000000000000000000e+00
-1.499482402099999945e+00 6.295713189859999659e+01 3.015319337329999883e+01 0.000000000000000000e+00 0.000000000000000000e+00 0.000000000000000000e+00
-2.122242306700000025e+00 6.300683338860000049e+01 2.998370319380000026e+01 0.000000000000000000e+00 0.000000000000000000e+00 0.000000000000000000e+00
-2.253608174600000069e+00 6.293869951850000177e+01 3.011599870999999951e+01 0.000000000000000000e+00 0.000000000000000000e+00 0.000000000000000000e+00
-3.421942518099999830e+00 6.300675519800000046e+01 3.002555134249999824e+01 0.000000000000000000e+00 0.000000000000000000e+00 0.000000000000000000e+00
-3.335700746200000122e+00 6.296569286700000134e+01 3.012176008550000006e+01 0.000000000000000000e+00 0.000000000000000000e+00 0.000000000000000000e+00
-4.038429539700000070e+00 6.298174536100000154e+01 3.014715825809999927e+01 0.000000000000000000e+00 0.000000000000000000e+00 0.000000000000000000e+00
-4.677060843099999587e+00 6.293338116329999821e+01 3.018594635470000043e+01 0.000000000000000000e+00 0.000000000000000000e+00 0.000000000000000000e+00
-5.373329289099999961e+00 6.300705605350000127e+01 2.986453146530000069e+01 0.000000000000000000e+00 0.000000000000000000e+00 0.000000000000000000e+00
-5.491409712700000334e+00 6.301298821609999834e+01 3.015133839279999961e+01 0.000000000000000000e+00 0.000000000000000000e+00 0.000000000000000000e+00
-7.989047623999999681e-01 6.310705361649999645e+01 2.986743971599999981e+01 0.000000000000000000e+00 0.000000000000000000e+00 0.000000000000000000e+00
7.470301581000000191e+00 6.340380559129999938e+01 2.964251625820000058e+01 0.000000000000000000e+00 0.000000000000000000e+00 0.000000000000000000e+00
6.354512697199999671e+00 6.353557844550000056e+01 2.973687471590000087e+01 0.000000000000000000e+00 0.000000000000000000e+00 0.000000000000000000e+00
5.653425226000000414e+00 6.357374404099999765e+01 2.970771028209999898e+01 0.000000000000000000e+00 0.000000000000000000e+00 0.000000000000000000e+00
3.728146254399999915e+00 6.359156668410000179e+01 2.972051629910000159e+01 0.000000000000000000e+00 0.000000000000000000e+00 0.000000000000000000e+00
3.070770198299999976e+00 6.356057602069999746e+01 2.972557317120000064e+01 0.000000000000000000e+00 0.000000000000000000e+00 0.000000000000000000e+00
-1.579974476999999877e-01 6.352884836620000186e+01 2.976198367019999935e+01 0.000000000000000000e+00 0.000000000000000000e+00 0.000000000000000000e+00
-6.033525389300000263e+00 6.351037706550000195e+01 2.973503160339999951e+01 0.000000000000000000e+00 0.000000000000000000e+00 0.000000000000000000e+00
-6.670384753799999622e+00 6.346860248290000328e+01 2.968982135199999917e+01 0.000000000000000000e+00 0.000000000000000000e+00 0.000000000000000000e+00
6.290994149000000313e+00 6.378779443919999892e+01 2.914358275640000073e+01 0.000000000000000000e+00 0.000000000000000000e+00 0.000000000000000000e+00
5.657560960799999705e+00 6.379106923669999674e+01 2.911907073360000098e+01 0.000000000000000000e+00 0.000000000000000000e+00 0.000000000000000000e+00
4.363164338699999867e+00 6.375619158810000187e+01 2.908206979179999863e+01 0.000000000000000000e+00 0.000000000000000000e+00 0.000000000000000000e+00
3.141997038399999997e+00 6.374028879950000004e+01 2.910281468069999988e+01 0.000000000000000000e+00 0.000000000000000000e+00 0.000000000000000000e+00
2.471560800699999838e+00 6.374366005659999956e+01 2.907111770759999914e+01 0.000000000000000000e+00 0.000000000000000000e+00 0.000000000000000000e+00
9.458204218600000601e+00 5.942903153780000025e+01 2.715341551870000103e+01 0.000000000000000000e+00 0.000000000000000000e+00 0.000000000000000000e+00
1.085086671600000052e+00 6.374293530330000124e+01 2.907554068700000016e+01 0.000000000000000000e+00 0.000000000000000000e+00 0.000000000000000000e+00
4.027425411000000177e-01 6.374376455080000170e+01 2.907254934639999888e+01 0.000000000000000000e+00 0.000000000000000000e+00 0.000000000000000000e+00
-2.434136640000000018e-01 6.372871163090000124e+01 2.911237059839999830e+01 0.000000000000000000e+00 0.000000000000000000e+00 0.000000000000000000e+00
-1.381412246300000035e+00 6.372692926909999755e+01 2.912764567429999829e+01 0.000000000000000000e+00 0.000000000000000000e+00 0.000000000000000000e+00
-2.737533795900000122e+00 6.371791950960000150e+01 2.909800603509999917e+01 0.000000000000000000e+00 0.000000000000000000e+00 0.000000000000000000e+00
-4.705001558200000211e+00 6.367603737430000166e+01 2.914783599640000133e+01 0.000000000000000000e+00 0.000000000000000000e+00 0.000000000000000000e+00
-5.341367653099999835e+00 6.368446392060000250e+01 2.909974502980000111e+01 0.000000000000000000e+00 0.000000000000000000e+00 0.000000000000000000e+00
-6.001077410999999806e+00 6.366812281770000226e+01 2.907805171829999935e+01 0.000000000000000000e+00 0.000000000000000000e+00 0.000000000000000000e+00
-4.018459227800000200e+00 6.058388272050000012e+01 3.176500191659999928e+01 0.000000000000000000e+00 0.000000000000000000e+00 0.000000000000000000e+00
-2.091013144000000157e+00 6.497106366980000303e+01 2.005238687219999960e+01 0.000000000000000000e+00 0.000000000000000000e+00 0.000000000000000000e+00
7.803032983999999672e+00 6.321147749429999863e+01 2.133652979509999881e+01 0.000000000000000000e+00 0.000000000000000000e+00 0.000000000000000000e+00
-7.095976075600000321e+00 6.418324126570000487e+01 5.704458822400000351e+00 0.000000000000000000e+00 0.000000000000000000e+00 0.000000000000000000e+00
-8.413959733300000465e+00 6.010543895130000180e+01 2.462274402250000094e+01 0.000000000000000000e+00 0.000000000000000000e+00 0.000000000000000000e+00
-4.127107415300000248e+00 6.422709975639999413e+01 5.002775536699999748e+00 0.000000000000000000e+00 0.000000000000000000e+00 0.000000000000000000e+00
-4.142348862300000434e+00 6.555013522190000685e+01 1.486068139270000010e+01 0.000000000000000000e+00 0.000000000000000000e+00 0.000000000000000000e+00
4.364517273899999772e+00 6.465743968060000668e+01 2.268291162519999915e+01 0.000000000000000000e+00 0.000000000000000000e+00 0.000000000000000000e+00
8.991693458300000330e+00 6.281869383680000141e+01 4.378704963799999739e+00 0.000000000000000000e+00 0.000000000000000000e+00 0.000000000000000000e+00
-1.509994242399999909e+00 6.105763684669999947e+01 3.173977237269999918e+01 0.000000000000000000e+00 0.000000000000000000e+00 0.000000000000000000e+00
7.783741460099999898e+00 6.443112314249999883e+01 1.669521883419999853e+01 0.000000000000000000e+00 0.000000000000000000e+00 0.000000000000000000e+00
-7.255702935100000417e+00 6.276847358100000207e+01 1.410884014390000019e+01 0.000000000000000000e+00 0.000000000000000000e+00 0.000000000000000000e+00
8.931245823199999379e+00 6.167347056199999855e+01 1.487106491720000001e+01 0.000000000000000000e+00 0.000000000000000000e+00 0.000000000000000000e+00
-9.276460239300000410e+00 6.225947940129999836e+01 6.323407078699999850e+00 0.000000000000000000e+00 0.000000000000000000e+00 0.000000000000000000e+00
-7.603407629800000400e+00 5.993565358949999933e+01 2.746769703560000053e+01 0.000000000000000000e+00 0.000000000000000000e+00 0.000000000000000000e+00
-8.000323217900000117e+00 6.149542972780000127e+01 1.736672838080000147e+01 0.000000000000000000e+00 0.000000000000000000e+00 0.000000000000000000e+00
-9.400177663799999195e+00 5.997896173779999884e+01 2.192962453029999992e+01 0.000000000000000000e+00 0.000000000000000000e+00 0.000000000000000000e+00
-7.210765817799999589e+00 6.431271744059999662e+01 2.070541317469999854e+01 0.000000000000000000e+00 0.000000000000000000e+00 0.000000000000000000e+00
-7.173508785000000110e+00 6.426542512090000514e+01 2.190529850480000107e+01 0.000000000000000000e+00 0.000000000000000000e+00 0.000000000000000000e+00
-8.561057297999999927e-01 6.547159830239999678e+01 1.616694239559999957e+01 0.000000000000000000e+00 0.000000000000000000e+00 0.000000000000000000e+00
-7.331230243800000324e+00 6.341118382039999801e+01 7.657774601699999906e+00 0.000000000000000000e+00 0.000000000000000000e+00 0.000000000000000000e+00
6.977784824799999619e+00 6.408965061370000171e+01 2.719610486790000081e+01 0.000000000000000000e+00 0.000000000000000000e+00 0.000000000000000000e+00
-1.436533812999999937e-01 6.421516423260000295e+01 2.582704471399999946e+01 0.000000000000000000e+00 0.000000000000000000e+00 0.000000000000000000e+00
7.804564192199999972e+00 6.167467131210000275e+01 2.132544403130000177e+01 0.000000000000000000e+00 0.000000000000000000e+00 0.000000000000000000e+00
-2.282160991000000139e-01 6.528508918650000226e+01 1.792022832489999828e+01 0.000000000000000000e+00 0.000000000000000000e+00 0.000000000000000000e+00
6.248802415900000184e+00 6.443371716990000664e+01 2.450766981869999839e+01 0.000000000000000000e+00 0.000000000000000000e+00 0.000000000000000000e+00
-5.418220759499999595e+00 6.607182450669999696e+01 1.019136443340000042e+01 0.000000000000000000e+00 0.000000000000000000e+00 0.000000000000000000e+00
-7.090707679200000335e+00 6.605104823599999975e+01 9.000504984799999164e+00 0.000000000000000000e+00 0.000000000000000000e+00 0.000000000000000000e+00
-4.045336637400000157e+00 6.580147713750000094e+01 1.286442958740000009e+01 0.000000000000000000e+00 0.000000000000000000e+00 0.000000000000000000e+00
7.812061540100000201e+00 6.154022343790000349e+01 2.529959690300000119e+01 0.000000000000000000e+00 0.000000000000000000e+00 0.000000000000000000e+00
-9.014870698499999335e+00 6.274102027570000217e+01 3.132404122500000110e+00 0.000000000000000000e+00 0.000000000000000000e+00 0.000000000000000000e+00
-4.723671995300000148e+00 6.555471745069999656e+01 1.487766091179999961e+01 0.000000000000000000e+00 0.000000000000000000e+00 0.000000000000000000e+00
9.663306487699999892e+00 6.248018372819999655e+01 4.448806742600000419e+00 0.000000000000000000e+00 0.000000000000000000e+00 0.000000000000000000e+00
-8.776609110000000769e+00 5.927475522099999949e+01 2.792709100280000101e+01 0.000000000000000000e+00 0.000000000000000000e+00 0.000000000000000000e+00
-9.347719789399999257e+00 6.182740913460000343e+01 9.624919868899999287e+00 0.000000000000000000e+00 0.000000000000000000e+00 0.000000000000000000e+00
5.595241862299999980e+00 6.016572952109999761e+01 3.230053574640000136e+01 0.000000000000000000e+00 0.000000000000000000e+00 0.000000000000000000e+00
-9.369476474200000737e+00 5.852308018240000109e+01 2.973278432600000087e+01 0.000000000000000000e+00 0.000000000000000000e+00 0.000000000000000000e+00
7.795701921200000051e+00 6.419979062400000203e+01 9.643241658399999139e+00 0.000000000000000000e+00 0.000000000000000000e+00 0.000000000000000000e+00
-7.430040607099999583e+00 6.280480927810000225e+01 9.659809887699999820e+00 0.000000000000000000e+00 0.000000000000000000e+00 0.000000000000000000e+00
-7.126885331399999579e+00 6.298511685990000331e+01 2.975797411039999929e+01 0.000000000000000000e+00 0.000000000000000000e+00 0.000000000000000000e+00
-6.690860442199999980e+00 6.526110598820000064e+01 1.675423019520000167e+01 0.000000000000000000e+00 0.000000000000000000e+00 0.000000000000000000e+00
-7.213905317000000039e+00 6.341438093360000039e+01 2.130738513740000073e+01 0.000000000000000000e+00 0.000000000000000000e+00 0.000000000000000000e+00
-6.032133124299999594e+00 6.640582320190000587e+01 6.331823884900000365e+00 0.000000000000000000e+00 0.000000000000000000e+00 0.000000000000000000e+00
-7.889072293199999919e+00 6.204901570330000027e+01 1.336466170259999942e+01 0.000000000000000000e+00 0.000000000000000000e+00 0.000000000000000000e+00
-9.234370783099999258e+00 6.165731787490000215e+01 1.157457588960000017e+01 0.000000000000000000e+00 0.000000000000000000e+00 0.000000000000000000e+00
-2.753587271299999806e+00 6.446347092089999364e+01 4.403910085199999713e+00 0.000000000000000000e+00 0.000000000000000000e+00 0.000000000000000000e+00
-3.455331930399999862e+00 6.445206239719999530e+01 2.395832458590000158e+01 0.000000000000000000e+00 0.000000000000000000e+00 0.000000000000000000e+00
-8.432031767099999797e+00 6.206224093210000348e+01 1.126825292830000080e+01 0.000000000000000000e+00 0.000000000000000000e+00 0.000000000000000000e+00
8.962961454600000266e+00 6.207195469340000216e+01 1.157369747249999925e+01 0.000000000000000000e+00 0.000000000000000000e+00 0.000000000000000000e+00
7.459223428899999675e+00 6.402072896810000202e+01 2.719384421559999865e+01 0.000000000000000000e+00 0.000000000000000000e+00 0.000000000000000000e+00
6.323230708099999653e+00 6.390420322239999962e+01 2.848555063730000114e+01 0.000000000000000000e+00 0.000000000000000000e+00 0.000000000000000000e+00
-7.134879411400000038e+00 6.369640984069999945e+01 2.714780357369999919e+01 0.000000000000000000e+00 0.000000000000000000e+00 0.000000000000000000e+00
-8.988267642700000337e+00 5.818463450000000137e+01 3.244133885829999997e+01 0.000000000000000000e+00 0.000000000000000000e+00 0.000000000000000000e+00
7.778477743299999858e+00 6.448827175290000469e+01 1.219548069290000036e+01 0.000000000000000000e+00 0.000000000000000000e+00 0.000000000000000000e+00
7.823483751899999561e+00 6.236095215019999927e+01 2.517046731170000129e+01 0.000000000000000000e+00 0.000000000000000000e+00 0.000000000000000000e+00
-5.939121995499999862e+00 6.496402091849999749e+01 1.944774636169999837e+01 0.000000000000000000e+00 0.000000000000000000e+00 0.000000000000000000e+00
-8.150118681000000365e-01 6.111022273180000042e+01 3.173634124370000009e+01 0.000000000000000000e+00 0.000000000000000000e+00 0.000000000000000000e+00
8.754039924900000713e+00 6.267068781420000079e+01 7.078610173400000427e+00 0.000000000000000000e+00 0.000000000000000000e+00 0.000000000000000000e+00
7.686229599599999851e+00 6.501373042390000023e+01 6.049375531099999925e+00 0.000000000000000000e+00 0.000000000000000000e+00 0.000000000000000000e+00
-8.942580356800000629e+00 5.925650364949999727e+01 2.747824253519999971e+01 0.000000000000000000e+00 0.000000000000000000e+00 0.000000000000000000e+00
3.733473477500000026e+00 6.591132137249999801e+01 1.267254957029999929e+01 0.000000000000000000e+00 0.000000000000000000e+00 0.000000000000000000e+00
-7.955832830600000349e+00 6.105341833810000196e+01 2.011746069269999992e+01 0.000000000000000000e+00 0.000000000000000000e+00 0.000000000000000000e+00
-2.124040760999999833e+00 6.119464712530000128e+01 3.060469263659999939e+01 0.000000000000000000e+00 0.000000000000000000e+00 0.000000000000000000e+00
1.056489542500000045e+00 6.446178472709999596e+01 2.393489597820000014e+01 0.000000000000000000e+00 0.000000000000000000e+00 0.000000000000000000e+00
-9.238152676700000399e+00 5.954003956279999699e+01 2.517956801940000133e+01 0.000000000000000000e+00 0.000000000000000000e+00 0.000000000000000000e+00
-3.397113548100000102e+00 6.639480040019999763e+01 7.762329746599999858e+00 0.000000000000000000e+00 0.000000000000000000e+00 0.000000000000000000e+00
-2.019042448600000039e+00 6.647874625459999720e+01 7.067309664499999755e+00 0.000000000000000000e+00 0.000000000000000000e+00 0.000000000000000000e+00
-2.774194509800000041e+00 6.402857137229999296e+01 2.727858017209999986e+01 0.000000000000000000e+00 0.000000000000000000e+00 0.000000000000000000e+00
8.307364467299999333e+00 6.315209316920000049e+01 3.183570556999999912e+00 0.000000000000000000e+00 0.000000000000000000e+00 0.000000000000000000e+00
-4.110611168100000157e+00 6.645756637210000406e+01 6.353357965299999854e+00 0.000000000000000000e+00 0.000000000000000000e+00 0.000000000000000000e+00
5.541633273699999584e+00 6.567515788880000116e+01 1.491233426590000022e+01 0.000000000000000000e+00 0.000000000000000000e+00 0.000000000000000000e+00
3.124398536100000179e+00 6.453570148560000064e+01 2.337420497909999995e+01 0.000000000000000000e+00 0.000000000000000000e+00 0.000000000000000000e+00
-7.181518218499999939e+00 6.402604832679999447e+01 2.520596770519999907e+01 0.000000000000000000e+00 0.000000000000000000e+00 0.000000000000000000e+00
-9.220036912099999427e+00 6.244573387519999841e+01 5.122587316499999766e+00 0.000000000000000000e+00 0.000000000000000000e+00 0.000000000000000000e+00
-2.736926158300000189e+00 6.583650249800000154e+01 1.285319383590000086e+01 0.000000000000000000e+00 0.000000000000000000e+00 0.000000000000000000e+00
-7.228884610199999727e+00 6.222332806749999889e+01 2.131004894040000153e+01 0.000000000000000000e+00 0.000000000000000000e+00 0.000000000000000000e+00
6.259332772899999675e+00 6.485726889549999896e+01 2.115717175929999883e+01 0.000000000000000000e+00 0.000000000000000000e+00 0.000000000000000000e+00
-1.374480554800000087e+00 6.648679384129999903e+01 7.041653156199999763e+00 0.000000000000000000e+00 0.000000000000000000e+00 0.000000000000000000e+00
9.522419358600000550e+00 6.183974748119999987e+01 1.156997373299999943e+01 0.000000000000000000e+00 0.000000000000000000e+00 0.000000000000000000e+00
5.658658511499999655e+00 6.556942954810000401e+01 1.551116585529999981e+01 0.000000000000000000e+00 0.000000000000000000e+00 0.000000000000000000e+00
