# .PCD v0.7 - Point Cloud Data file format
VERSION 0.7
FIELDS x y z
SIZE 4 4 4
TYPE F F F
COUNT 1 1 1
WIDTH 1609
HEIGHT 1
VIEWPOINT 0 0 0 1 0 0 0
POINTS 1609
DATA ascii
72.091812 44.226738 23.835537
72.091812 44.613388 23.835938
72.091812 45.000034 23.835304
7.9082618 45.386681 23.837994
7.9082618 45.773331 23.837276
7.9082618 46.159977 23.835152
7.9082618 46.546627 23.83556
7.9082618 46.933273 23.835758
7.9082618 47.319923 23.837486
7.9082618 47.70657 23.838036
7.9082618 48.093216 23.835873
7.9082618 48.479866 23.836449
7.9082618 48.866512 23.838085
7.9082618 49.253162 23.837006
7.9082618 49.639809 23.834709
7.9082618 50.026459 23.828655
8.2949104 52.346344 24.197445
8.2949104 52.732994 24.170826
8.2949104 53.11964 24.130337
8.2949104 53.506287 24.064301
8.2949104 53.892937 23.989265
8.2949104 54.279583 23.918682
8.2949104 54.666233 23.846809
8.6815567 55.826176 24.133976
8.6815567 56.212822 24.034878
8.6815567 56.599472 23.912308
9.0682049 57.372768 24.187565
9.0682049 57.759415 24.064606
9.0682049 58.146065 23.938728
9.4548531 58.919357 24.18951
9.4548531 59.306007 24.034958
9.4548531 59.692657 23.863323
9.8415012 60.0793 24.200531
9.8415012 60.46595 24.029453
9.8415012 60.8526 23.860043
10.228149 61.23925 24.189167
10.228149 61.625893 24.011024
10.614798 62.399193 24.100063
10.614798 62.785835 23.880466
11.001446 63.172485 24.141556
11.001446 63.559135 23.928833
11.388092 63.945786 24.174862
11.388092 64.332428 23.966515
11.77474 64.719078 24.179096
11.77474 65.105728 23.931225
12.161388 65.492371 24.116642
12.161388 65.879021 23.86121
12.548037 66.265671 24.041515
12.934685 67.038963 23.969349
13.321333 67.425613 24.130093
13.321333 67.812263 23.828873
13.707981 68.198906 23.960011
14.094627 68.585556 24.089733
14.481276 69.358856 23.903141
14.867924 69.745499 24.020298
15.254572 70.132149 24.107372
15.64122 70.518799 24.151875
16.027868 70.905441 24.186253
16.027868 71.292091 23.847168
16.414516 71.678741 23.883678
16.801163 72.065392 23.916847
17.187811 72.452034 23.943966
17.574459 72.838684 23.941277
17.961107 73.225334 23.920357
18.347755 73.611977 23.8932
18.734404 73.998627 23.861263
19.121052 73.998627 24.194736
19.507698 74.385277 24.142677
19.894346 74.771927 24.08741
20.280994 75.158569 24.003933
20.667643 75.545219 23.896255
21.440939 75.93187 24.099121
21.827587 76.318512 23.973583
22.214233 76.705162 23.838074
22.600883 76.705162 24.117538
22.98753 77.091812 23.974686
23.760826 77.478462 24.073059
24.147472 77.865105 23.872238
24.534122 77.865105 24.131031
24.920769 78.251755 23.911388
25.307419 78.251755 24.148735
25.694065 78.638405 23.921661
26.080715 78.638405 24.155769
26.467361 79.025047 23.924904
26.854008 79.025047 24.147007
27.240658 79.411697 23.895985
27.627304 79.411697 24.092667
28.4006 79.798347 23.97665
28.787251 79.798347 24.170879
29.173897 80.184998 23.859596
29.560543 80.184998 24.031921
29.947193 80.184998 24.187752
30.333839 80.57164 23.858047
30.72049 80.57164 24.011681
31.107136 80.57164 24.164299
31.493786 80.95829 23.827663
31.880432 80.95829 23.954716
32.267078 80.95829 24.078346
32.653728 80.95829 24.203114
33.040375 81.34494 23.82597
33.427025 81.34494 23.939194
33.813671 81.34494 24.043266
34.200321 81.34494 24.134979
35.360264 81.731583 23.867943
35.74691 81.731583 23.932747
36.13356 81.731583 23.99107
36.520206 81.731583 24.054321
36.906857 81.731583 24.117702
37.293503 81.731583 24.166843
37.680149 81.731583 24.201546
72.091812 45.386681 23.835159
72.091812 45.773331 23.836952
72.091812 46.159977 23.836746
72.091812 46.546627 23.835953
72.091812 46.933273 23.835274
72.091812 47.319923 23.835522
72.091812 47.70657 23.835758
72.091812 48.093216 23.836994
72.091812 48.479866 23.837246
72.091812 48.866512 23.836861
72.091812 49.253162 23.837765
72.091812 49.639809 23.834892
72.091812 50.026459 23.82848
70.93187 57.372768 24.185482
71.70517 52.346344 24.198296
71.70517 52.732994 24.172478
71.70517 53.11964 24.130836
71.70517 53.506287 24.065987
71.70517 53.892937 23.989471
71.70517 54.279583 23.919937
71.70517 54.666233 23.850357
71.318512 55.826176 24.135647
71.318512 56.212822 24.034748
71.318512 56.599472 23.913349
70.93187 57.759415 24.065773
70.93187 58.146065 23.940392
70.545227 58.919357 24.189693
70.545227 59.306007 24.03466
70.545227 59.692657 23.862286
70.158569 60.0793 24.197376
70.158569 60.46595 24.029373
70.158569 60.8526 23.860703
69.771927 61.23925 24.194054
69.771927 61.625893 24.019131
69.385284 62.399193 24.100487
69.385284 62.785835 23.882038
68.998627 63.172485 24.141083
68.998627 63.559135 23.929966
67.838684 65.492371 24.116764
67.838684 65.879021 23.862221
67.452042 66.265671 24.045422
68.611984 63.945786 24.172436
68.611984 64.332428 23.959312
68.225342 64.719078 24.179432
68.225342 65.105728 23.93219
66.292099 68.198906 23.95945
67.065399 67.038963 23.965378
66.678741 67.425613 24.131977
66.678741 67.812263 23.830727
65.905441 68.585556 24.090168
65.518799 69.358856 23.903812
65.132156 69.745499 24.019318
42.319927 81.731583 24.198479
42.706573 81.731583 24.164795
43.09322 81.731583 24.115349
43.47987 81.731583 24.058548
43.866516 81.731583 23.999897
44.253166 81.731583 23.933678
44.639812 81.731583 23.866608
45.799755 81.34494 24.135521
46.186405 81.34494 24.042847
48.892941 80.57164 24.166637
49.279587 80.57164 24.01202
46.573051 81.34494 23.946709
46.959702 81.34494 23.833145
47.346348 80.95829 24.200783
47.732998 80.95829 24.081779
48.119644 80.95829 23.957027
48.50629 80.95829 23.829876
50.052883 80.184998 24.187492
49.666237 80.57164 23.858944
50.439533 80.184998 24.028828
50.82618 80.184998 23.861195
51.212826 79.798347 24.174004
51.599476 79.798347 23.982433
52.372772 79.411697 24.094082
58.559139 75.93187 24.09621
64.745499 70.132149 24.105579
64.358856 70.518799 24.155983
63.97221 70.905441 24.188843
63.97221 71.292091 23.848377
63.19891 72.065392 23.919495
62.425617 72.838684 23.936729
62.812267 72.452034 23.944569
63.58556 71.678741 23.883671
61.652325 73.611977 23.893009
60.879025 73.998627 24.191959
60.492374 74.385277 24.143475
60.879025 74.385277 23.821564
61.265675 73.998627 23.860043
60.105732 74.771927 24.084637
59.719082 75.158569 23.999336
59.332432 75.545219 23.892479
62.038967 73.225334 23.918098
53.146069 79.025047 24.152912
53.919361 78.638405 24.153816
53.532715 79.025047 23.928234
54.692661 78.251755 24.143131
55.465954 77.865105 24.130753
55.079304 78.251755 23.911087
54.306011 78.638405 23.919147
56.239254 77.478462 24.071751
57.012547 77.091812 23.972683
57.399197 76.705162 24.116676
57.785839 76.705162 23.840649
58.172489 76.318512 23.973099
55.852604 77.865105 23.873772
52.759418 79.411697 23.898705
22.214233 14.007362 24.593136
22.121799 14.068201 24.593136
22.98753 13.489956 24.593136
22.700096 13.681553 24.593136
22.600883 13.746006 24.593136
23.37418 13.236259 24.593136
23.282181 13.294907 24.593136
23.760826 12.982475 24.593136
24.147472 12.754711 24.593136
23.883827 12.908258 24.593136
24.534122 12.536768 24.593136
26.080715 11.742691 24.593136
26.069267 11.748314 24.593136
24.920769 12.334028 24.593136
24.563931 12.52161 24.593136
25.307419 12.135614 24.593136
25.694065 11.939911 24.593136
25.308754 12.134962 24.593136
26.467361 11.547653 24.593136
26.854008 11.363504 24.593136
27.240658 11.189416 24.593136
26.858196 11.361666 24.593136
27.627304 11.01602 24.593136
18.347755 17.098934 24.593136
18.277382 17.161385 24.593136
21.054291 14.805532 24.593136
21.005381 14.841497 24.593136
21.440939 14.526669 24.593136
20.667643 15.100962 24.593136
20.508671 15.228146 24.593136
20.280994 15.420572 24.593136
20.052938 15.614794 24.593136
19.894346 15.752317 24.593136
19.604393 16.001442 24.593136
19.507698 16.083368 24.593136
19.155996 16.388088 24.593136
18.734404 16.757593 24.593136
18.714489 16.774736 24.593136
19.121052 16.417971 24.593136
16.801163 18.703741 24.593136
16.797363 18.707977 24.593136
17.574459 17.853613 24.593136
17.50281 17.934681 24.593136
17.961107 17.456762 24.593136
17.866894 17.548033 24.593136
17.187811 18.278433 24.593136
17.149113 18.321329 24.593136
16.449205 19.094624 24.593136
16.414516 19.133478 24.593136
16.099638 19.481272 24.593136
16.027868 19.561228 24.593136
15.756147 19.86792 24.593136
15.64122 20.00083 24.593136
15.440609 20.254568 24.593136
21.827587 14.266558 24.593136
21.548656 14.454849 24.593136
28.013954 10.850968 24.593136
27.724846 10.975019 24.593136
28.4006 10.68352 24.593136
28.787251 10.533584 24.593136
28.642895 10.58837 24.593136
29.173897 10.391737 24.593136
29.947193 10.143816 24.593136
29.757488 10.201722 24.593136
30.333839 10.016385 24.593136
30.72049 9.8907862 24.593136
29.560543 10.263064 24.593136
32.653728 9.3629227 24.593136
32.394726 9.4284267 24.593136
33.040375 9.2637405 24.593136
33.427025 9.174304 24.593136
33.813671 9.0941954 24.593136
31.107136 9.7776194 24.593136
30.978333 9.8150749 24.593136
31.493786 9.6681004 24.593136
31.880432 9.5636139 24.593136
32.267078 9.4611053 24.593136
34.200321 9.0226297 24.593136
34.093102 9.0417786 24.593136
34.586967 8.9507685 24.593136
34.973614 8.8772163 24.593136
35.360264 8.8103571 24.593136
36.906857 8.6241894 24.593136
36.627949 8.6551304 24.593136
35.74691 8.7592516 24.593136
36.13356 8.7118998 24.593136
36.520206 8.666501 24.593136
37.293503 8.5868464 24.593136
37.680149 8.5634975 24.593136
38.066799 8.539855 24.593136
38.453445 8.5183678 24.593136
38.840096 8.5013475 24.593136
39.226742 8.4890003 24.593136
39.613392 8.4843807 24.593136
40.000038 8.4811745 24.593136
15.254572 20.497337 24.593136
15.144423 20.641216 24.593136
14.867924 21.000294 24.593136
14.847851 21.027864 24.593136
14.481276 21.519402 24.593136
14.277159 21.801159 24.593136
14.55677 21.414513 24.593136
13.707981 22.611155 24.593136
13.489613 22.961103 24.593136
13.321333 23.248394 24.593136
13.264927 23.347752 24.593136
14.094627 22.054089 24.593136
14.002392 22.187807 24.593136
13.73201 22.574455 24.593136
12.161388 25.244717 24.593136
12.141485 25.280991 24.593136
11.943647 25.667639 24.593136
11.77474 26.02334 24.593136
11.760706 26.054287 24.593136
11.579567 26.440935 24.593136
12.934685 23.909077 24.593136
12.811729 24.121048 24.593136
13.036139 23.7344 24.593136
12.583504 24.507694 24.593136
12.548037 24.570986 24.593136
12.361942 24.894342 24.593136
11.388092 26.850418 24.593136
11.219339 27.21423 24.593136
11.398495 26.827583 24.593136
11.035732 27.60088 24.593136
11.001446 27.675823 24.593136
10.859571 27.987526 24.593136
10.614798 28.608418 24.593136
10.560358 28.760822 24.593136
10.418148 29.147469 24.593136
10.283823 29.534119 24.593136
10.698298 28.374176 24.593136
10.228149 29.706326 24.593136
10.158379 29.920765 24.593136
10.021322 30.307415 24.593136
9.8415012 30.826351 24.593136
9.7673416 31.080711 24.593136
9.8847256 30.694061 24.593136
9.6625309 31.467358 24.593136
9.5650063 31.854004 24.593136
9.4720573 32.240654 24.593136
9.4548531 32.316326 24.593136
9.3837242 32.6273 24.593136
9.0682049 33.985432 24.593136
9.0345669 34.173893 24.593136
8.9762192 34.560539 24.593136
8.9210129 34.947189 24.593136
8.861124 35.333836 24.593136
8.8024788 35.720486 24.593136
8.7471714 36.107132 24.593136
8.6983242 36.493782 24.593136
8.6815567 36.638359 24.593136
8.6527958 36.880428 24.593136
8.6186447 37.267075 24.593136
8.5995998 37.653725 24.593136
8.5815907 38.040371 24.593136
8.5628834 38.427021 24.593136
8.5443764 38.813667 24.593136
9.291069 33.01395 24.593136
9.1986351 33.400597 24.593136
9.1083851 33.787247 24.593136
8.5251656 39.200317 24.593136
8.5049896 39.586964 24.593136
8.488863 39.97361 24.593136
8.4846859 40.36026 24.593136
8.4863071 40.746906 24.593136
8.4872684 41.133556 24.593136
8.4873524 41.520203 24.593136
8.4867382 41.906853 24.593136
8.485199 42.293499 24.593136
8.4855576 42.680145 24.593136
8.4858856 43.066795 24.593136
8.4857197 43.453442 24.593136
8.485342 43.840092 24.593136
8.4832897 44.226738 24.593136
8.4820442 44.613388 24.593136
8.4827652 45.000034 24.593136
40.386684 8.4838943 24.593136
40.773335 8.4848776 24.593136
41.159981 8.4983606 24.593136
41.546631 8.5207806 24.593136
41.933277 8.5405235 24.593136
42.319927 8.5650768 24.593136
42.706573 8.590167 24.593136
43.09322 8.6234283 24.593136
43.389816 8.6551304 24.593136
43.47987 8.6655865 24.593136
43.866516 8.71064 24.593136
44.253166 8.7576723 24.593136
44.639812 8.8116074 24.593136
45.026463 8.8790379 24.593136
45.413109 8.9515123 24.593136
45.799755 9.0221386 24.593136
45.909256 9.0417786 24.593136
46.186405 9.0934181 24.593136
46.573051 9.1748037 24.593136
46.959702 9.2661266 24.593136
47.346348 9.3639994 24.593136
47.607727 9.4284267 24.593136
47.732998 9.4592485 24.593136
48.119644 9.5587883 24.593136
48.50629 9.6670122 24.593136
48.892941 9.7765722 24.593136
49.029453 9.8150749 24.593136
49.279587 9.8900633 24.593136
49.666237 10.0168 24.593136
50.052883 10.142145 24.593136
50.244213 10.201722 24.593136
50.439533 10.262903 24.593136
50.82618 10.397345 24.593136
51.212826 10.537488 24.593136
51.354504 10.58837 24.593136
51.599476 10.685878 24.593136
51.986122 10.852878 24.593136
52.278931 10.975019 24.593136
52.372772 11.014613 24.593136
52.759418 11.188157 24.593136
53.145454 11.361666 24.593136
53.146069 11.36193 24.593136
53.532715 11.543882 24.593136
53.919361 11.741329 24.593136
53.933651 11.748314 24.593136
54.306011 11.940073 24.593136
54.684727 12.134962 24.593136
54.692661 12.138882 24.593136
55.079304 12.338207 24.593136
55.436558 12.52161 24.593136
55.465954 12.536045 24.593136
55.852604 12.745455 24.593136
56.12727 12.908258 24.593136
56.239254 12.976944 24.593136
56.625896 13.233969 24.593136
56.717869 13.294907 24.593136
57.012547 13.490963 24.593136
57.300365 13.681553 24.593136
57.399197 13.746574 24.593136
57.785839 14.009821 24.593136
57.875599 14.068201 24.593136
58.172489 14.265163 24.593136
58.453808 14.454849 24.593136
58.559139 14.525307 24.593136
58.945789 14.804134 24.593136
58.996288 14.841497 24.593136
59.332432 15.103119 24.593136
59.487537 15.228146 24.593136
59.719082 15.420792 24.593136
59.948055 15.614794 24.593136
60.105732 15.751608 24.593136
60.393147 16.001442 24.593136
60.492374 16.087418 24.593136
60.841045 16.388088 24.593136
60.879025 16.419558 24.593136
61.265675 16.754461 24.593136
61.289112 16.774736 24.593136
61.652325 17.097445 24.593136
61.725452 17.161385 24.593136
62.038967 17.455402 24.593136
62.127995 17.548033 24.593136
62.425617 17.859232 24.593136
62.495319 17.934681 24.593136
62.812267 18.28034 24.593136
62.84943 18.321329 24.593136
63.19891 18.706236 24.593136
63.200504 18.707977 24.593136
63.553776 19.094624 24.593136
63.58556 19.130114 24.593136
63.901485 19.481272 24.593136
63.97221 19.561235 24.593136
64.246002 19.86792 24.593136
64.358856 20.000477 24.593136
64.562027 20.254568 24.593136
64.745499 20.494814 24.593136
64.855896 20.641216 24.593136
65.132156 21.006073 24.593136
65.148514 21.027864 24.593136
65.439392 21.414513 24.593136
65.518799 21.526371 24.593136
65.71727 21.801159 24.593136
65.905441 22.059544 24.593136
65.993927 22.187807 24.593136
66.264435 22.574455 24.593136
66.292099 22.617479 24.593136
66.506912 22.961103 24.593136
66.678741 23.252756 24.593136
66.732361 23.347752 24.593136
66.962311 23.7344 24.593136
67.065399 23.914791 24.593136
67.184586 24.121048 24.593136
67.413727 24.507694 24.593136
67.452042 24.574623 24.593136
67.639603 24.894342 24.593136
67.838684 25.242613 24.593136
67.858536 25.280991 24.593136
68.053085 25.667639 24.593136
68.225342 26.027946 24.593136
68.237656 26.054287 24.593136
68.42041 26.440935 24.593136
68.600403 26.827583 24.593136
68.611984 26.85335 24.593136
68.781113 27.21423 24.593136
68.964844 27.60088 24.593136
68.998627 27.678459 24.593136
69.134186 27.987526 24.593136
69.297913 28.374176 24.593136
69.385284 28.617771 24.593136
69.436432 28.760822 24.593136
69.578583 29.147469 24.593136
69.715286 29.534119 24.593136
69.771927 29.704372 24.593136
69.84465 29.920765 24.593136
69.985046 30.307415 24.593136
70.11557 30.694061 24.593136
70.158569 30.83485 24.593136
70.2323 31.080711 24.593136
70.337936 31.467358 24.593136
70.434845 31.854004 24.593136
70.527832 32.240654 24.593136
70.545227 32.316582 24.593136
70.615662 32.6273 24.593136
70.706421 33.01395 24.593136
70.802521 33.400597 24.593136
70.892365 33.787247 24.593136
70.93187 33.982166 24.593136
70.964645 34.173893 24.593136
71.023682 34.560539 24.593136
71.080597 34.947189 24.593136
71.137283 35.333836 24.593136
71.194183 35.720486 24.593136
71.250031 36.107132 24.593136
71.301971 36.493782 24.593136
71.318512 36.626793 24.593136
71.346268 36.880428 24.593136
71.378586 37.267075 24.593136
71.398209 37.653725 24.593136
71.416107 38.040371 24.593136
71.437088 38.427021 24.593136
71.452316 38.813667 24.593136
71.470261 39.200317 24.593136
71.492233 39.586964 24.593136
71.506485 39.97361 24.593136
71.509979 40.36026 24.593136
71.512177 40.746906 24.593136
71.514709 41.133556 24.593136
71.513779 41.520203 24.593136
71.514786 41.906853 24.593136
71.51474 42.293499 24.593136
71.514359 42.680145 24.593136
71.511414 43.066795 24.593136
71.512894 43.453442 24.593136
71.514801 43.840092 24.593136
71.510727 44.226738 24.593136
71.509644 44.613388 24.593136
71.512787 45.000034 24.593136
8.4833412 45.386681 24.593136
8.4841576 45.773331 24.593136
8.4866886 46.159977 24.593136
8.4861927 46.546627 24.593136
8.4867668 46.933273 24.593136
8.4854126 47.319923 24.593136
8.4829674 47.70657 24.593136
8.4829025 48.093216 24.593136
8.4842873 48.479866 24.593136
8.487606 48.866512 24.593136
8.4870453 49.253162 24.593136
8.4845581 49.639809 24.593136
8.4924984 50.026459 24.593136
8.5069542 50.413105 24.593136
8.5238762 50.799751 24.593136
8.5455875 51.186401 24.593136
8.5638733 51.573048 24.593136
8.580061 51.959698 24.593136
8.5994606 52.346344 24.593136
8.6214027 52.732994 24.593136
8.6524754 53.11964 24.593136
8.6815567 53.374493 24.593136
8.6990852 53.506287 24.593136
8.7504749 53.892937 24.593136
8.8045216 54.279583 24.593136
8.8621426 54.666233 24.593136
8.9180775 55.052879 24.593136
8.9729633 55.439529 24.593136
9.0320187 55.826176 24.593136
9.0682049 56.032745 24.593136
9.1041451 56.212822 24.593136
9.1957474 56.599472 24.593136
9.2897778 56.986118 24.593136
9.3818321 57.372768 24.593136
9.4548531 57.685715 24.593136
9.4717064 57.759415 24.593136
9.564352 58.146065 24.593136
9.6618824 58.532711 24.593136
9.7674198 58.919357 24.593136
9.8415012 59.176041 24.593136
9.8822784 59.306007 24.593136
10.016148 59.692657 24.593136
10.154177 60.0793 24.593136
10.228149 60.302391 24.593136
10.282421 60.46595 24.593136
10.418848 60.8526 24.593136
10.559881 61.23925 24.593136
10.614798 61.398308 24.593136
10.697121 61.625893 24.593136
10.862333 62.012543 24.593136
11.001446 62.321671 24.593136
11.034769 62.399193 24.593136
11.217661 62.785835 24.593136
11.388092 63.15004 24.593136
11.398487 63.172485 24.593136
11.582447 63.559135 24.593136
11.762611 63.945786 24.593136
11.77474 63.972664 24.593136
11.945152 64.332428 24.593136
12.145735 64.719078 24.593136
12.161388 64.749405 24.593136
12.361483 65.105728 24.593136
12.548037 65.425865 24.593136
12.585733 65.492371 24.593136
12.812649 65.879021 24.593136
12.934685 66.088501 24.593136
13.038582 66.265671 24.593136
13.266624 66.652321 24.593136
13.321333 66.748154 24.593136
13.492064 67.038963 24.593136
13.707981 67.390373 24.593136
13.730503 67.425613 24.593136
14.001286 67.812263 24.593136
14.094627 67.945702 24.593136
14.275015 68.198906 24.593136
14.481276 68.481392 24.593136
14.557072 68.585556 24.593136
14.848927 68.972206 24.593136
14.867924 68.997948 24.593136
15.143343 69.358856 24.593136
15.254572 69.50351 24.593136
15.440828 69.745499 24.593136
15.64122 69.993454 24.593136
15.760464 70.132149 24.593136
16.027868 70.43737 24.593136
16.100178 70.518799 24.593136
16.414516 70.866058 24.593136
16.450127 70.905441 24.593136
16.799656 71.292091 24.593136
16.801163 71.29377 24.593136
17.149092 71.678741 24.593136
17.187811 71.721634 24.593136
17.505033 72.065392 24.593136
17.574459 72.141441 24.593136
17.870844 72.452034 24.593136
17.961107 72.540886 24.593136
18.275496 72.838684 24.593136
18.347755 72.905327 24.593136
18.712219 73.225334 24.593136
18.734404 73.243736 24.593136
19.121052 73.579773 24.593136
19.158297 73.611977 24.593136
19.507698 73.914749 24.593136
19.605974 73.998627 24.593136
19.894346 74.245895 24.593136
20.05759 74.385277 24.593136
20.280994 74.577965 24.593136
20.510777 74.771927 24.593136
20.667643 74.901314 24.593136
21.007151 75.158569 24.593136
21.054291 75.192245 24.593136
21.440939 75.471825 24.593136
21.550749 75.545219 24.593136
21.827587 75.732529 24.593136
22.119942 75.93187 24.593136
22.214233 75.993988 24.593136
22.600883 76.258743 24.593136
22.694744 76.318512 24.593136
22.98753 76.511559 24.593136
23.276993 76.705162 24.593136
23.37418 76.766815 24.593136
23.760826 77.017639 24.593136
23.882603 77.091812 24.593136
24.147472 77.248756 24.593136
24.534122 77.466606 24.593136
24.557693 77.478462 24.593136
24.920769 77.666946 24.593136
25.301201 77.865105 24.593136
25.307419 77.868134 24.593136
25.694065 78.064262 24.593136
26.061466 78.251755 24.593136
26.080715 78.261185 24.593136
26.467361 78.453857 24.593136
26.854008 78.635864 24.593136
26.859661 78.638405 24.593136
27.240658 78.810448 24.593136
27.627304 78.982925 24.593136
27.724998 79.025047 24.593136
28.013954 79.148361 24.593136
28.4006 79.316566 24.593136
28.645222 79.411697 24.593136
28.787251 79.464363 24.593136
29.173897 79.601761 24.593136
29.560543 79.735786 24.593136
29.756985 79.798347 24.593136
29.947193 79.856346 24.593136
30.333839 79.981712 24.593136
30.72049 80.110168 24.593136
30.967777 80.184998 24.593136
31.107136 80.223686 24.593136
31.493786 80.333282 24.593136
31.880432 80.441666 24.593136
32.267078 80.541672 24.593136
32.388596 80.57164 24.593136
32.653728 80.637398 24.593136
33.040375 80.734024 24.593136
33.427025 80.824135 24.593136
33.813671 80.904617 24.593136
34.090782 80.95829 24.593136
34.200321 80.977928 24.593136
34.586967 81.049866 24.593136
34.973614 81.123756 24.593136
35.360264 81.18795 24.593136
35.74691 81.238091 24.593136
36.13356 81.285873 24.593136
36.520206 81.332451 24.593136
36.635509 81.34494 24.593136
36.906857 81.373566 24.593136
37.293503 81.411018 24.593136
37.680149 81.437225 24.593136
38.066799 81.459236 24.593136
38.453445 81.483665 24.593136
38.840096 81.504578 24.593136
39.226742 81.513313 24.593136
39.613392 81.513451 24.593136
40.000038 81.514496 24.593136
64.745499 69.502792 24.593136
64.559158 69.745499 24.593136
71.516815 45.386681 24.593136
71.516541 45.773331 24.593136
71.512756 46.159977 24.593136
71.51088 46.546627 24.593136
71.510986 46.933273 24.593136
71.512878 47.319923 24.593136
71.515152 47.70657 24.593136
71.515793 48.093216 24.593136
71.515366 48.479866 24.593136
71.512375 48.866512 24.593136
71.514206 49.253162 24.593136
71.516693 49.639809 24.593136
71.508881 50.026459 24.593136
71.492477 50.413105 24.593136
71.47464 50.799751 24.593136
71.456345 51.186401 24.593136
70.93187 56.011917 24.593136
70.891113 56.212822 24.593136
70.800735 56.599472 24.593136
70.70639 56.986118 24.593136
70.615677 57.372768 24.593136
71.439209 51.573048 24.593136
71.418823 51.959698 24.593136
71.397385 52.346344 24.593136
71.377945 52.732994 24.593136
71.348373 53.11964 24.593136
71.318512 53.383526 24.593136
71.30246 53.506287 24.593136
71.248383 53.892937 24.593136
71.195389 54.279583 24.593136
71.141022 54.666233 24.593136
71.081024 55.052879 24.593136
71.024445 55.439529 24.593136
70.964554 55.826176 24.593136
70.545227 57.686157 24.593136
70.528549 57.759415 24.593136
70.435364 58.146065 24.593136
70.339859 58.532711 24.593136
70.237137 58.919357 24.593136
70.158569 59.176086 24.593136
70.116013 59.306007 24.593136
69.98288 59.692657 24.593136
69.845367 60.0793 24.593136
69.771927 60.300262 24.593136
69.716431 60.46595 24.593136
69.385284 61.397949 24.593136
69.301239 61.625893 24.593136
69.134552 62.012543 24.593136
69.5784 60.8526 24.593136
69.440613 61.23925 24.593136
68.998627 62.315269 24.593136
68.961151 62.399193 24.593136
68.77861 62.785835 24.593136
68.611984 63.145325 24.593136
68.599869 63.172485 24.593136
68.418274 63.559135 24.593136
67.838684 64.743088 24.593136
67.637634 65.105728 24.593136
67.452042 65.429184 24.593136
67.417084 65.492371 24.593136
67.187424 65.879021 24.593136
67.065399 66.093636 24.593136
66.96785 66.265671 24.593136
66.732941 66.652321 24.593136
68.236588 63.945786 24.593136
68.225342 63.970291 24.593136
68.050537 64.332428 24.593136
67.851105 64.719078 24.593136
66.292099 67.388062 24.593136
66.267883 67.425613 24.593136
65.995255 67.812263 24.593136
65.905441 67.940659 24.593136
65.719177 68.198906 24.593136
66.678741 66.746674 24.593136
66.507309 67.038963 24.593136
65.518799 68.473305 24.593136
65.439957 68.585556 24.593136
65.150528 68.972206 24.593136
65.132156 68.996773 24.593136
64.85582 69.358856 24.593136
40.386684 81.515846 24.593136
40.773335 81.513153 24.593136
41.159981 81.497559 24.593136
41.546631 81.474045 24.593136
41.933277 81.45565 24.593136
42.319927 81.435165 24.593136
42.706573 81.406975 24.593136
43.09322 81.374763 24.593136
43.47987 81.335388 24.593136
43.395538 81.34494 24.593136
43.866516 81.289543 24.593136
44.253166 81.24292 24.593136
44.639812 81.189522 24.593136
45.026463 81.123711 24.593136
45.413109 81.05024 24.593136
46.186405 80.907066 24.593136
45.90554 80.95829 24.593136
45.799755 80.977303 24.593136
52.372772 78.982002 24.593136
52.271812 79.025047 24.593136
47.732998 80.539421 24.593136
47.601067 80.57164 24.593136
48.119644 80.439896 24.593136
48.50629 80.335129 24.593136
49.279587 80.112648 24.593136
49.036777 80.184998 24.593136
48.892941 80.226868 24.593136
46.573051 80.829407 24.593136
46.959702 80.737114 24.593136
47.346348 80.634842 24.593136
50.439533 79.736237 24.593136
50.245445 79.798347 24.593136
50.82618 79.603088 24.593136
49.666237 79.984947 24.593136
50.052883 79.857742 24.593136
51.599476 79.317169 24.593136
51.354763 79.411697 24.593136
51.212826 79.464226 24.593136
51.986122 79.150551 24.593136
58.559139 75.472145 24.593136
58.452419 75.545219 24.593136
58.172489 75.734222 24.593136
57.874554 75.93187 24.593136
63.97221 70.444061 24.593136
63.903965 70.518799 24.593136
64.358856 69.997551 24.593136
64.245911 70.132149 24.593136
63.58556 70.867599 24.593136
63.551319 70.905441 24.593136
63.199886 71.292091 24.593136
63.19891 71.293175 24.593136
62.85355 71.678741 24.593136
62.812267 71.726105 24.593136
62.496647 72.065392 24.593136
62.425617 72.144562 24.593136
62.132473 72.452034 24.593136
62.038967 72.539886 24.593136
61.719639 72.838684 24.593136
60.105732 74.251732 24.593136
59.947781 74.385277 24.593136
60.879025 73.578995 24.593136
60.840466 73.611977 24.593136
61.652325 72.899712 24.593136
61.284527 73.225334 24.593136
61.265675 73.241585 24.593136
60.492374 73.914612 24.593136
60.396885 73.998627 24.593136
59.332432 74.899002 24.593136
58.992229 75.158569 24.593136
59.719082 74.5783 24.593136
59.489201 74.771927 24.593136
58.945789 75.192574 24.593136
55.465954 77.462326 24.593136
55.435024 77.478462 24.593136
53.146069 78.636673 24.593136
53.141956 78.638405 24.593136
52.759418 78.808372 24.593136
53.532715 78.455101 24.593136
53.919361 78.261162 24.593136
54.692661 77.864243 24.593136
54.690907 77.865105 24.593136
54.306011 78.062592 24.593136
53.938602 78.251755 24.593136
55.079304 77.663368 24.593136
57.012547 76.511703 24.593136
56.721188 76.705162 24.593136
56.239254 77.020119 24.593136
56.125034 77.091812 24.593136
55.852604 77.251083 24.593136
56.625896 76.766937 24.593136
57.399197 76.255249 24.593136
57.302441 76.318512 24.593136
57.785839 75.99118 24.593136
15.254572 20.254568 24.410328
27.240658 10.975019 24.3475
27.627304 10.975019 24.546593
24.147472 12.52161 24.32399
24.534122 12.52161 24.575108
22.98753 13.294907 24.386734
22.214233 13.681553 24.250637
21.827587 14.068201 24.384254
22.600883 13.681553 24.525024
23.37418 12.908258 24.244427
23.760826 12.908258 24.510288
25.694065 11.748314 24.369896
24.920769 12.134962 24.358803
25.307419 12.134962 24.592358
26.467361 11.361666 24.37944
26.854008 11.361666 24.591026
18.347755 16.774736 24.275383
17.961107 17.161385 24.307758
19.894346 15.614794 24.463196
20.667643 14.841497 24.318962
21.054291 14.454849 24.212051
21.440939 14.454849 24.516647
20.280994 15.228146 24.403397
18.734404 16.388088 24.23827
19.121052 16.388088 24.564613
19.507698 16.001442 24.514587
16.801163 18.321329 24.259052
16.414516 18.707977 24.22253
17.574459 17.548033 24.320709
17.187811 17.934681 24.289188
16.027868 19.481272 24.523758
16.414516 19.094624 24.559738
15.64122 19.86792 24.483536
29.173897 10.201722 24.350361
28.013954 10.58837 24.279736
28.4006 10.58837 24.475597
29.560543 10.201722 24.514801
30.333839 9.8150749 24.342415
30.72049 9.8150749 24.495331
31.493786 9.4284267 24.299458
31.880432 9.4284267 24.42696
32.267078 9.4284267 24.552059
33.040375 9.0417786 24.319584
33.427025 9.0417786 24.428894
33.813671 9.0417786 24.528263
34.586967 8.6551304 24.220661
34.973614 8.6551304 24.311676
35.360264 8.6551304 24.39352
35.74691 8.6551304 24.456699
36.13356 8.6551304 24.518406
36.520206 8.6551304 24.577938
38.066799 8.2684832 24.230644
38.453445 8.2684832 24.256905
38.840096 8.2684832 24.283382
39.226742 8.2684832 24.300728
39.613392 8.2684832 24.303612
40.000038 8.2684832 24.306404
14.481276 21.027864 24.212822
14.867924 20.641216 24.321354
14.481276 21.414513 24.514954
14.094627 21.801159 24.395771
13.707981 22.187807 24.26741
13.707981 22.574455 24.566071
12.934685 23.347752 24.223186
13.321333 22.961103 24.403313
12.161388 24.894342 24.368427
11.77474 25.667639 24.403614
11.388092 26.440935 24.375076
12.934685 23.7344 24.478695
12.548037 24.121048 24.295135
12.548037 24.507694 24.552383
10.614798 27.987526 24.306011
11.388092 26.827583 24.581272
11.001446 27.21423 24.343182
11.001446 27.60088 24.554092
10.614798 28.374176 24.495361
10.228149 29.147469 24.359772
10.228149 29.534119 24.524773
9.8415012 30.307415 24.367195
9.8415012 30.694061 24.537102
9.4548531 31.467358 24.325047
9.4548531 31.854004 24.447468
9.4548531 32.240654 24.569538
9.0682049 33.01395 24.303047
9.0682049 33.400597 24.42189
9.0682049 33.787247 24.539089
8.6815567 34.560539 24.211769
8.6815567 34.947189 24.281033
8.6815567 35.333836 24.353573
8.6815567 35.720486 24.430946
8.6815567 36.107132 24.504395
8.6815567 36.493782 24.570156
8.2949104 38.040371 24.22364
8.2949104 38.427021 24.245895
8.2949104 38.813667 24.268879
8.2949104 39.200317 24.293678
8.2949104 39.586964 24.317375
8.2949104 39.97361 24.335419
8.2949104 40.36026 24.341274
8.2949104 40.746906 24.342014
8.2949104 41.133556 24.341358
8.2949104 41.520203 24.342361
8.2949104 41.906853 24.343601
8.2949104 42.293499 24.341141
8.2949104 42.680145 24.341328
8.2949104 43.066795 24.344856
8.2949104 43.453442 24.34343
8.2949104 43.840092 24.344604
8.2949104 44.226738 24.348656
8.2949104 44.613388 24.348396
8.2949104 45.000034 24.347507
40.386684 8.2684832 24.302929
40.773335 8.2684832 24.297684
41.159981 8.2684832 24.281422
41.546631 8.2684832 24.256516
41.933277 8.2684832 24.228943
43.47987 8.6551304 24.578968
43.866516 8.6551304 24.519962
44.253166 8.6551304 24.457703
44.639812 8.6551304 24.391098
45.026463 8.6551304 24.311771
45.413109 8.6551304 24.222893
46.186405 9.0417786 24.529331
46.573051 9.0417786 24.429508
46.959702 9.0417786 24.317211
47.732998 9.4284267 24.555096
48.119644 9.4284267 24.433949
48.50629 9.4284267 24.303913
49.279587 9.8150749 24.495296
49.666237 9.8150749 24.336124
50.439533 10.201722 24.514648
50.82618 10.201722 24.348068
51.599476 10.58837 24.473778
51.986122 10.58837 24.282566
52.372772 10.975019 24.54847
52.759418 10.975019 24.354042
53.146069 11.361666 24.592838
53.532715 11.361666 24.380116
54.306011 11.748314 24.368538
54.692661 12.134962 24.588493
55.079304 12.134962 24.35685
55.465954 12.52161 24.575806
55.852604 12.52161 24.329994
56.239254 12.908258 24.518097
56.625896 12.908258 24.239624
57.012547 13.294907 24.385529
57.399197 13.681553 24.524216
57.785839 13.681553 24.247829
58.172489 14.068201 24.381573
58.559139 14.454849 24.517803
58.945789 14.454849 24.211563
59.332432 14.841497 24.317635
59.719082 15.228146 24.406055
60.105732 15.614794 24.462482
60.492374 16.001442 24.510876
60.879025 16.388088 24.562576
61.265675 16.388088 24.238567
61.652325 16.774736 24.277515
62.038967 17.161385 24.308945
62.425617 17.548033 24.313873
62.812267 17.934681 24.289906
63.19891 18.321329 24.255836
63.58556 18.707977 24.220978
63.58556 19.094624 24.562794
63.97221 19.481272 24.523914
64.358856 19.86792 24.485462
64.745499 20.254568 24.413429
65.132156 20.641216 24.315323
65.518799 21.027864 24.20977
65.518799 21.414513 24.51004
65.905441 21.801159 24.391129
66.292099 22.187807 24.265247
66.292099 22.574455 24.561832
66.678741 22.961103 24.398575
67.065399 23.347752 24.222225
67.065399 23.7344 24.47739
67.452042 24.121048 24.2939
67.452042 24.507694 24.548729
67.838684 24.894342 24.36808
68.225342 25.667639 24.396835
68.611984 26.440935 24.375572
68.611984 26.827583 24.579929
68.998627 27.21423 24.344021
68.998627 27.60088 24.554306
69.385284 27.987526 24.299339
69.385284 28.374176 24.49128
69.771927 29.147469 24.358829
69.771927 29.534119 24.524204
70.158569 30.307415 24.372982
70.158569 30.694061 24.537834
70.545227 31.467358 24.320255
70.545227 31.854004 24.44622
70.545227 32.240654 24.569416
70.93187 33.01395 24.300709
70.93187 33.400597 24.420746
70.93187 33.787247 24.539398
71.318512 34.560539 24.21154
71.318512 34.947189 24.280674
71.318512 35.333836 24.351158
71.318512 35.720486 24.425438
71.318512 36.107132 24.499649
71.318512 36.493782 24.570457
71.70517 38.040371 24.220081
71.70517 38.427021 24.243469
71.70517 38.813667 24.265114
71.70517 39.200317 24.287476
71.70517 39.586964 24.314003
71.70517 39.97361 24.331932
71.70517 40.36026 24.33707
71.70517 40.746906 24.340958
71.70517 41.133556 24.343044
71.70517 41.520203 24.34116
71.70517 41.906853 24.342644
71.70517 42.293499 24.343182
71.70517 42.680145 24.340343
71.70517 43.066795 24.338856
71.70517 43.453442 24.340237
71.70517 43.840092 24.340626
71.70517 44.226738 24.338284
71.70517 44.613388 24.338833
71.70517 45.000034 24.342834
8.2949104 45.386681 24.345741
8.2949104 45.773331 24.342514
8.2949104 46.159977 24.340492
8.2949104 46.546627 24.342209
8.2949104 46.933273 24.342663
8.2949104 47.319923 24.343773
8.2949104 47.70657 24.345978
8.2949104 48.093216 24.345867
8.2949104 48.479866 24.343472
8.2949104 48.866512 24.342136
8.2949104 49.253162 24.342564
8.2949104 49.639809 24.340599
8.2949104 50.026459 24.33176
8.2949104 50.413105 24.316132
8.2949104 50.799751 24.295902
8.2949104 51.186401 24.270733
8.2949104 51.573048 24.245544
8.2949104 51.959698 24.221653
8.6815567 53.506287 24.569012
8.6815567 53.892937 24.498669
8.6815567 54.279583 24.426121
8.6815567 54.666233 24.349236
8.6815567 55.052879 24.280079
8.6815567 55.439529 24.212326
9.0682049 56.212822 24.543808
9.0682049 56.599472 24.422546
9.0682049 56.986118 24.303837
9.4548531 57.759415 24.569752
9.4548531 58.146065 24.442558
9.4548531 58.532711 24.317612
9.8415012 59.306007 24.540047
9.8415012 59.692657 24.371956
10.228149 60.46595 24.525887
10.228149 60.8526 24.35498
10.614798 61.625893 24.495667
10.614798 62.012543 24.302662
11.001446 62.399193 24.555309
11.001446 62.785835 24.347446
11.388092 63.172485 24.581726
11.388092 63.559135 24.374378
11.77474 64.332428 24.400753
12.161388 65.105728 24.365849
12.548037 65.492371 24.549507
12.548037 65.879021 24.296421
12.934685 66.265671 24.476261
12.934685 66.652321 24.222672
13.321333 67.038963 24.397949
13.707981 67.425613 24.566971
13.707981 67.812263 24.265553
14.094627 68.198906 24.396328
14.481276 68.585556 24.51585
14.481276 68.972206 24.210354
14.867924 69.358856 24.319725
15.254572 69.745499 24.411831
15.64122 70.132149 24.479282
16.027868 70.518799 24.523392
16.414516 70.905441 24.55928
16.414516 71.292091 24.221485
16.801163 71.678741 24.256844
17.187811 72.065392 24.291241
17.574459 72.452034 24.314632
17.961107 72.838684 24.308792
18.347755 73.225334 24.283222
18.734404 73.611977 24.237133
19.121052 73.611977 24.562687
19.507698 73.998627 24.513279
19.894346 74.385277 24.458729
20.280994 74.771927 24.408333
20.667643 75.158569 24.323753
21.054291 75.545219 24.210766
21.440939 75.545219 24.514866
21.827587 75.93187 24.384575
22.214233 76.318512 24.25481
22.600883 76.318512 24.531059
22.98753 76.705162 24.390202
23.37418 77.091812 24.24543
23.760826 77.091812 24.513401
24.147472 77.478462 24.333637
24.534122 77.478462 24.579372
24.920769 77.865105 24.361305
25.694065 78.251755 24.37537
26.467361 78.638405 24.379406
26.854008 78.638405 24.590199
27.240658 79.025047 24.352337
27.627304 79.025047 24.546227
28.013954 79.411697 24.278625
28.4006 79.411697 24.474026
29.173897 79.798347 24.349129
29.560543 79.798347 24.514618
30.333839 80.184998 24.33651
30.72049 80.184998 24.495869
31.493786 80.57164 24.3009
31.880432 80.57164 24.431873
32.267078 80.57164 24.555561
33.040375 80.95829 24.31546
33.427025 80.95829 24.427181
33.813671 80.95829 24.527096
34.586967 81.34494 24.221836
34.973614 81.34494 24.309513
35.360264 81.34494 24.391041
35.74691 81.34494 24.455631
36.13356 81.34494 24.515881
36.520206 81.34494 24.576672
38.066799 81.731583 24.229664
38.453445 81.731583 24.259586
38.840096 81.731583 24.286755
39.226742 81.731583 24.299923
39.613392 81.731583 24.30088
40.000038 81.731583 24.300816
64.745499 69.745499 24.4076
71.70517 45.386681 24.346085
71.70517 45.773331 24.345901
71.70517 46.159977 24.342663
71.70517 46.546627 24.33987
71.70517 46.933273 24.34082
71.70517 47.319923 24.3419
71.70517 47.70657 24.343723
71.70517 48.093216 24.345932
71.70517 48.479866 24.343319
71.70517 48.866512 24.340256
71.70517 49.253162 24.343487
71.70517 49.639809 24.343742
71.70517 50.026459 24.333843
71.70517 50.413105 24.313843
71.70517 50.799751 24.291477
71.70517 51.186401 24.268932
70.93187 56.212822 24.537678
70.93187 56.599472 24.421661
70.93187 56.986118 24.301888
71.70517 51.573048 24.246845
71.70517 51.959698 24.223206
71.318512 53.506287 24.571159
71.318512 53.892937 24.497543
71.318512 54.279583 24.428806
71.318512 54.666233 24.35952
71.318512 55.052879 24.282787
71.318512 55.439529 24.2104
70.545227 57.759415 24.570614
70.545227 58.146065 24.447845
70.545227 58.532711 24.320492
70.158569 59.306007 24.538895
70.158569 59.692657 24.368633
69.771927 60.46595 24.523727
69.385284 61.625893 24.497318
69.385284 62.012543 24.305023
69.771927 60.8526 24.355625
68.998627 62.399193 24.550549
68.998627 62.785835 24.344303
68.611984 63.172485 24.579346
68.611984 63.559135 24.375423
67.838684 65.105728 24.368904
67.452042 65.492371 24.553734
67.452042 65.879021 24.296715
67.065399 66.265671 24.480923
67.065399 66.652321 24.222809
68.225342 64.332428 24.397041
66.292099 67.425613 24.565941
66.292099 67.812263 24.265263
65.905441 68.198906 24.393112
66.678741 67.038963 24.39904
65.518799 68.585556 24.510647
65.518799 68.972206 24.209282
65.132156 69.358856 24.31625
40.386684 81.731583 24.300442
40.773335 81.731583 24.296036
41.159981 81.731583 24.28019
41.546631 81.731583 24.252483
41.933277 81.731583 24.225346
43.47987 81.34494 24.580364
43.866516 81.34494 24.521255
44.253166 81.34494 24.462067
44.639812 81.34494 24.390942
45.026463 81.34494 24.307236
45.413109 81.34494 24.224297
46.186405 80.95829 24.530045
52.372772 79.025047 24.544277
47.732998 80.57164 24.552902
48.119644 80.57164 24.431515
48.50629 80.57164 24.305717
49.279587 80.184998 24.500134
46.573051 80.95829 24.434948
46.959702 80.95829 24.320442
50.439533 79.798347 24.51474
50.82618 79.798347 24.348568
49.666237 80.184998 24.343052
51.599476 79.411697 24.475899
51.986122 79.411697 24.281151
58.559139 75.545219 24.51548
58.172489 75.93187 24.38324
63.97221 70.518799 24.52784
64.358856 70.132149 24.48296
63.58556 70.905441 24.560452
63.58556 71.292091 24.220848
63.19891 71.678741 24.258354
62.812267 72.065392 24.293392
62.425617 72.452034 24.315163
62.038967 72.838684 24.308601
60.105732 74.385277 24.463978
60.879025 73.611977 24.561493
61.652325 73.225334 24.278702
61.265675 73.611977 24.23637
60.492374 73.998627 24.514595
59.332432 75.158569 24.318207
59.719082 74.771927 24.405365
58.945789 75.545219 24.209934
55.465954 77.478462 24.574429
53.146069 78.638405 24.59116
52.759418 79.025047 24.351688
53.532715 78.638405 24.378841
54.692661 77.865105 24.592083
54.306011 78.251755 24.372208
55.079304 77.865105 24.35936
57.012547 76.705162 24.389725
56.239254 77.091812 24.516552
55.852604 77.478462 24.334599
56.625896 77.091812 24.245365
57.399197 76.318512 24.525661
57.785839 76.318512 24.249245
22.98753 13.855236 24.979786
22.67178 14.068201 24.979786
24.534122 12.884682 24.979786
24.491032 12.908258 24.979786
24.147472 13.110466 24.979786
23.845371 13.294907 24.979786
23.37418 13.599415 24.979786
23.247936 13.681553 24.979786
23.760826 13.347399 24.979786
25.307419 12.469484 24.979786
25.204533 12.52161 24.979786
26.080715 12.079039 24.979786
25.963398 12.134962 24.979786
25.694065 12.267569 24.979786
26.854008 11.710119 24.979786
26.765057 11.748314 24.979786
27.240658 11.537594 24.979786
27.627304 11.364026 24.979786
26.467361 11.886339 24.979786
24.920769 12.669237 24.979786
20.667643 15.495705 24.979786
20.526623 15.614794 24.979786
21.054291 15.186579 24.979786
20.999184 15.228146 24.979786
21.440939 14.897644 24.979786
19.894346 16.158247 24.979786
19.624949 16.388088 24.979786
19.121052 16.825359 24.979786
18.7351 17.161385 24.979786
19.507698 16.487938 24.979786
19.181013 16.774736 24.979786
20.280994 15.824678 24.979786
20.073866 16.001442 24.979786
18.347755 17.510834 24.979786
18.309418 17.548033 24.979786
17.961107 17.898823 24.979786
17.925608 17.934681 24.979786
17.574459 18.304102 24.979786
17.558386 18.321329 24.979786
17.199986 18.707977 24.979786
16.801163 19.148119 24.979786
16.499039 19.481272 24.979786
16.027868 20.020136 24.979786
15.840437 20.254568 24.979786
16.414516 19.574053 24.979786
16.15556 19.86792 24.979786
17.187811 18.721815 24.979786
16.849497 19.094624 24.979786
18.734404 17.161982 24.979786
22.214233 14.376442 24.979786
22.095909 14.454849 24.979786
21.827587 14.633894 24.979786
21.523155 14.841497 24.979786
22.600883 14.114304 24.979786
28.787251 10.860921 24.979786
28.508595 10.975019 24.979786
29.173897 10.708867 24.979786
29.560543 10.579843 24.979786
29.533394 10.58837 24.979786
29.947193 10.455021 24.979786
30.333839 10.324943 24.979786
30.72049 10.202215 24.979786
33.813671 9.4208612 24.979786
33.775394 9.4284267 24.979786
31.107136 10.085927 24.979786
30.722126 10.201722 24.979786
31.493786 9.9785089 24.979786
32.267078 9.7807274 24.979786
32.129559 9.8150749 24.979786
31.880432 9.8784866 24.979786
32.653728 9.6787825 24.979786
33.040375 9.5788784 24.979786
33.427025 9.4965067 24.979786
28.013954 11.19436 24.979786
27.632935 11.361666 24.979786
28.4006 11.019939 24.979786
34.200321 9.3458595 24.979786
34.586967 9.2684994 24.979786
34.973614 9.1928902 24.979786
35.360264 9.1317797 24.979786
36.13356 9.0310249 24.979786
36.046524 9.0417786 24.979786
35.74691 9.0799665 24.979786
36.520206 8.9833221 24.979786
36.906857 8.9380445 24.979786
37.293503 8.8996267 24.979786
37.680149 8.8703623 24.979786
38.066799 8.8437071 24.979786
38.453445 8.8183165 24.979786
38.840096 8.7987137 24.979786
39.226742 8.7836542 24.979786
39.613392 8.7786083 24.979786
40.000038 8.7796116 24.979786
15.254572 21.015303 24.979786
15.244959 21.027864 24.979786
14.950296 21.414513 24.979786
14.867924 21.526705 24.979786
14.660988 21.801159 24.979786
13.707981 23.185812 24.979786
13.613142 23.347752 24.979786
14.481276 22.039801 24.979786
14.370934 22.187807 24.979786
14.094627 22.572615 24.979786
14.093422 22.574455 24.979786
13.840824 22.961103 24.979786
12.161388 25.93536 24.979786
12.108362 26.054287 24.979786
11.924431 26.440935 24.979786
13.380356 23.7344 24.979786
13.321333 23.839315 24.979786
13.158079 24.121048 24.979786
12.934685 24.496296 24.979786
12.928398 24.507694 24.979786
12.706562 24.894342 24.979786
12.548037 25.180067 24.979786
12.493114 25.280991 24.979786
12.289055 25.667639 24.979786
11.77474 26.760271 24.979786
11.744055 26.827583 24.979786
11.562799 27.21423 24.979786
11.388092 27.589363 24.979786
11.382933 27.60088 24.979786
11.205019 27.987526 24.979786
11.041235 28.374176 24.979786
11.001446 28.484581 24.979786
10.900784 28.760822 24.979786
10.756647 29.147469 24.979786
10.620699 29.534119 24.979786
10.614798 29.551407 24.979786
10.485836 29.920765 24.979786
10.344357 30.307415 24.979786
10.228149 30.642021 24.979786
10.210371 30.694061 24.979786
10.082319 31.080711 24.979786
9.9728432 31.467358 24.979786
9.878067 31.854004 24.979786
9.8415012 32.00943 24.979786
9.7850018 32.240654 24.979786
9.6894073 32.6273 24.979786
9.0682049 35.976337 24.979786
9.0506592 36.107132 24.979786
8.9992733 36.493782 24.979786
8.9515858 36.880428 24.979786
8.9156513 37.267075 24.979786
8.8921108 37.653725 24.979786
8.8719788 38.040371 24.979786
8.8511543 38.427021 24.979786
8.8339062 38.813667 24.979786
9.5937366 33.01395 24.979786
9.4973354 33.400597 24.979786
9.4548531 33.588238 24.979786
9.4108915 33.787247 24.979786
9.3316517 34.173893 24.979786
9.2720203 34.560539 24.979786
9.2159214 34.947189 24.979786
9.1549149 35.333836 24.979786
9.1009645 35.720486 24.979786
8.8167248 39.200317 24.979786
8.7958736 39.586964 24.979786
8.7796307 39.97361 24.979786
8.7722836 40.36026 24.979786
8.7755661 40.746906 24.979786
8.7764149 41.133556 24.979786
8.7748299 41.520203 24.979786
8.7772274 41.906853 24.979786
8.7753963 42.293499 24.979786
8.7765846 42.680145 24.979786
8.7797737 43.066795 24.979786
8.7755175 43.453442 24.979786
8.7758026 43.840092 24.979786
8.7796021 44.226738 24.979786
8.7778931 44.613388 24.979786
8.7773323 45.000034 24.979786
15.64122 20.510309 24.979786
15.543531 20.641216 24.979786
40.386684 8.7792196 24.979786
40.773335 8.7807856 24.979786
41.159981 8.7934923 24.979786
41.546631 8.8186874 24.979786
41.933277 8.8456202 24.979786
42.319927 8.8714256 24.979786
42.706573 8.9010096 24.979786
43.09322 8.9356709 24.979786
43.47987 8.9826231 24.979786
43.866516 9.0316353 24.979786
43.956059 9.0417786 24.979786
44.253166 9.0777111 24.979786
44.639812 9.131917 24.979786
45.026463 9.1982279 24.979786
45.413109 9.2705822 24.979786
45.799755 9.3461494 24.979786
46.186405 9.420496 24.979786
46.230026 9.4284267 24.979786
46.573051 9.4967489 24.979786
46.959702 9.5860157 24.979786
47.346348 9.6820717 24.979786
47.732998 9.77876 24.979786
47.880699 9.8150749 24.979786
48.119644 9.8752079 24.979786
48.50629 9.981019 24.979786
48.892941 10.086973 24.979786
49.279587 10.200701 24.979786
49.282867 10.201722 24.979786
49.666237 10.322366 24.979786
50.052883 10.451362 24.979786
50.439533 10.58269 24.979786
50.45676 10.58837 24.979786
50.82618 10.713794 24.979786
51.212826 10.862168 24.979786
51.486702 10.975019 24.979786
51.599476 11.022997 24.979786
51.986122 11.194737 24.979786
52.371773 11.361666 24.979786
52.372772 11.362082 24.979786
52.759418 11.534307 24.979786
53.146069 11.708578 24.979786
53.239212 11.748314 24.979786
53.532715 11.880899 24.979786
53.919361 12.074898 24.979786
54.037682 12.134962 24.979786
54.306011 12.270313 24.979786
54.692661 12.471769 24.979786
54.793262 12.52161 24.979786
55.079304 12.671898 24.979786
55.465954 12.887938 24.979786
55.504375 12.908258 24.979786
55.852604 13.109856 24.979786
56.152256 13.294907 24.979786
56.239254 13.348797 24.979786
56.625896 13.601471 24.979786
56.751705 13.681553 24.979786
57.012547 13.85564 24.979786
57.329098 14.068201 24.979786
57.399197 14.114378 24.979786
57.785839 14.374947 24.979786
57.909847 14.454849 24.979786
58.172489 14.633287 24.979786
58.47456 14.841497 24.979786
58.559139 14.897823 24.979786
58.945789 15.182373 24.979786
59.00507 15.228146 24.979786
59.332432 15.498796 24.979786
59.473164 15.614794 24.979786
59.719082 15.823229 24.979786
59.925312 16.001442 24.979786
60.105732 16.157368 24.979786
60.371181 16.388088 24.979786
60.492374 16.491776 24.979786
