-3.665555275509999689e+01 -4.247104972000000345e+01 1.864000000000000057e+01 0.000000000000000000e+00 0.000000000000000000e+00 0.000000000000000000e+00
-3.609712999999999994e+01 -4.236310000000000286e+01 1.864000000000000057e+01 0.000000000000000000e+00 0.000000000000000000e+00 0.000000000000000000e+00
-3.331931240000000116e+01 -4.031595999999999691e+01 1.867000000000000171e+01 0.000000000000000000e+00 0.000000000000000000e+00 0.000000000000000000e+00
-3.251258750000000219e+01 -3.976525000000000176e+01 1.864000000000000057e+01 0.000000000000000000e+00 0.000000000000000000e+00 0.000000000000000000e+00
-3.116785399999999839e+01 -3.887939999999999685e+01 1.864000000000000057e+01 0.000000000000000000e+00 0.000000000000000000e+00 0.000000000000000000e+00
-2.771776967439999950e+01 -3.774532020390000042e+01 1.863489999999999824e+01 0.000000000000000000e+00 0.000000000000000000e+00 0.000000000000000000e+00
-2.693792741829999926e+01 -3.817833231099999836e+01 1.858042857139999882e+01 0.000000000000000000e+00 0.000000000000000000e+00 0.000000000000000000e+00
-1.809465000000000146e+01 3.245802549999999798e+01 4.612299999999999756e+01 0.000000000000000000e+00 0.000000000000000000e+00 0.000000000000000000e+00
-3.057328400000000101e+01 -3.797079999999999700e+01 1.503999999999999915e+01 0.000000000000000000e+00 0.000000000000000000e+00 0.000000000000000000e+00
-3.460430600000000112e+01 -4.115809999999999746e+01 1.789000000000000057e+01 0.000000000000000000e+00 0.000000000000000000e+00 0.000000000000000000e+00
-3.385761200000000315e+01 -4.060260000000000247e+01 1.789000000000000057e+01 0.000000000000000000e+00 0.000000000000000000e+00 0.000000000000000000e+00
-3.206479699999999866e+01 -3.939430000000000121e+01 1.803999999999999915e+01 0.000000000000000000e+00 0.000000000000000000e+00 0.000000000000000000e+00
-3.184117399999999876e+01 -3.916344999999999743e+01 1.781500000000000128e+01 0.000000000000000000e+00 0.000000000000000000e+00 0.000000000000000000e+00
-3.086982199999999921e+01 -3.854959999999999809e+01 1.789000000000000057e+01 0.000000000000000000e+00 0.000000000000000000e+00 0.000000000000000000e+00
-2.997311600000000098e+01 -3.799519999999999698e+01 1.789000000000000057e+01 0.000000000000000000e+00 0.000000000000000000e+00 0.000000000000000000e+00
-3.296189900000000250e+01 -3.988269999999999982e+01 1.714000000000000057e+01 0.000000000000000000e+00 0.000000000000000000e+00 0.000000000000000000e+00
-3.251389249999999720e+01 -3.954775000000000063e+01 1.714000000000000057e+01 0.000000000000000000e+00 0.000000000000000000e+00 0.000000000000000000e+00
-3.191650699999999929e+01 -3.910840000000000316e+01 1.714000000000000057e+01 0.000000000000000000e+00 0.000000000000000000e+00 0.000000000000000000e+00
-3.146859500000000054e+01 -3.875769999999999982e+01 1.714000000000000057e+01 0.000000000000000000e+00 0.000000000000000000e+00 0.000000000000000000e+00
-2.847376999999999825e+01 -3.787720000000000198e+01 1.728999999999999915e+01 0.000000000000000000e+00 0.000000000000000000e+00 0.000000000000000000e+00
-2.767451385909999928e+01 -3.833538043749999957e+01 1.720557142859999900e+01 0.000000000000000000e+00 0.000000000000000000e+00 0.000000000000000000e+00
-2.491478416229999837e+01 3.036429529759999824e+01 4.454650000000000176e+01 0.000000000000000000e+00 0.000000000000000000e+00 0.000000000000000000e+00
-4.257393126910000092e+01 -2.089772331420000029e+01 1.658999999999999986e+01 0.000000000000000000e+00 0.000000000000000000e+00 0.000000000000000000e+00
-4.230055280140000207e+01 -2.147809568970000171e+01 1.653999999999999915e+01 0.000000000000000000e+00 0.000000000000000000e+00 0.000000000000000000e+00
-4.680579999999999785e+01 -2.348167000000000115e+01 2.494000000000000128e+01 0.000000000000000000e+00 0.000000000000000000e+00 0.000000000000000000e+00
-4.166243426799999838e+01 -2.285364177370000149e+01 1.653999999999999915e+01 0.000000000000000000e+00 0.000000000000000000e+00 0.000000000000000000e+00
-2.568280437030000130e+01 2.894965705090000085e+01 3.964000000000000057e+01 0.000000000000000000e+00 0.000000000000000000e+00 0.000000000000000000e+00
-4.115890895999999799e+01 -2.368463759850000017e+01 1.652333333329999832e+01 0.000000000000000000e+00 0.000000000000000000e+00 0.000000000000000000e+00
-4.088086218950000017e+01 -2.423776364640000125e+01 1.653999999999999915e+01 0.000000000000000000e+00 0.000000000000000000e+00 0.000000000000000000e+00
-3.324332188969999891e+01 -3.982662487270000184e+01 1.648999999999999844e+01 0.000000000000000000e+00 0.000000000000000000e+00 0.000000000000000000e+00
-3.343120509519999928e+01 -4.011979514979999806e+01 1.669000000000000128e+01 0.000000000000000000e+00 0.000000000000000000e+00 0.000000000000000000e+00
-3.146882000000000090e+01 -3.872019999999999840e+01 1.669000000000000128e+01 0.000000000000000000e+00 0.000000000000000000e+00 0.000000000000000000e+00
-2.837044431669999867e+01 -3.824360818539999940e+01 1.653999999999999915e+01 0.000000000000000000e+00 0.000000000000000000e+00 0.000000000000000000e+00
-2.134825857470000088e+01 1.910211616329999984e+01 4.097687499999999972e+01 0.000000000000000000e+00 0.000000000000000000e+00 0.000000000000000000e+00
-4.310864677179999660e+01 -2.002080786189999984e+01 1.652333333329999832e+01 0.000000000000000000e+00 0.000000000000000000e+00 0.000000000000000000e+00
-4.267941199999999924e+01 -2.035480000000000089e+01 1.639000000000000057e+01 0.000000000000000000e+00 0.000000000000000000e+00 0.000000000000000000e+00
-4.039968934289999680e+01 -2.501582199419999952e+01 1.653999999999999915e+01 0.000000000000000000e+00 0.000000000000000000e+00 0.000000000000000000e+00
-1.515000000000000036e+01 2.328000000000000114e+01 5.208233333329999937e+01 0.000000000000000000e+00 0.000000000000000000e+00 0.000000000000000000e+00
-4.186967488269999649e+01 -2.297981386880000088e+01 1.589909090909999989e+01 0.000000000000000000e+00 0.000000000000000000e+00 0.000000000000000000e+00
-3.982214283599999760e+01 -2.589364346179999998e+01 1.698999999999999844e+01 0.000000000000000000e+00 0.000000000000000000e+00 0.000000000000000000e+00
-4.108766048780000091e+01 -2.424316003059999858e+01 1.584624999999999950e+01 0.000000000000000000e+00 0.000000000000000000e+00 0.000000000000000000e+00
-4.049101146470000145e+01 -2.509467683169999930e+01 1.596142857140000082e+01 0.000000000000000000e+00 0.000000000000000000e+00 0.000000000000000000e+00
-4.029265109050000149e+01 -2.568394737699999908e+01 1.577333333330000009e+01 0.000000000000000000e+00 0.000000000000000000e+00 0.000000000000000000e+00
-3.907840358989999885e+01 -2.732329740619999825e+01 1.589000000000000057e+01 0.000000000000000000e+00 0.000000000000000000e+00 0.000000000000000000e+00
-3.740220730760000123e+01 -2.986293902510000109e+01 1.571499999999999986e+01 0.000000000000000000e+00 0.000000000000000000e+00 0.000000000000000000e+00
-3.303296260470000334e+01 -3.896865189369999882e+01 1.608999999999999986e+01 0.000000000000000000e+00 0.000000000000000000e+00 0.000000000000000000e+00
-3.146914400000000001e+01 -3.866620000000000346e+01 1.608999999999999986e+01 0.000000000000000000e+00 0.000000000000000000e+00 0.000000000000000000e+00
-2.898536298260000166e+01 -3.813430299040000193e+01 1.574000000000000021e+01 0.000000000000000000e+00 0.000000000000000000e+00 0.000000000000000000e+00
-2.838997095319999886e+01 -3.844262501850000291e+01 1.586379999999999946e+01 0.000000000000000000e+00 0.000000000000000000e+00 0.000000000000000000e+00
-2.588559039029999909e+01 3.087046692350000043e+01 3.528999999999999915e+01 0.000000000000000000e+00 0.000000000000000000e+00 0.000000000000000000e+00
-3.769072415010000299e+01 -2.933264811709999975e+01 1.589000000000000057e+01 0.000000000000000000e+00 0.000000000000000000e+00 0.000000000000000000e+00
-3.680551261109999928e+01 -3.057775280619999947e+01 1.574714285710000006e+01 0.000000000000000000e+00 0.000000000000000000e+00 0.000000000000000000e+00
-3.620531091470000007e+01 -3.133064077770000111e+01 1.577235294119999942e+01 0.000000000000000000e+00 0.000000000000000000e+00 0.000000000000000000e+00
-3.191960014269999846e+01 -3.831242543719999816e+01 1.566999999999999993e+01 0.000000000000000000e+00 0.000000000000000000e+00 0.000000000000000000e+00
-3.147394999999999854e+01 -3.786520000000000152e+01 1.549000000000000021e+01 0.000000000000000000e+00 0.000000000000000000e+00 0.000000000000000000e+00
-4.322222229590000353e+01 -2.078449048750000117e+01 1.508090909090000054e+01 0.000000000000000000e+00 0.000000000000000000e+00 0.000000000000000000e+00
-4.267322000000000060e+01 -2.138680000000000092e+01 1.518999999999999950e+01 0.000000000000000000e+00 0.000000000000000000e+00 0.000000000000000000e+00
-4.224004703610000178e+01 -2.286050129579999890e+01 1.502846153850000022e+01 0.000000000000000000e+00 0.000000000000000000e+00 0.000000000000000000e+00
-4.175661181569999769e+01 -2.361099396970000086e+01 1.503999999999999915e+01 0.000000000000000000e+00 0.000000000000000000e+00 0.000000000000000000e+00
-4.054947800000000058e+01 -2.533119999999999905e+01 1.518999999999999950e+01 0.000000000000000000e+00 0.000000000000000000e+00 0.000000000000000000e+00
-4.049995513780000067e+01 -2.578425462750000108e+01 1.503999999999999915e+01 0.000000000000000000e+00 0.000000000000000000e+00 0.000000000000000000e+00
-3.909253349570000324e+01 -2.796210479459999831e+01 1.506142857140000046e+01 0.000000000000000000e+00 0.000000000000000000e+00 0.000000000000000000e+00
-3.689673457600000006e+01 -3.076233885639999954e+01 1.507000000000000028e+01 0.000000000000000000e+00 0.000000000000000000e+00 0.000000000000000000e+00
-3.558818695589999948e+01 -3.217865810680000038e+01 1.508999999999999986e+01 0.000000000000000000e+00 0.000000000000000000e+00 0.000000000000000000e+00
-3.486906097979999686e+01 -3.297575630909999944e+01 1.511500000000000021e+01 0.000000000000000000e+00 0.000000000000000000e+00 0.000000000000000000e+00
-3.110406334500000014e+01 -3.805233708010000271e+01 1.513000000000000078e+01 0.000000000000000000e+00 0.000000000000000000e+00 0.000000000000000000e+00
-2.937375199999999964e+01 -3.788559999999999661e+01 1.518999999999999950e+01 0.000000000000000000e+00 0.000000000000000000e+00 0.000000000000000000e+00
-2.858286243710000107e+01 -3.855615650890000268e+01 1.518999999999999950e+01 0.000000000000000000e+00 0.000000000000000000e+00 0.000000000000000000e+00
-2.454459999999999908e+01 2.645369000000000170e+01 4.039000000000000057e+01 0.000000000000000000e+00 0.000000000000000000e+00 0.000000000000000000e+00
-3.728667823909999868e+01 -3.036664885049999896e+01 1.501857142859999961e+01 0.000000000000000000e+00 0.000000000000000000e+00 0.000000000000000000e+00
-3.659936135520000278e+01 -3.118699825879999921e+01 1.497571428570000052e+01 0.000000000000000000e+00 0.000000000000000000e+00 0.000000000000000000e+00
-4.775478580320000077e+01 -2.986294317369999973e+01 2.228999999999999915e+01 0.000000000000000000e+00 0.000000000000000000e+00 0.000000000000000000e+00
-3.359508199999999789e+01 -3.435580000000000211e+01 1.489000000000000057e+01 0.000000000000000000e+00 0.000000000000000000e+00 0.000000000000000000e+00
-3.203259050079999781e+01 -3.623620623650000283e+01 1.489000000000000057e+01 0.000000000000000000e+00 0.000000000000000000e+00 0.000000000000000000e+00
-1.253919243300000019e+01 2.928206679799999890e+01 4.999000000000000199e+01 0.000000000000000000e+00 0.000000000000000000e+00 0.000000000000000000e+00
-2.962295663600000140e+01 -3.804577057289999686e+01 1.496499999999999986e+01 0.000000000000000000e+00 0.000000000000000000e+00 0.000000000000000000e+00
-3.773331863840000011e+01 -2.999654008810000150e+01 1.450428571429999991e+01 0.000000000000000000e+00 0.000000000000000000e+00 0.000000000000000000e+00
-3.700361828430000344e+01 -3.083346946010000167e+01 1.458999999999999986e+01 0.000000000000000000e+00 0.000000000000000000e+00 0.000000000000000000e+00
-2.369843994360000039e+01 2.277468284900000128e+01 3.709000000000000341e+01 0.000000000000000000e+00 0.000000000000000000e+00 0.000000000000000000e+00
-3.631210999999999700e+01 -3.153399999999999892e+01 1.458999999999999986e+01 0.000000000000000000e+00 0.000000000000000000e+00 0.000000000000000000e+00
-3.616046362019999805e+01 -3.200305725390000333e+01 1.442846153850000057e+01 0.000000000000000000e+00 0.000000000000000000e+00 0.000000000000000000e+00
-3.570784400000000147e+01 -3.224139999999999873e+01 1.458999999999999986e+01 0.000000000000000000e+00 0.000000000000000000e+00 0.000000000000000000e+00
-3.540660104839999889e+01 -3.280163892750000088e+01 1.443999999999999950e+01 0.000000000000000000e+00 0.000000000000000000e+00 0.000000000000000000e+00
-3.732840914749999683e+01 -3.557131609139999995e+01 1.794999999999999929e+01 0.000000000000000000e+00 0.000000000000000000e+00 0.000000000000000000e+00
-3.475531513499999647e+01 -3.347454446500000103e+01 1.443999999999999950e+01 0.000000000000000000e+00 0.000000000000000000e+00 0.000000000000000000e+00
-3.262445134320000051e+01 -3.559874603859999809e+01 1.445363636359999937e+01 0.000000000000000000e+00 0.000000000000000000e+00 0.000000000000000000e+00
-3.108734118430000137e+01 -3.745077868890000161e+01 1.458999999999999986e+01 0.000000000000000000e+00 0.000000000000000000e+00 0.000000000000000000e+00
-3.048825731779999870e+01 -3.762054343580000193e+01 1.440538461539999915e+01 0.000000000000000000e+00 0.000000000000000000e+00 0.000000000000000000e+00
-2.973294981580000140e+01 -3.809774879220000088e+01 1.443999999999999950e+01 0.000000000000000000e+00 0.000000000000000000e+00 0.000000000000000000e+00
-1.362967749589999933e+01 3.082613209189999992e+01 4.908579999999999899e+01 0.000000000000000000e+00 0.000000000000000000e+00 0.000000000000000000e+00
-1.520584000000000024e+01 2.699598080000000166e+01 5.034819999999999851e+01 0.000000000000000000e+00 0.000000000000000000e+00 0.000000000000000000e+00
-3.513635225760000225e+01 -3.312472284430000258e+01 1.439000000000000057e+01 0.000000000000000000e+00 0.000000000000000000e+00 0.000000000000000000e+00
-2.885322871389999833e+01 -3.872734536400000138e+01 1.441000000000000014e+01 0.000000000000000000e+00 0.000000000000000000e+00 0.000000000000000000e+00
-3.274541192070000051e+01 -3.570359013459999886e+01 1.381857142860000032e+01 0.000000000000000000e+00 0.000000000000000000e+00 0.000000000000000000e+00
-3.248830600259999812e+01 -3.606879085319999945e+01 1.365000000000000036e+01 0.000000000000000000e+00 0.000000000000000000e+00 0.000000000000000000e+00
-3.053043103439999939e+01 -3.772622064870000003e+01 1.370875000000000021e+01 0.000000000000000000e+00 0.000000000000000000e+00 0.000000000000000000e+00
-1.788129552130000022e+01 3.307928048509999996e+01 4.591852631580000121e+01 0.000000000000000000e+00 0.000000000000000000e+00 0.000000000000000000e+00
-2.381833330990000164e+01 2.569216628010000036e+01 3.559000000000000341e+01 0.000000000000000000e+00 0.000000000000000000e+00 0.000000000000000000e+00
-2.696249999999999858e+01 -3.640749999999999886e+01 2.165425000000000111e+01 0.000000000000000000e+00 0.000000000000000000e+00 0.000000000000000000e+00
-1.867174388859999823e+01 3.392291093499999732e+01 3.131500000000000128e+01 0.000000000000000000e+00 0.000000000000000000e+00 0.000000000000000000e+00
-3.177299328410000001e+01 -3.672067904029999852e+01 1.363545454550000002e+01 0.000000000000000000e+00 0.000000000000000000e+00 0.000000000000000000e+00
-3.529499983390000040e+01 -3.485282904289999806e+01 1.669000000000000128e+01 0.000000000000000000e+00 0.000000000000000000e+00 0.000000000000000000e+00
-2.908524165440000075e+01 -3.909541778140000190e+01 1.293999999999999950e+01 0.000000000000000000e+00 0.000000000000000000e+00 0.000000000000000000e+00
-2.436450582009999977e+01 2.547870904610000053e+01 3.499000000000000199e+01 0.000000000000000000e+00 0.000000000000000000e+00 0.000000000000000000e+00
-2.470581107869999826e+01 2.679056914179999893e+01 3.387571428569999910e+01 0.000000000000000000e+00 0.000000000000000000e+00 0.000000000000000000e+00
-2.568691059969999912e+01 2.695477622010000118e+01 3.281499999999999773e+01 0.000000000000000000e+00 0.000000000000000000e+00 0.000000000000000000e+00
-3.924007764910000162e+01 -2.747770989749999870e+01 1.549000000000000021e+01 0.000000000000000000e+00 0.000000000000000000e+00 0.000000000000000000e+00
3.137558599999999842e+01 4.257399999999999629e+00 4.368999999999999773e+01 0.000000000000000000e+00 0.000000000000000000e+00 0.000000000000000000e+00
2.741250000000000142e+01 -5.407499999999999751e+00 4.256425000000000125e+01 0.000000000000000000e+00 0.000000000000000000e+00 0.000000000000000000e+00
-4.628743696410000297e+01 -3.246607213739999764e+01 2.198999999999999844e+01 0.000000000000000000e+00 0.000000000000000000e+00 0.000000000000000000e+00
-1.720874154730000072e+01 2.833390246809999979e+01 4.882869999999999777e+01 0.000000000000000000e+00 0.000000000000000000e+00 0.000000000000000000e+00
-2.439460849849999846e+01 2.539822145609999993e+01 4.304384615379999701e+01 0.000000000000000000e+00 0.000000000000000000e+00 0.000000000000000000e+00
-4.695213528739999731e+01 -2.549479612900000092e+01 2.846499999999999986e+01 0.000000000000000000e+00 0.000000000000000000e+00 0.000000000000000000e+00
-2.677516499920000115e+01 3.047560899109999966e+01 4.176142857140000331e+01 0.000000000000000000e+00 0.000000000000000000e+00 0.000000000000000000e+00
-3.755837955820000218e+01 -4.043913838959999651e+01 1.878999999999999915e+01 0.000000000000000000e+00 0.000000000000000000e+00 0.000000000000000000e+00
-3.627642635179999786e+01 -3.134361725429999979e+01 1.639000000000000057e+01 0.000000000000000000e+00 0.000000000000000000e+00 0.000000000000000000e+00
-3.791864749980000227e+01 -2.967684712999999874e+01 1.489000000000000057e+01 0.000000000000000000e+00 0.000000000000000000e+00 0.000000000000000000e+00
-2.761454799999999921e+01 3.559360000000000213e+01 3.949000000000000199e+01 0.000000000000000000e+00 0.000000000000000000e+00 0.000000000000000000e+00
2.977092700000000036e+01 2.216666666700000121e+00 4.228450000000000131e+01 0.000000000000000000e+00 0.000000000000000000e+00 0.000000000000000000e+00
-2.639999999999999858e+01 2.503000000000000114e+01 3.355899999999999750e+01 0.000000000000000000e+00 0.000000000000000000e+00 0.000000000000000000e+00
2.764999999999999858e+01 9.300000000000000488e-01 4.118860000000000099e+01 0.000000000000000000e+00 0.000000000000000000e+00 0.000000000000000000e+00
3.773997111890000156e+01 -1.998551757099999993e+00 4.609000000000000341e+01 0.000000000000000000e+00 0.000000000000000000e+00 0.000000000000000000e+00
-3.908218109010000063e+01 -2.869061433119999904e+01 1.758999999999999986e+01 0.000000000000000000e+00 0.000000000000000000e+00 0.000000000000000000e+00
-4.819630570449999851e+01 -2.516444198230000140e+01 2.658999999999999986e+01 0.000000000000000000e+00 0.000000000000000000e+00 0.000000000000000000e+00
-4.882487780099999952e+01 -2.723850307489999878e+01 2.298999999999999844e+01 0.000000000000000000e+00 0.000000000000000000e+00 0.000000000000000000e+00
-4.566705037930000088e+01 -2.267100164569999876e+01 1.939000000000000057e+01 0.000000000000000000e+00 0.000000000000000000e+00 0.000000000000000000e+00
-2.580220235899999892e+01 2.886798218499999891e+01 4.089000000000000057e+01 0.000000000000000000e+00 0.000000000000000000e+00 0.000000000000000000e+00
-2.335658650879999954e+01 3.686053857729999805e+01 3.809000000000000341e+01 0.000000000000000000e+00 0.000000000000000000e+00 0.000000000000000000e+00
-4.471600000000000108e+01 -2.226908799999999999e+01 1.908999999999999986e+01 0.000000000000000000e+00 0.000000000000000000e+00 0.000000000000000000e+00
-4.225129517879999952e+01 -2.359413501919999945e+01 1.819000000000000128e+01 0.000000000000000000e+00 0.000000000000000000e+00 0.000000000000000000e+00
-9.850161999999999196e+00 2.496880000000000166e+01 4.384000000000000341e+01 0.000000000000000000e+00 0.000000000000000000e+00 0.000000000000000000e+00
-4.383678656010000196e+01 -2.076534996430000035e+01 2.136142857140000118e+01 0.000000000000000000e+00 0.000000000000000000e+00 0.000000000000000000e+00
-3.666010652960000016e+01 -4.039450291229999834e+01 1.819000000000000128e+01 0.000000000000000000e+00 0.000000000000000000e+00 0.000000000000000000e+00
-1.189616649679999938e+01 2.865233446919999949e+01 4.518999999999999773e+01 0.000000000000000000e+00 0.000000000000000000e+00 0.000000000000000000e+00
-3.696211472520000285e+01 -3.201645603459999734e+01 1.698999999999999844e+01 0.000000000000000000e+00 0.000000000000000000e+00 0.000000000000000000e+00
-3.757209999999999894e+01 -3.287660799999999739e+01 1.758999999999999986e+01 0.000000000000000000e+00 0.000000000000000000e+00 0.000000000000000000e+00
-4.112056137079999729e+01 -2.360273074259999859e+01 1.714000000000000057e+01 0.000000000000000000e+00 0.000000000000000000e+00 0.000000000000000000e+00
3.075843646059999870e+01 -3.586585601299999926e+00 4.578999999999999915e+01 0.000000000000000000e+00 0.000000000000000000e+00 0.000000000000000000e+00
-2.402826402510000037e+01 1.960933543870000051e+01 3.859000000000000341e+01 0.000000000000000000e+00 0.000000000000000000e+00 0.000000000000000000e+00
-1.785292761390000038e+01 3.248897748899999982e+01 3.335666666670000069e+01 0.000000000000000000e+00 0.000000000000000000e+00 0.000000000000000000e+00
-1.870101764079999995e+01 1.677158254100000079e+01 4.390599999999999881e+01 0.000000000000000000e+00 0.000000000000000000e+00 0.000000000000000000e+00
2.085000000000000142e+01 9.050000000000000266e-01 4.481499999999999773e+01 0.000000000000000000e+00 0.000000000000000000e+00 0.000000000000000000e+00
-1.328149333290000023e+01 3.066500644159999922e+01 4.668999999999999773e+01 0.000000000000000000e+00 0.000000000000000000e+00 0.000000000000000000e+00
-1.982991055480000142e+01 1.484603685519999949e+01 4.278280000000000172e+01 0.000000000000000000e+00 0.000000000000000000e+00 0.000000000000000000e+00
-2.630357181529999977e+01 3.765819634100000002e+01 3.739000000000000057e+01 0.000000000000000000e+00 0.000000000000000000e+00 0.000000000000000000e+00
-4.216325463999999812e+01 -3.673810195800000145e+01 2.278999999999999915e+01 0.000000000000000000e+00 0.000000000000000000e+00 0.000000000000000000e+00
-1.738319137510000090e+01 3.419691783950000286e+01 4.234000000000000341e+01 0.000000000000000000e+00 0.000000000000000000e+00 0.000000000000000000e+00
-4.320731962429999840e+01 -1.933746161739999891e+01 1.789000000000000057e+01 0.000000000000000000e+00 0.000000000000000000e+00 0.000000000000000000e+00
-4.448524018930000068e+01 -3.340643840100000261e+01 2.089000000000000057e+01 0.000000000000000000e+00 0.000000000000000000e+00 0.000000000000000000e+00
-4.797902498469999699e+01 -2.909733285109999912e+01 2.273285714289999859e+01 0.000000000000000000e+00 0.000000000000000000e+00 0.000000000000000000e+00
3.371122123389999814e+01 7.667572066700000022e+00 4.399000000000000199e+01 0.000000000000000000e+00 0.000000000000000000e+00 0.000000000000000000e+00
-2.326373755199999849e+01 2.185212350100000123e+01 4.653999999999999915e+01 0.000000000000000000e+00 0.000000000000000000e+00 0.000000000000000000e+00
-2.438495227949999844e+01 2.674077512010000035e+01 3.814000000000000057e+01 0.000000000000000000e+00 0.000000000000000000e+00 0.000000000000000000e+00
-4.556712999999999880e+01 -2.241920000000000002e+01 2.539000000000000057e+01 0.000000000000000000e+00 0.000000000000000000e+00 0.000000000000000000e+00
2.360000000000000142e+01 -3.345000000000000195e+00 4.339000000000000057e+01 0.000000000000000000e+00 0.000000000000000000e+00 0.000000000000000000e+00
4.287571524789999700e+01 -4.270513422199999631e+00 3.768999999999999773e+01 0.000000000000000000e+00 0.000000000000000000e+00 0.000000000000000000e+00
-1.285478320520000040e+01 3.092387808229999990e+01 3.660699999999999932e+01 0.000000000000000000e+00 0.000000000000000000e+00 0.000000000000000000e+00
-2.490843202829999825e+01 3.518328345769999999e+01 3.336999999999999744e+01 0.000000000000000000e+00 0.000000000000000000e+00 0.000000000000000000e+00
-3.882597499740000302e+01 -3.541857875750000062e+01 1.858999999999999986e+01 0.000000000000000000e+00 0.000000000000000000e+00 0.000000000000000000e+00
-1.729230000000000089e+01 2.548440250000000162e+01 5.036800000000000210e+01 0.000000000000000000e+00 0.000000000000000000e+00 0.000000000000000000e+00
-3.404068919649999714e+01 -3.968945009080000119e+01 1.669000000000000128e+01 0.000000000000000000e+00 0.000000000000000000e+00 0.000000000000000000e+00
3.060000000000000142e+01 -3.970000000000000195e+00 4.565999999999999659e+01 0.000000000000000000e+00 0.000000000000000000e+00 0.000000000000000000e+00
-1.639359755619999959e+01 2.253552705750000129e+01 5.178999999999999915e+01 0.000000000000000000e+00 0.000000000000000000e+00 0.000000000000000000e+00
-1.998167529559999878e+01 3.387773846759999685e+01 3.057999999999999829e+01 0.000000000000000000e+00 0.000000000000000000e+00 0.000000000000000000e+00
2.839999999999999858e+01 4.379999999999999893e+00 4.043200000000000216e+01 0.000000000000000000e+00 0.000000000000000000e+00 0.000000000000000000e+00
-2.139514924830000098e+01 1.915070169330000027e+01 4.234000000000000341e+01 0.000000000000000000e+00 0.000000000000000000e+00 0.000000000000000000e+00
-1.132342351920000034e+01 2.766081790360000170e+01 4.389000000000000057e+01 0.000000000000000000e+00 0.000000000000000000e+00 0.000000000000000000e+00
-3.958382038799999947e+01 -3.267293056350000313e+01 1.848999999999999844e+01 0.000000000000000000e+00 0.000000000000000000e+00 0.000000000000000000e+00
-8.190988459899999796e+00 2.494003497630000155e+01 4.185849999999999937e+01 0.000000000000000000e+00 0.000000000000000000e+00 0.000000000000000000e+00
-2.750538257499999872e+01 2.592173364419999970e+01 3.228999999999999915e+01 0.000000000000000000e+00 0.000000000000000000e+00 0.000000000000000000e+00
-7.400000000000000355e+00 2.078000000000000114e+01 4.411449999999999960e+01 0.000000000000000000e+00 0.000000000000000000e+00 0.000000000000000000e+00
-2.329595036939999986e+01 3.493064055229999809e+01 4.218999999999999773e+01 0.000000000000000000e+00 0.000000000000000000e+00 0.000000000000000000e+00
-4.644400000000000261e+01 -2.227945599999999970e+01 2.014000000000000057e+01 0.000000000000000000e+00 0.000000000000000000e+00 0.000000000000000000e+00
-2.303687117020000130e+01 2.168627801979999958e+01 4.946500000000000341e+01 0.000000000000000000e+00 0.000000000000000000e+00 0.000000000000000000e+00
-3.962773540900000313e+01 -3.409366880030000146e+01 1.878999999999999915e+01 0.000000000000000000e+00 0.000000000000000000e+00 0.000000000000000000e+00
-8.761628799100000364e+00 2.194251955780000074e+01 4.378600000000000136e+01 0.000000000000000000e+00 0.000000000000000000e+00 0.000000000000000000e+00
-2.813392231459999948e+01 3.714709496340000072e+01 3.753999999999999915e+01 0.000000000000000000e+00 0.000000000000000000e+00 0.000000000000000000e+00
2.877153200000000055e+01 1.554100000000000037e+00 4.130649999999999977e+01 0.000000000000000000e+00 0.000000000000000000e+00 0.000000000000000000e+00
-1.576858449809999918e+01 3.155767229110000116e+01 3.755666666670000353e+01 0.000000000000000000e+00 0.000000000000000000e+00 0.000000000000000000e+00
-2.033324581600000158e+01 1.726779649819999918e+01 4.218999999999999773e+01 0.000000000000000000e+00 0.000000000000000000e+00 0.000000000000000000e+00
3.085000000000000142e+01 6.030000000000000249e+00 4.203099999999999881e+01 0.000000000000000000e+00 0.000000000000000000e+00 0.000000000000000000e+00
3.055829059330000064e+01 3.194672375000000120e+00 4.368999999999999773e+01 0.000000000000000000e+00 0.000000000000000000e+00 0.000000000000000000e+00
-2.470158761920000146e+01 3.755325454719999811e+01 3.806499999999999773e+01 0.000000000000000000e+00 0.000000000000000000e+00 0.000000000000000000e+00
4.184904923460000248e+01 -5.522993986100000363e+00 4.249000000000000199e+01 0.000000000000000000e+00 0.000000000000000000e+00 0.000000000000000000e+00
2.833439225000000050e+01 -6.094249999999999723e+00 4.381037500000000051e+01 0.000000000000000000e+00 0.000000000000000000e+00 0.000000000000000000e+00
-2.133796648350000069e+01 3.092880053140000030e+01 4.573681818179999681e+01 0.000000000000000000e+00 0.000000000000000000e+00 0.000000000000000000e+00
-2.268445238230000172e+01 2.810290949779999892e+01 4.699000000000000199e+01 0.000000000000000000e+00 0.000000000000000000e+00 0.000000000000000000e+00
-2.142237959399999880e+01 2.125840529259999911e+01 5.082335714290000084e+01 0.000000000000000000e+00 0.000000000000000000e+00 0.000000000000000000e+00
-2.263183828960000099e+01 2.133418385779999937e+01 5.004999999999999716e+01 0.000000000000000000e+00 0.000000000000000000e+00 0.000000000000000000e+00
-1.785397812029999898e+01 2.020383537549999886e+01 4.968999999999999773e+01 0.000000000000000000e+00 0.000000000000000000e+00 0.000000000000000000e+00
-2.438120744789999961e+01 2.324536755120000109e+01 4.861857142859999925e+01 0.000000000000000000e+00 0.000000000000000000e+00 0.000000000000000000e+00
-1.781152557560000105e+01 1.954978666030000056e+01 4.889800000000000324e+01 0.000000000000000000e+00 0.000000000000000000e+00 0.000000000000000000e+00
-1.709740013820000115e+01 1.954018322210000136e+01 4.881280000000000285e+01 0.000000000000000000e+00 0.000000000000000000e+00 0.000000000000000000e+00
-2.352246504540000061e+01 3.596453338780000308e+01 4.117925000000000324e+01 0.000000000000000000e+00 0.000000000000000000e+00 0.000000000000000000e+00
3.184065462459999907e+01 -8.233856273900000744e+00 4.874227272729999783e+01 0.000000000000000000e+00 0.000000000000000000e+00 0.000000000000000000e+00
-2.372602470140000008e+01 2.253315369450000105e+01 4.800999999999999801e+01 0.000000000000000000e+00 0.000000000000000000e+00 0.000000000000000000e+00
-2.335987501090000151e+01 2.193814256949999830e+01 4.803999999999999915e+01 0.000000000000000000e+00 0.000000000000000000e+00 0.000000000000000000e+00
-2.279599394239999910e+01 2.119279582849999954e+01 4.803999999999999915e+01 0.000000000000000000e+00 0.000000000000000000e+00 0.000000000000000000e+00
-2.215366156320000002e+01 2.048360308310000022e+01 4.803999999999999915e+01 0.000000000000000000e+00 0.000000000000000000e+00 0.000000000000000000e+00
-3.602774868750000081e+01 -3.837749251759999680e+01 1.764999999999999858e+01 0.000000000000000000e+00 0.000000000000000000e+00 0.000000000000000000e+00
-2.514788667439999870e+01 2.875696138260000012e+01 3.672999999999999687e+01 0.000000000000000000e+00 0.000000000000000000e+00 0.000000000000000000e+00
-2.490835228639999954e+01 2.475682267510000045e+01 4.726692307689999950e+01 0.000000000000000000e+00 0.000000000000000000e+00 0.000000000000000000e+00
-2.466390919099999834e+01 2.425329786780000063e+01 4.741857142860000351e+01 0.000000000000000000e+00 0.000000000000000000e+00 0.000000000000000000e+00
-2.435570418940000081e+01 2.389023623259999951e+01 4.721500000000000341e+01 0.000000000000000000e+00 0.000000000000000000e+00 0.000000000000000000e+00
-2.408811130289999980e+01 2.327365130969999996e+01 4.730875000000000341e+01 0.000000000000000000e+00 0.000000000000000000e+00 0.000000000000000000e+00
-2.332888997470000092e+01 2.189277820899999938e+01 4.730875000000000341e+01 0.000000000000000000e+00 0.000000000000000000e+00 0.000000000000000000e+00
-2.187267101870000019e+01 1.997819053050000093e+01 4.728999999999999915e+01 0.000000000000000000e+00 0.000000000000000000e+00 0.000000000000000000e+00
-4.641976990010000037e+01 -3.118159892150000090e+01 2.282333333329999903e+01 0.000000000000000000e+00 0.000000000000000000e+00 0.000000000000000000e+00
-3.549002847940000294e+01 -3.769034693239999712e+01 1.728999999999999915e+01 0.000000000000000000e+00 0.000000000000000000e+00 0.000000000000000000e+00
-2.117552454369999992e+01 1.940323210729999914e+01 4.699000000000000199e+01 0.000000000000000000e+00 0.000000000000000000e+00 0.000000000000000000e+00
-2.523240120830000066e+01 2.554154829300000173e+01 4.668999999999999773e+01 0.000000000000000000e+00 0.000000000000000000e+00 0.000000000000000000e+00
-2.497011770630000171e+01 2.534980980319999944e+01 4.649000000000000199e+01 0.000000000000000000e+00 0.000000000000000000e+00 0.000000000000000000e+00
-2.469533463750000024e+01 2.479905674820000172e+01 4.657750000000000057e+01 0.000000000000000000e+00 0.000000000000000000e+00 0.000000000000000000e+00
-2.432709577829999859e+01 2.405574485300000021e+01 4.651500000000000057e+01 0.000000000000000000e+00 0.000000000000000000e+00 0.000000000000000000e+00
-2.400417501800000153e+01 2.335495838139999947e+01 4.655363636359999902e+01 0.000000000000000000e+00 0.000000000000000000e+00 0.000000000000000000e+00
-1.648317469990000106e+01 1.818614291669999972e+01 4.680700000000000216e+01 0.000000000000000000e+00 0.000000000000000000e+00 0.000000000000000000e+00
-1.509651091599999972e+01 1.832021997340000041e+01 4.664739999999999753e+01 0.000000000000000000e+00 0.000000000000000000e+00 0.000000000000000000e+00
-1.439344347649999989e+01 1.845474237839999887e+01 4.661574999999999847e+01 0.000000000000000000e+00 0.000000000000000000e+00 0.000000000000000000e+00
-2.539733117589999978e+01 2.759248144969999927e+01 4.234000000000000341e+01 0.000000000000000000e+00 0.000000000000000000e+00 0.000000000000000000e+00
2.860000000000000142e+01 -2.720000000000000195e+00 4.284400000000000119e+01 0.000000000000000000e+00 0.000000000000000000e+00 0.000000000000000000e+00
-2.496402757139999906e+01 3.114839820870000153e+01 4.395349999999999824e+01 0.000000000000000000e+00 0.000000000000000000e+00 0.000000000000000000e+00
-1.934808499660000081e+01 3.529019196080000143e+01 2.919999999999999929e+01 0.000000000000000000e+00 0.000000000000000000e+00 0.000000000000000000e+00
-2.311324544940000081e+01 2.168407746049999929e+01 4.653999999999999915e+01 0.000000000000000000e+00 0.000000000000000000e+00 0.000000000000000000e+00
2.625390611039999911e+01 4.475844942700000217e+00 4.173024999999999807e+01 0.000000000000000000e+00 0.000000000000000000e+00 0.000000000000000000e+00
-2.486881091109999886e+01 2.543930736500000123e+01 4.595363636359999759e+01 0.000000000000000000e+00 0.000000000000000000e+00 0.000000000000000000e+00
-2.394519423619999898e+01 2.334413583510000123e+01 4.600428571430000346e+01 0.000000000000000000e+00 0.000000000000000000e+00 0.000000000000000000e+00
-2.308522963540000106e+01 2.169432218969999937e+01 4.593999999999999773e+01 0.000000000000000000e+00 0.000000000000000000e+00 0.000000000000000000e+00
-2.224209760860000173e+01 2.031738442600000027e+01 4.596142857139999904e+01 0.000000000000000000e+00 0.000000000000000000e+00 0.000000000000000000e+00
-2.131631280010000040e+01 1.916063347360000080e+01 4.590250000000000341e+01 0.000000000000000000e+00 0.000000000000000000e+00 0.000000000000000000e+00
-1.643122285749999989e+01 1.757916168790000100e+01 4.588900000000000290e+01 0.000000000000000000e+00 0.000000000000000000e+00 0.000000000000000000e+00
-1.435014239710000084e+01 1.820104592750000094e+01 4.609000000000000341e+01 0.000000000000000000e+00 0.000000000000000000e+00 0.000000000000000000e+00
2.472500000000000142e+01 -1.219999999999999973e+00 4.287800000000000011e+01 0.000000000000000000e+00 0.000000000000000000e+00 0.000000000000000000e+00
-2.570754162929999964e+01 2.759343067709999886e+01 4.603524999999999778e+01 0.000000000000000000e+00 0.000000000000000000e+00 0.000000000000000000e+00
-2.381846331670000083e+01 2.322572974310000049e+01 4.578999999999999915e+01 0.000000000000000000e+00 0.000000000000000000e+00 0.000000000000000000e+00
-1.440082066839999975e+01 1.781409525289999962e+01 4.583933333329999726e+01 0.000000000000000000e+00 0.000000000000000000e+00 0.000000000000000000e+00
-4.426751488219999686e+01 -2.427006267339999823e+01 1.939000000000000057e+01 0.000000000000000000e+00 0.000000000000000000e+00 0.000000000000000000e+00
-2.575278042780000121e+01 2.744053345320000048e+01 4.513000000000000256e+01 0.000000000000000000e+00 0.000000000000000000e+00 0.000000000000000000e+00
-2.546404023050000021e+01 2.689944864250000123e+01 4.518999999999999773e+01 0.000000000000000000e+00 0.000000000000000000e+00 0.000000000000000000e+00
-2.503924629850000017e+01 2.611301771120000126e+01 4.513374999999999915e+01 0.000000000000000000e+00 0.000000000000000000e+00 0.000000000000000000e+00
-2.475087211010000132e+01 2.544371262860000016e+01 4.520875000000000199e+01 0.000000000000000000e+00 0.000000000000000000e+00 0.000000000000000000e+00
-2.454505744009999901e+01 2.495265726599999923e+01 4.526500000000000057e+01 0.000000000000000000e+00 0.000000000000000000e+00 0.000000000000000000e+00
-2.412058098440000009e+01 2.403819891939999920e+01 4.520499999999999829e+01 0.000000000000000000e+00 0.000000000000000000e+00 0.000000000000000000e+00
-2.276762588840000134e+01 2.123340587659999912e+01 4.517125000000000057e+01 0.000000000000000000e+00 0.000000000000000000e+00 0.000000000000000000e+00
-2.222469171259999854e+01 2.033678685070000114e+01 4.515999999999999659e+01 0.000000000000000000e+00 0.000000000000000000e+00 0.000000000000000000e+00
-2.192650785329999863e+01 1.987454994470000003e+01 4.521727272729999925e+01 0.000000000000000000e+00 0.000000000000000000e+00 0.000000000000000000e+00
-1.786484352300000111e+01 1.741837630139999860e+01 4.549000000000000199e+01 0.000000000000000000e+00 0.000000000000000000e+00 0.000000000000000000e+00
-1.578693541950000068e+01 1.701873277780000038e+01 4.519330000000000069e+01 0.000000000000000000e+00 0.000000000000000000e+00 0.000000000000000000e+00
-2.787293862590000160e+01 3.376045688760000019e+01 3.886692307690000092e+01 0.000000000000000000e+00 0.000000000000000000e+00 0.000000000000000000e+00
-2.599941843110000050e+01 2.772460992070000074e+01 4.518999999999999773e+01 0.000000000000000000e+00 0.000000000000000000e+00 0.000000000000000000e+00
-4.433456051710000168e+01 -2.163292050109999920e+01 2.619000000000000128e+01 0.000000000000000000e+00 0.000000000000000000e+00 0.000000000000000000e+00
-2.368449129729999925e+01 2.318821232199999827e+01 4.510818181820000206e+01 0.000000000000000000e+00 0.000000000000000000e+00 0.000000000000000000e+00
-1.507406673830000088e+01 1.708819044999999903e+01 4.515400000000000347e+01 0.000000000000000000e+00 0.000000000000000000e+00 0.000000000000000000e+00
-2.622621663869999864e+01 2.824207444909999865e+01 4.503999999999999915e+01 0.000000000000000000e+00 0.000000000000000000e+00 0.000000000000000000e+00
3.057105599200000157e+01 6.533525240000000178e-02 4.489000000000000057e+01 0.000000000000000000e+00 0.000000000000000000e+00 0.000000000000000000e+00
-2.583213177220000034e+01 2.792108009260000046e+01 4.439000000000000057e+01 0.000000000000000000e+00 0.000000000000000000e+00 0.000000000000000000e+00
-2.533220695949999879e+01 2.693944157969999864e+01 4.447749999999999915e+01 0.000000000000000000e+00 0.000000000000000000e+00 0.000000000000000000e+00
-2.332570831219999974e+01 2.256794091980000161e+01 4.443999999999999773e+01 0.000000000000000000e+00 0.000000000000000000e+00 0.000000000000000000e+00
-2.268710048750000041e+01 2.122965435980000137e+01 4.443999999999999773e+01 0.000000000000000000e+00 0.000000000000000000e+00 0.000000000000000000e+00
-1.861069264440000026e+01 1.347997506169999937e+01 4.367399999999999949e+01 0.000000000000000000e+00 0.000000000000000000e+00 0.000000000000000000e+00
-2.223320467219999941e+01 2.039766690389999937e+01 4.443999999999999773e+01 0.000000000000000000e+00 0.000000000000000000e+00 0.000000000000000000e+00
-2.140970533650000007e+01 1.914170449059999868e+01 4.443999999999999773e+01 0.000000000000000000e+00 0.000000000000000000e+00 0.000000000000000000e+00
-2.105848038079999895e+01 1.868766008749999941e+01 4.439000000000000057e+01 0.000000000000000000e+00 0.000000000000000000e+00 0.000000000000000000e+00
-2.045220097549999849e+01 1.800108602919999967e+01 4.443999999999999773e+01 0.000000000000000000e+00 0.000000000000000000e+00 0.000000000000000000e+00
-1.860552311680000059e+01 1.700322782750000172e+01 4.446549999999999869e+01 0.000000000000000000e+00 0.000000000000000000e+00 0.000000000000000000e+00
-1.734594593959999997e+01 1.673415715249999991e+01 4.449000000000000199e+01 0.000000000000000000e+00 0.000000000000000000e+00 0.000000000000000000e+00
-1.507472168059999973e+01 1.683341164619999830e+01 4.463300000000000267e+01 0.000000000000000000e+00 0.000000000000000000e+00 0.000000000000000000e+00
-1.360589116360000084e+01 1.700204897509999924e+01 4.454912499999999653e+01 0.000000000000000000e+00 0.000000000000000000e+00 0.000000000000000000e+00
-1.292059965009999978e+01 1.705960097710000056e+01 4.447749999999999915e+01 0.000000000000000000e+00 0.000000000000000000e+00 0.000000000000000000e+00
-3.938222732540000237e+01 -2.676789489729999971e+01 1.639000000000000057e+01 0.000000000000000000e+00 0.000000000000000000e+00 0.000000000000000000e+00
-1.709238109429999852e+01 1.655010978139999978e+01 4.434459999999999980e+01 0.000000000000000000e+00 0.000000000000000000e+00 0.000000000000000000e+00
-4.165313769360000151e+01 -2.838420560329999986e+01 1.866142857139999833e+01 0.000000000000000000e+00 0.000000000000000000e+00 0.000000000000000000e+00
-1.508626490690000033e+01 1.635308894690000159e+01 4.428759999999999764e+01 0.000000000000000000e+00 0.000000000000000000e+00 0.000000000000000000e+00
-3.350385705760000121e+01 -3.488139327719999727e+01 1.555000000000000071e+01 0.000000000000000000e+00 0.000000000000000000e+00 0.000000000000000000e+00
2.965045775129999939e+01 -3.879463094000000112e+00 4.454714285709999899e+01 0.000000000000000000e+00 0.000000000000000000e+00 0.000000000000000000e+00
2.794354194550000159e+01 -8.569664669099999799e+00 4.428999999999999915e+01 0.000000000000000000e+00 0.000000000000000000e+00 0.000000000000000000e+00
-2.636423313790000122e+01 2.894979068749999840e+01 4.384000000000000341e+01 0.000000000000000000e+00 0.000000000000000000e+00 0.000000000000000000e+00
-2.584148944249999857e+01 2.814337219040000093e+01 4.382333333329999903e+01 0.000000000000000000e+00 0.000000000000000000e+00 0.000000000000000000e+00
-2.512587279459999934e+01 2.671842007969999955e+01 4.381857142860000209e+01 0.000000000000000000e+00 0.000000000000000000e+00 0.000000000000000000e+00
-2.442207129750000050e+01 2.520941619879999962e+01 4.381857142860000209e+01 0.000000000000000000e+00 0.000000000000000000e+00 0.000000000000000000e+00
-2.421382246710000175e+01 2.469709860229999876e+01 4.385666666670000069e+01 0.000000000000000000e+00 0.000000000000000000e+00 0.000000000000000000e+00
-2.360819820549999903e+01 2.335354144209999916e+01 4.382636363640000354e+01 0.000000000000000000e+00 0.000000000000000000e+00 0.000000000000000000e+00
-2.329615343340000067e+01 2.267028429490000008e+01 4.385363636360000328e+01 0.000000000000000000e+00 0.000000000000000000e+00 0.000000000000000000e+00
-2.293594926000000100e+01 2.189231456779999974e+01 4.382636363640000354e+01 0.000000000000000000e+00 0.000000000000000000e+00 0.000000000000000000e+00
-2.223520142510000142e+01 2.046810845439999937e+01 4.384000000000000341e+01 0.000000000000000000e+00 0.000000000000000000e+00 0.000000000000000000e+00
-2.186019388089999893e+01 1.981828173299999918e+01 4.384000000000000341e+01 0.000000000000000000e+00 0.000000000000000000e+00 0.000000000000000000e+00
-2.140496189950000172e+01 1.914258150990000118e+01 4.384000000000000341e+01 0.000000000000000000e+00 0.000000000000000000e+00 0.000000000000000000e+00
-2.107403761739999837e+01 1.866514063130000167e+01 4.384000000000000341e+01 0.000000000000000000e+00 0.000000000000000000e+00 0.000000000000000000e+00
-2.006678725249999928e+01 1.758823789839999918e+01 4.384000000000000341e+01 0.000000000000000000e+00 0.000000000000000000e+00 0.000000000000000000e+00
-1.930424043589999883e+01 1.704995790259999922e+01 4.383879999999999910e+01 0.000000000000000000e+00 0.000000000000000000e+00 0.000000000000000000e+00
-1.719737696700000029e+01 1.621240893950000128e+01 4.382699999999999818e+01 0.000000000000000000e+00 0.000000000000000000e+00 0.000000000000000000e+00
-1.586932317089999955e+01 1.605702684250000090e+01 4.398700000000000188e+01 0.000000000000000000e+00 0.000000000000000000e+00 0.000000000000000000e+00
-2.740146429700000041e+01 3.330022566920000315e+01 3.759000000000000341e+01 0.000000000000000000e+00 0.000000000000000000e+00 0.000000000000000000e+00
2.765339199150000127e+01 -8.649897247100000186e+00 4.384000000000000341e+01 0.000000000000000000e+00 0.000000000000000000e+00 0.000000000000000000e+00
-1.848016855870000086e+01 1.655250491059999973e+01 4.365550000000000352e+01 0.000000000000000000e+00 0.000000000000000000e+00 0.000000000000000000e+00
-2.671275353509999917e+01 2.975494764489999966e+01 4.331499999999999773e+01 0.000000000000000000e+00 0.000000000000000000e+00 0.000000000000000000e+00
-2.613438377980000027e+01 2.893969432289999943e+01 4.309000000000000341e+01 0.000000000000000000e+00 0.000000000000000000e+00 0.000000000000000000e+00
-2.572761042810000021e+01 2.816778874630000118e+01 4.307124999999999915e+01 0.000000000000000000e+00 0.000000000000000000e+00 0.000000000000000000e+00
-2.540684815279999853e+01 2.748324469039999940e+01 4.310764705879999781e+01 0.000000000000000000e+00 0.000000000000000000e+00 0.000000000000000000e+00
-2.475617066510000086e+01 2.615340843639999946e+01 4.307421052629999991e+01 0.000000000000000000e+00 0.000000000000000000e+00 0.000000000000000000e+00
-2.459816442449999840e+01 2.567812687860000054e+01 4.328999999999999915e+01 0.000000000000000000e+00 0.000000000000000000e+00 0.000000000000000000e+00
-2.183514843720000087e+01 1.985862867979999891e+01 4.309000000000000341e+01 0.000000000000000000e+00 0.000000000000000000e+00 0.000000000000000000e+00
-2.109548481450000068e+01 1.865953167320000006e+01 4.309000000000000341e+01 0.000000000000000000e+00 0.000000000000000000e+00 0.000000000000000000e+00
-2.080620292049999875e+01 1.824710139120000107e+01 4.309000000000000341e+01 0.000000000000000000e+00 0.000000000000000000e+00 0.000000000000000000e+00
-2.017581791839999994e+01 1.751381849579999894e+01 4.318999999999999773e+01 0.000000000000000000e+00 0.000000000000000000e+00 0.000000000000000000e+00
-1.935034860160000036e+01 1.686342174170000163e+01 4.318390000000000128e+01 0.000000000000000000e+00 0.000000000000000000e+00 0.000000000000000000e+00
-1.794328377460000112e+01 1.556891461690000078e+01 4.334478571430000216e+01 0.000000000000000000e+00 0.000000000000000000e+00 0.000000000000000000e+00
-2.007090000000000174e+01 3.545519500000000335e+01 4.336975000000000335e+01 0.000000000000000000e+00 0.000000000000000000e+00 0.000000000000000000e+00
-4.154150233250000213e+01 -2.681903568819999961e+01 1.819000000000000128e+01 0.000000000000000000e+00 0.000000000000000000e+00 0.000000000000000000e+00
-4.129747999819999649e+01 -3.483039676140000296e+01 1.969000000000000128e+01 0.000000000000000000e+00 0.000000000000000000e+00 0.000000000000000000e+00
-2.698389256789999990e+01 3.027001851110000175e+01 4.302571428569999767e+01 0.000000000000000000e+00 0.000000000000000000e+00 0.000000000000000000e+00
-2.168739525069999985e+01 1.960647052050000028e+01 4.309000000000000341e+01 0.000000000000000000e+00 0.000000000000000000e+00 0.000000000000000000e+00
-1.921751209410000172e+01 1.635842406689999962e+01 4.286110000000000042e+01 0.000000000000000000e+00 0.000000000000000000e+00 0.000000000000000000e+00
-1.865681895020000169e+01 1.554334058050000067e+01 4.302335714289999657e+01 0.000000000000000000e+00 0.000000000000000000e+00 0.000000000000000000e+00
-2.685984872890000119e+01 3.038510314710000060e+01 4.236999999999999744e+01 0.000000000000000000e+00 0.000000000000000000e+00 0.000000000000000000e+00
-2.637713992449999978e+01 2.960123111049999878e+01 4.232636363640000354e+01 0.000000000000000000e+00 0.000000000000000000e+00 0.000000000000000000e+00
