1.083924264020000017e+01 -2.568215157410000060e+01 4.778644444439999717e+01 0.000000000000000000e+00 0.000000000000000000e+00 0.000000000000000000e+00
4.341017457339999908e+01 3.486304845720000145e+01 2.315566666670000018e+01 0.000000000000000000e+00 0.000000000000000000e+00 0.000000000000000000e+00
1.277448346020000081e+01 -3.009164157129999850e+01 4.779999999999999716e+01 0.000000000000000000e+00 0.000000000000000000e+00 0.000000000000000000e+00
-3.599434085269999883e+01 6.752633402699999898e+00 4.760000000000000142e+01 0.000000000000000000e+00 0.000000000000000000e+00 0.000000000000000000e+00
-3.599891494380000267e+01 5.526252256300000276e+00 4.760000000000000142e+01 0.000000000000000000e+00 0.000000000000000000e+00 0.000000000000000000e+00
-3.603925341640000113e+01 4.963696123100000079e+00 4.760000000000000142e+01 0.000000000000000000e+00 0.000000000000000000e+00 0.000000000000000000e+00
-3.598903318170000176e+01 4.332233983500000107e+00 4.760957142859999891e+01 0.000000000000000000e+00 0.000000000000000000e+00 0.000000000000000000e+00
-3.647848908579999971e+01 -4.128273236000000179e-01 4.760000000000000142e+01 0.000000000000000000e+00 0.000000000000000000e+00 0.000000000000000000e+00
-3.647763207239999872e+01 -2.105649443099999907e+00 4.760000000000000142e+01 0.000000000000000000e+00 0.000000000000000000e+00 0.000000000000000000e+00
-3.373864738540000019e+01 6.760798521599999944e+00 3.814999999999999858e+01 0.000000000000000000e+00 0.000000000000000000e+00 0.000000000000000000e+00
-4.258537702219999943e+01 4.565152199099999919e+00 3.889999999999999858e+01 0.000000000000000000e+00 0.000000000000000000e+00 0.000000000000000000e+00
4.597500000000000142e+01 2.535000000000000142e+01 2.911949999999999861e+01 0.000000000000000000e+00 0.000000000000000000e+00 0.000000000000000000e+00
1.087232507519999913e+01 -2.610342900839999913e+01 4.765350000000000108e+01 0.000000000000000000e+00 0.000000000000000000e+00 0.000000000000000000e+00
1.327548461299999971e+01 -3.091200614639999955e+01 4.775000000000000000e+01 0.000000000000000000e+00 0.000000000000000000e+00 0.000000000000000000e+00
1.410122425630000009e+01 -3.188550631749999908e+01 4.760000000000000142e+01 0.000000000000000000e+00 0.000000000000000000e+00 0.000000000000000000e+00
-3.668787934139999862e+01 6.117890675199999961e+00 4.708571428569999995e+01 0.000000000000000000e+00 0.000000000000000000e+00 0.000000000000000000e+00
-3.669843128669999999e+01 5.532898119100000400e+00 4.706000000000000227e+01 0.000000000000000000e+00 0.000000000000000000e+00 0.000000000000000000e+00
-3.673641634210000007e+01 3.697426201599999906e+00 4.711028571429999801e+01 0.000000000000000000e+00 0.000000000000000000e+00 0.000000000000000000e+00
-4.027961932929999733e+01 -4.656301597999999986e-01 4.467990000000000350e+01 0.000000000000000000e+00 0.000000000000000000e+00 0.000000000000000000e+00
-3.675258668600000078e+01 2.519408460000000183e+00 4.716877777780000258e+01 0.000000000000000000e+00 0.000000000000000000e+00 0.000000000000000000e+00
-3.677128806350000190e+01 7.400173669999999815e-01 4.718730769230000277e+01 0.000000000000000000e+00 0.000000000000000000e+00 0.000000000000000000e+00
-3.680223044299999913e+01 1.326036774999999890e-01 4.714957142859999806e+01 0.000000000000000000e+00 0.000000000000000000e+00 0.000000000000000000e+00
-3.677337960119999849e+01 -1.015200643900000088e+00 4.721366666670000001e+01 0.000000000000000000e+00 0.000000000000000000e+00 0.000000000000000000e+00
-3.675174100520000309e+01 -2.274674022900000203e+00 4.721016666669999751e+01 0.000000000000000000e+00 0.000000000000000000e+00 0.000000000000000000e+00
-3.675208059869999744e+01 -2.896789860899999791e+00 4.719609090910000049e+01 0.000000000000000000e+00 0.000000000000000000e+00 0.000000000000000000e+00
-3.678380157520000182e+01 -4.638476342999999780e+00 4.720669999999999789e+01 0.000000000000000000e+00 0.000000000000000000e+00 0.000000000000000000e+00
3.693333333329999846e+01 2.168333333329999846e+01 2.629500000000000171e+01 0.000000000000000000e+00 0.000000000000000000e+00 0.000000000000000000e+00
1.070113526459999953e+01 -2.266400107500000161e+01 4.720654545450000228e+01 0.000000000000000000e+00 0.000000000000000000e+00 0.000000000000000000e+00
1.044201712419999950e+01 -2.451180861730000160e+01 4.720199999999999818e+01 0.000000000000000000e+00 0.000000000000000000e+00 0.000000000000000000e+00
1.048799454110000084e+01 -2.507660108900000040e+01 4.712857142859999726e+01 0.000000000000000000e+00 0.000000000000000000e+00 0.000000000000000000e+00
1.095756851179999991e+01 -2.641760975429999903e+01 4.729999999999999716e+01 0.000000000000000000e+00 0.000000000000000000e+00 0.000000000000000000e+00
1.328598500240000035e+01 -3.090107758359999934e+01 4.710000000000000142e+01 0.000000000000000000e+00 0.000000000000000000e+00 0.000000000000000000e+00
-3.800070837700000226e+01 6.068316693599999923e+00 3.632857142860000010e+01 0.000000000000000000e+00 0.000000000000000000e+00 0.000000000000000000e+00
1.450899817820000059e+01 -3.261899279379999683e+01 4.729999999999999716e+01 0.000000000000000000e+00 0.000000000000000000e+00 0.000000000000000000e+00
-3.707706628980000119e+01 3.648593209199999965e+00 4.700000000000000000e+01 0.000000000000000000e+00 0.000000000000000000e+00 0.000000000000000000e+00
-3.713530501849999865e+01 3.167168042500000169e+00 4.700000000000000000e+01 0.000000000000000000e+00 0.000000000000000000e+00 0.000000000000000000e+00
3.585000000000000142e+01 3.972500000000000142e+01 2.624500000000000099e+01 0.000000000000000000e+00 0.000000000000000000e+00 0.000000000000000000e+00
-3.716208456649999903e+01 2.505367006899999804e+00 4.700000000000000000e+01 0.000000000000000000e+00 0.000000000000000000e+00 0.000000000000000000e+00
-3.718673855149999952e+01 1.845683049200000037e+00 4.700000000000000000e+01 0.000000000000000000e+00 0.000000000000000000e+00 0.000000000000000000e+00
3.993333333329999846e+01 2.401666666670000083e+01 2.591900000000000048e+01 0.000000000000000000e+00 0.000000000000000000e+00 0.000000000000000000e+00
-3.715679346680000350e+01 -4.060998785000000111e-01 4.700000000000000000e+01 0.000000000000000000e+00 0.000000000000000000e+00 0.000000000000000000e+00
-3.718967547039999744e+01 -1.010197713900000016e+00 4.700000000000000000e+01 0.000000000000000000e+00 0.000000000000000000e+00 0.000000000000000000e+00
-3.716061868389999745e+01 -1.636725180400000035e+00 4.700000000000000000e+01 0.000000000000000000e+00 0.000000000000000000e+00 0.000000000000000000e+00
-3.717627044769999856e+01 -2.236018928500000058e+00 4.700000000000000000e+01 0.000000000000000000e+00 0.000000000000000000e+00 0.000000000000000000e+00
-3.719334453639999793e+01 -3.354387327199999991e+00 4.703266666670000262e+01 0.000000000000000000e+00 0.000000000000000000e+00 0.000000000000000000e+00
-3.719177115650000331e+01 -4.000417062700000415e+00 4.702539999999999765e+01 0.000000000000000000e+00 0.000000000000000000e+00 0.000000000000000000e+00
-3.730086223920000066e+01 -4.685702858600000020e+00 4.700399999999999778e+01 0.000000000000000000e+00 0.000000000000000000e+00 0.000000000000000000e+00
3.876593992490000318e+01 2.902639254219999998e+01 2.660000000000000142e+01 0.000000000000000000e+00 0.000000000000000000e+00 0.000000000000000000e+00
1.542580617389999986e+01 -1.916763715860000161e+01 4.778000000000000114e+01 0.000000000000000000e+00 0.000000000000000000e+00 0.000000000000000000e+00
1.149615943459999912e+01 -2.798715118060000151e+01 4.700000000000000000e+01 0.000000000000000000e+00 0.000000000000000000e+00 0.000000000000000000e+00
-3.734393112210000254e+01 3.161811156100000186e+00 4.662724999999999653e+01 0.000000000000000000e+00 0.000000000000000000e+00 0.000000000000000000e+00
-2.864999999999999858e+01 9.349999999999999645e+00 3.971800000000000352e+01 0.000000000000000000e+00 0.000000000000000000e+00 0.000000000000000000e+00
-3.740991209370000092e+01 1.969210097599999987e+00 4.662690909089999991e+01 0.000000000000000000e+00 0.000000000000000000e+00 0.000000000000000000e+00
-3.742979182780000258e+01 7.495711580999999679e-01 4.667327272730000232e+01 0.000000000000000000e+00 0.000000000000000000e+00 0.000000000000000000e+00
-3.786605935810000290e+01 -4.385974394000000109e-01 4.645000000000000284e+01 0.000000000000000000e+00 0.000000000000000000e+00 0.000000000000000000e+00
-3.742424766359999921e+01 -1.646493354099999973e+00 4.669030769230000288e+01 0.000000000000000000e+00 0.000000000000000000e+00 0.000000000000000000e+00
-3.131527321049999912e+01 1.212325317500000033e+01 3.696323076920000261e+01 0.000000000000000000e+00 0.000000000000000000e+00 0.000000000000000000e+00
-3.745016872899999782e+01 -2.245834481600000210e+00 4.669754545450000194e+01 0.000000000000000000e+00 0.000000000000000000e+00 0.000000000000000000e+00
-3.666620411560000292e+01 -5.750855091100000038e+00 4.662500000000000000e+01 0.000000000000000000e+00 0.000000000000000000e+00 0.000000000000000000e+00
-3.603550975299999948e+01 -6.249932998100000248e+00 4.670000000000000284e+01 0.000000000000000000e+00 0.000000000000000000e+00 0.000000000000000000e+00
-3.539692253460000160e+01 -6.867289367999999783e+00 4.670000000000000284e+01 0.000000000000000000e+00 0.000000000000000000e+00 0.000000000000000000e+00
-3.485179020820000062e+01 -7.476654143500000238e+00 4.665024999999999977e+01 0.000000000000000000e+00 0.000000000000000000e+00 0.000000000000000000e+00
3.141966332539999840e+01 3.215095315850000190e+01 2.360000000000000142e+01 0.000000000000000000e+00 0.000000000000000000e+00 0.000000000000000000e+00
-3.780699989210000211e+01 6.732343864699999791e+00 4.639999999999999858e+01 0.000000000000000000e+00 0.000000000000000000e+00 0.000000000000000000e+00
1.093545813939999967e+01 -2.136719762530000111e+01 4.670000000000000284e+01 0.000000000000000000e+00 0.000000000000000000e+00 0.000000000000000000e+00
1.015156176840000057e+01 -2.332832042309999920e+01 4.650983333330000136e+01 0.000000000000000000e+00 0.000000000000000000e+00 0.000000000000000000e+00
1.011530975730000037e+01 -2.390013975680000158e+01 4.653125000000000000e+01 0.000000000000000000e+00 0.000000000000000000e+00 0.000000000000000000e+00
1.277133346799999991e+01 -3.011553143960000156e+01 4.654999999999999716e+01 0.000000000000000000e+00 0.000000000000000000e+00 0.000000000000000000e+00
-3.649190000000000111e+01 6.623009999999999842e+00 3.379999999999999716e+01 0.000000000000000000e+00 0.000000000000000000e+00 0.000000000000000000e+00
-3.786779269050000352e+01 7.095212680000000383e+00 4.639999999999999858e+01 0.000000000000000000e+00 0.000000000000000000e+00 0.000000000000000000e+00
-3.774769413920000005e+01 6.156284476099999736e+00 4.639999999999999858e+01 0.000000000000000000e+00 0.000000000000000000e+00 0.000000000000000000e+00
4.660000000000000142e+01 2.297500000000000142e+01 2.922800000000000153e+01 0.000000000000000000e+00 0.000000000000000000e+00 0.000000000000000000e+00
-3.775428083890000153e+01 5.514595678800000123e+00 4.639999999999999858e+01 0.000000000000000000e+00 0.000000000000000000e+00 0.000000000000000000e+00
-3.776830700899999727e+01 4.865497109499999695e+00 4.639999999999999858e+01 0.000000000000000000e+00 0.000000000000000000e+00 0.000000000000000000e+00
-3.775976021799999671e+01 3.168038652399999933e+00 4.639999999999999858e+01 0.000000000000000000e+00 0.000000000000000000e+00 0.000000000000000000e+00
-3.780566840329999678e+01 2.589928318800000184e+00 4.639999999999999858e+01 0.000000000000000000e+00 0.000000000000000000e+00 0.000000000000000000e+00
-4.334992908440000292e+01 3.750370853600000220e+00 4.174300000000000210e+01 0.000000000000000000e+00 0.000000000000000000e+00 0.000000000000000000e+00
-3.784275946479999675e+01 1.406219556199999943e+00 4.639999999999999858e+01 0.000000000000000000e+00 0.000000000000000000e+00 0.000000000000000000e+00
-3.793404059129999695e+01 -2.234595935200000216e+00 4.639999999999999858e+01 0.000000000000000000e+00 0.000000000000000000e+00 0.000000000000000000e+00
-2.180853299150000169e+01 1.342229067299999912e+00 4.482928571429999920e+01 0.000000000000000000e+00 0.000000000000000000e+00 0.000000000000000000e+00
-3.802276963839999979e+01 6.148203431899999849e+00 4.599307142859999686e+01 0.000000000000000000e+00 0.000000000000000000e+00 0.000000000000000000e+00
-3.805132968680000261e+01 3.728945799399999927e+00 4.601563636360000231e+01 0.000000000000000000e+00 0.000000000000000000e+00 0.000000000000000000e+00
-3.804775313430000239e+01 2.504508213199999833e+00 4.608822222220000242e+01 0.000000000000000000e+00 0.000000000000000000e+00 0.000000000000000000e+00
-3.848376253560000038e+01 1.333093992000000005e+00 4.587227272730000038e+01 0.000000000000000000e+00 0.000000000000000000e+00 0.000000000000000000e+00
-3.850442457140000130e+01 1.671009404999999892e-01 4.586337499999999778e+01 0.000000000000000000e+00 0.000000000000000000e+00 0.000000000000000000e+00
-3.850152576499999668e+01 -1.034999686399999952e+00 4.589816666669999989e+01 0.000000000000000000e+00 0.000000000000000000e+00 0.000000000000000000e+00
-3.856252833719999984e+01 -1.628665840500000073e+00 4.590636363640000184e+01 0.000000000000000000e+00 0.000000000000000000e+00 0.000000000000000000e+00
-3.856589588989999839e+01 -2.234203920200000137e+00 4.599219999999999686e+01 0.000000000000000000e+00 0.000000000000000000e+00 0.000000000000000000e+00
-3.487605690560000227e+01 -6.946121699499999913e+00 4.602499999999999858e+01 0.000000000000000000e+00 0.000000000000000000e+00 0.000000000000000000e+00
-3.890442466670000243e+01 4.792462171400000415e+00 3.155000000000000071e+01 0.000000000000000000e+00 0.000000000000000000e+00 0.000000000000000000e+00
-1.924539504639999876e+01 2.560750881700000203e+00 4.596459999999999724e+01 0.000000000000000000e+00 0.000000000000000000e+00 0.000000000000000000e+00
-1.933295192170000121e+01 1.973840207799999913e+00 4.589842857139999666e+01 0.000000000000000000e+00 0.000000000000000000e+00 0.000000000000000000e+00
1.004399453259999930e+01 -2.206530868970000014e+01 4.600224999999999653e+01 0.000000000000000000e+00 0.000000000000000000e+00 0.000000000000000000e+00
9.950587114899999364e+00 -2.267956320820000116e+01 4.595870000000000033e+01 0.000000000000000000e+00 0.000000000000000000e+00 0.000000000000000000e+00
9.911746863799999474e+00 -2.325356195310000018e+01 4.598385714289999981e+01 0.000000000000000000e+00 0.000000000000000000e+00 0.000000000000000000e+00
-3.847390483929999760e+01 6.779512928599999988e+00 4.579999999999999716e+01 0.000000000000000000e+00 0.000000000000000000e+00 0.000000000000000000e+00
-3.849023355970000182e+01 4.393926465799999903e+00 4.579999999999999716e+01 0.000000000000000000e+00 0.000000000000000000e+00 0.000000000000000000e+00
-3.850876818300000082e+01 3.757801269399999811e+00 4.579999999999999716e+01 0.000000000000000000e+00 0.000000000000000000e+00 0.000000000000000000e+00
-3.851910813970000191e+01 3.117485664300000181e+00 4.579999999999999716e+01 0.000000000000000000e+00 0.000000000000000000e+00 0.000000000000000000e+00
-3.845350336020000270e+01 2.489193199199999817e+00 4.580383333329999829e+01 0.000000000000000000e+00 0.000000000000000000e+00 0.000000000000000000e+00
-3.891014162500000140e+01 -7.176780275999999903e-01 4.579999999999999716e+01 0.000000000000000000e+00 0.000000000000000000e+00 0.000000000000000000e+00
1.230122000000000071e+01 -2.261477680000000134e+01 4.906839999999999691e+01 0.000000000000000000e+00 0.000000000000000000e+00 0.000000000000000000e+00
-3.895350141290000323e+01 -1.184283650300000046e+00 4.579999999999999716e+01 0.000000000000000000e+00 0.000000000000000000e+00 0.000000000000000000e+00
-3.910101378689999763e+01 -1.754626080500000018e+00 4.579999999999999716e+01 0.000000000000000000e+00 0.000000000000000000e+00 0.000000000000000000e+00
-3.896919508269999710e+01 -2.292208158899999848e+00 4.580924999999999869e+01 0.000000000000000000e+00 0.000000000000000000e+00 0.000000000000000000e+00
-4.140030021790000347e+01 1.975158843100000006e+00 4.347820000000000107e+01 0.000000000000000000e+00 0.000000000000000000e+00 0.000000000000000000e+00
-3.898795249820000208e+01 -2.712909432800000076e+00 4.582766666669999722e+01 0.000000000000000000e+00 0.000000000000000000e+00 0.000000000000000000e+00
4.144127489600000303e+01 2.230173280689999871e+01 2.689999999999999858e+01 0.000000000000000000e+00 0.000000000000000000e+00 0.000000000000000000e+00
-1.991333893919999909e+01 3.087233392099999918e+00 4.579999999999999716e+01 0.000000000000000000e+00 0.000000000000000000e+00 0.000000000000000000e+00
-1.992752350130000139e+01 1.887532456900000044e+00 4.579999999999999716e+01 0.000000000000000000e+00 0.000000000000000000e+00 0.000000000000000000e+00
4.301890275000000230e+01 3.133337500000000020e+01 2.853112499999999940e+01 0.000000000000000000e+00 0.000000000000000000e+00 0.000000000000000000e+00
-3.563391955510000031e+01 6.384266024199999556e+00 3.517999999999999972e+01 0.000000000000000000e+00 0.000000000000000000e+00 0.000000000000000000e+00
3.222500000000000142e+01 3.435000000000000142e+01 2.380649999999999977e+01 0.000000000000000000e+00 0.000000000000000000e+00 0.000000000000000000e+00
1.932774987259999833e+01 -1.751628372060000061e+01 4.400000000000000000e+01 0.000000000000000000e+00 0.000000000000000000e+00 0.000000000000000000e+00
1.058599001950000051e+01 -2.091756913540000085e+01 4.601257142859999760e+01 0.000000000000000000e+00 0.000000000000000000e+00 0.000000000000000000e+00
1.024933898279999944e+01 -2.549276348300000095e+01 4.579999999999999716e+01 0.000000000000000000e+00 0.000000000000000000e+00 0.000000000000000000e+00
1.526002650809999928e+01 -3.310937566890000028e+01 4.595000000000000284e+01 0.000000000000000000e+00 0.000000000000000000e+00 0.000000000000000000e+00
-3.902390029890000278e+01 6.770664340299999751e+00 4.527066666670000217e+01 0.000000000000000000e+00 0.000000000000000000e+00 0.000000000000000000e+00
-3.900956854790000250e+01 4.957217821799999591e+00 4.529874999999999829e+01 0.000000000000000000e+00 0.000000000000000000e+00 0.000000000000000000e+00
-3.911791198470000097e+01 3.727200467899999925e+00 4.527949999999999875e+01 0.000000000000000000e+00 0.000000000000000000e+00 0.000000000000000000e+00
-3.907323463419999854e+01 3.099102442199999974e+00 4.535792307690000058e+01 0.000000000000000000e+00 0.000000000000000000e+00 0.000000000000000000e+00
-3.913427667439999880e+01 1.038945004000000061e-01 4.538271428569999699e+01 0.000000000000000000e+00 0.000000000000000000e+00 0.000000000000000000e+00
-3.917234442659999871e+01 -4.741635413999999993e-01 4.545199999999999818e+01 0.000000000000000000e+00 0.000000000000000000e+00 0.000000000000000000e+00
-3.961230553499999729e+01 -1.084291701499999983e+00 4.525999999999999801e+01 0.000000000000000000e+00 0.000000000000000000e+00 0.000000000000000000e+00
-3.785787579960000215e+01 -3.860831125599999858e+00 4.539999999999999858e+01 0.000000000000000000e+00 0.000000000000000000e+00 0.000000000000000000e+00
-3.718202085109999899e+01 -4.450314281299999841e+00 4.550000000000000000e+01 0.000000000000000000e+00 0.000000000000000000e+00 0.000000000000000000e+00
-2.054498840779999824e+01 2.484324012100000090e+00 4.539233333330000164e+01 0.000000000000000000e+00 0.000000000000000000e+00 0.000000000000000000e+00
-2.052895790750000060e+01 1.961571789700000013e+00 4.539240000000000208e+01 0.000000000000000000e+00 0.000000000000000000e+00 0.000000000000000000e+00
-2.053614689520000169e+01 1.360919111699999906e+00 4.537057142860000170e+01 0.000000000000000000e+00 0.000000000000000000e+00 0.000000000000000000e+00
-2.051739616729999938e+01 7.386479187000000168e-01 4.545528571429999687e+01 0.000000000000000000e+00 0.000000000000000000e+00 0.000000000000000000e+00
3.522500000000000142e+01 3.372500000000000142e+01 2.510725000000000051e+01 0.000000000000000000e+00 0.000000000000000000e+00 0.000000000000000000e+00
9.837431038000000072e+00 -2.203462237709999982e+01 4.563533333329999664e+01 0.000000000000000000e+00 0.000000000000000000e+00 0.000000000000000000e+00
9.582924159099999173e+00 -2.329260217570000080e+01 4.536930000000000263e+01 0.000000000000000000e+00 0.000000000000000000e+00 0.000000000000000000e+00
1.038650041540000046e+01 -2.581486604099999838e+01 4.550000000000000000e+01 0.000000000000000000e+00 0.000000000000000000e+00 0.000000000000000000e+00
1.158695789379999930e+01 -2.833124647229999837e+01 4.535000000000000142e+01 0.000000000000000000e+00 0.000000000000000000e+00 0.000000000000000000e+00
-3.951593556080000269e+01 7.960410153000000433e-01 4.520000000000000284e+01 0.000000000000000000e+00 0.000000000000000000e+00 0.000000000000000000e+00
-3.956142091160000263e+01 3.273183148000000098e-01 4.520000000000000284e+01 0.000000000000000000e+00 0.000000000000000000e+00 0.000000000000000000e+00
-3.963125015399999995e+01 -4.754034263999999954e-01 4.520000000000000284e+01 0.000000000000000000e+00 0.000000000000000000e+00 0.000000000000000000e+00
-2.107417659989999947e+01 3.213089931599999893e+00 4.520275000000000176e+01 0.000000000000000000e+00 0.000000000000000000e+00 0.000000000000000000e+00
-2.118640621000000124e+01 2.657617703500000150e+00 4.520000000000000284e+01 0.000000000000000000e+00 0.000000000000000000e+00 0.000000000000000000e+00
-2.103924243950000061e+01 2.051919698599999897e+00 4.520000000000000284e+01 0.000000000000000000e+00 0.000000000000000000e+00 0.000000000000000000e+00
-2.105223886899999997e+01 1.525918404200000023e+00 4.521374999999999744e+01 0.000000000000000000e+00 0.000000000000000000e+00 0.000000000000000000e+00
3.522500000000000142e+01 3.985000000000000142e+01 2.613400000000000034e+01 0.000000000000000000e+00 0.000000000000000000e+00 0.000000000000000000e+00
-4.158689937100000122e+01 4.401307983899999776e+00 4.306653846150000220e+01 0.000000000000000000e+00 0.000000000000000000e+00 0.000000000000000000e+00
-3.027251097999999985e+01 8.404138958400000803e+00 4.768571428570000137e+01 0.000000000000000000e+00 0.000000000000000000e+00 0.000000000000000000e+00
9.514316863699999516e+00 -2.269104517959999967e+01 4.534287499999999937e+01 0.000000000000000000e+00 0.000000000000000000e+00 0.000000000000000000e+00
9.620653494900000879e+00 -2.385161955150000068e+01 4.528119999999999834e+01 0.000000000000000000e+00 0.000000000000000000e+00 0.000000000000000000e+00
-3.978266496580000222e+01 5.523416195700000308e+00 4.467944444439999785e+01 0.000000000000000000e+00 0.000000000000000000e+00 0.000000000000000000e+00
-3.972216872860000336e+01 4.348902310499999757e+00 4.467499999999999716e+01 0.000000000000000000e+00 0.000000000000000000e+00 0.000000000000000000e+00
-3.969892283480000117e+01 3.754868448299999883e+00 4.477177777779999701e+01 0.000000000000000000e+00 0.000000000000000000e+00 0.000000000000000000e+00
-3.974130710469999883e+01 2.546956745200000150e+00 4.476400000000000290e+01 0.000000000000000000e+00 0.000000000000000000e+00 0.000000000000000000e+00
-3.976929986630000258e+01 1.943983459000000025e+00 4.476007692310000152e+01 0.000000000000000000e+00 0.000000000000000000e+00 0.000000000000000000e+00
-4.022911483419999712e+01 1.508077969999999934e-01 4.468271428570000126e+01 0.000000000000000000e+00 0.000000000000000000e+00 0.000000000000000000e+00
-3.966335248840000105e+01 -2.033544696499999915e+00 4.479999999999999716e+01 0.000000000000000000e+00 0.000000000000000000e+00 0.000000000000000000e+00
-3.603929806299999683e+01 -5.060452862400000029e+00 4.479999999999999716e+01 0.000000000000000000e+00 0.000000000000000000e+00 0.000000000000000000e+00
-3.540258206109999861e+01 -5.658454275100000430e+00 4.489999999999999858e+01 0.000000000000000000e+00 0.000000000000000000e+00 0.000000000000000000e+00
-2.178072136109999946e+01 2.516123782599999803e+00 4.481433333329999869e+01 0.000000000000000000e+00 0.000000000000000000e+00 0.000000000000000000e+00
-2.181987431339999972e+01 2.019393642899999897e+00 4.484842857139999950e+01 0.000000000000000000e+00 0.000000000000000000e+00 0.000000000000000000e+00
-3.139083375479999916e+01 7.275266813200000016e+00 3.871999999999999886e+01 0.000000000000000000e+00 0.000000000000000000e+00 0.000000000000000000e+00
-2.229634731169999995e+01 6.801331945999999906e-01 4.471860000000000213e+01 0.000000000000000000e+00 0.000000000000000000e+00 0.000000000000000000e+00
-2.229128990239999908e+01 1.826964537000000111e-01 4.474983333330000335e+01 0.000000000000000000e+00 0.000000000000000000e+00 0.000000000000000000e+00
-2.217274960270000150e+01 -4.481947259999999877e-01 4.482374999999999687e+01 0.000000000000000000e+00 0.000000000000000000e+00 0.000000000000000000e+00
3.992215800000000314e+01 3.599929999999999808e+01 2.780000000000000071e+01 0.000000000000000000e+00 0.000000000000000000e+00 0.000000000000000000e+00
-2.714999999999999858e+01 7.249999999999999778e-01 4.209400000000000119e+01 0.000000000000000000e+00 0.000000000000000000e+00 0.000000000000000000e+00
1.785348178339999947e+01 -1.969012433600000023e+01 4.858566666669999989e+01 0.000000000000000000e+00 0.000000000000000000e+00 0.000000000000000000e+00
8.250920107800000736e+00 -1.975879444379999939e+01 4.506360000000000099e+01 0.000000000000000000e+00 0.000000000000000000e+00 0.000000000000000000e+00
9.351996546800000587e+00 -2.266830205669999998e+01 4.483066666669999734e+01 0.000000000000000000e+00 0.000000000000000000e+00 0.000000000000000000e+00
1.382454784149999938e+01 -3.148753024659999866e+01 4.489999999999999858e+01 0.000000000000000000e+00 0.000000000000000000e+00 0.000000000000000000e+00
-4.010898460399999976e+01 4.439548712499999716e+00 4.460000000000000142e+01 0.000000000000000000e+00 0.000000000000000000e+00 0.000000000000000000e+00
-4.019655270780000222e+01 3.082073398199999925e+00 4.460000000000000142e+01 0.000000000000000000e+00 0.000000000000000000e+00 0.000000000000000000e+00
-4.019102454699999782e+01 2.664160562599999782e+00 4.460000000000000142e+01 0.000000000000000000e+00 0.000000000000000000e+00 0.000000000000000000e+00
-4.042164388820000198e+01 1.375914537799999948e+00 4.460000000000000142e+01 0.000000000000000000e+00 0.000000000000000000e+00 0.000000000000000000e+00
-4.024129615649999892e+01 6.449402174999999682e-01 4.460266666670000291e+01 0.000000000000000000e+00 0.000000000000000000e+00 0.000000000000000000e+00
-2.230390235429999990e+01 2.109787601999999929e+00 4.460999999999999943e+01 0.000000000000000000e+00 0.000000000000000000e+00 0.000000000000000000e+00
-2.275006537619999847e+01 7.699339257999999742e-01 4.460000000000000142e+01 0.000000000000000000e+00 0.000000000000000000e+00 0.000000000000000000e+00
-2.271966473439999845e+01 -4.700435759000000102e-01 4.460000000000000142e+01 0.000000000000000000e+00 0.000000000000000000e+00 0.000000000000000000e+00
8.846392338499999397e+00 -2.030670828659999927e+01 4.475557142859999971e+01 0.000000000000000000e+00 0.000000000000000000e+00 0.000000000000000000e+00
9.446542032700000036e+00 -2.089922122759999823e+01 4.474485714290000260e+01 0.000000000000000000e+00 0.000000000000000000e+00 0.000000000000000000e+00
1.330336697409999935e+01 -3.085587860349999900e+01 4.460000000000000142e+01 0.000000000000000000e+00 0.000000000000000000e+00 0.000000000000000000e+00
-4.027243821399999746e+01 5.538649100899999844e+00 4.416474999999999795e+01 0.000000000000000000e+00 0.000000000000000000e+00 0.000000000000000000e+00
-4.035327047679999879e+01 4.334617995900000409e+00 4.416885714290000209e+01 0.000000000000000000e+00 0.000000000000000000e+00 0.000000000000000000e+00
-4.040878657900000093e+01 3.153764582600000033e+00 4.425626666670000020e+01 0.000000000000000000e+00 0.000000000000000000e+00 0.000000000000000000e+00
2.945162817570000158e+01 3.702616732940000333e+01 1.669999999999999929e+01 0.000000000000000000e+00 0.000000000000000000e+00 0.000000000000000000e+00
-4.038848489690000321e+01 2.490257793400000086e+00 4.426599999999999824e+01 0.000000000000000000e+00 0.000000000000000000e+00 0.000000000000000000e+00
-4.084899630470000176e+01 1.272930402899999924e+00 4.405933333330000323e+01 0.000000000000000000e+00 0.000000000000000000e+00 0.000000000000000000e+00
-4.092022217750000124e+01 7.449445048999999708e-01 4.405375000000000085e+01 0.000000000000000000e+00 0.000000000000000000e+00 0.000000000000000000e+00
-3.427654214510000230e+01 -6.246026282399999907e+00 4.429999999999999716e+01 0.000000000000000000e+00 0.000000000000000000e+00 0.000000000000000000e+00
-3.364076658230000305e+01 -6.860195035700000332e+00 4.429999999999999716e+01 0.000000000000000000e+00 0.000000000000000000e+00 0.000000000000000000e+00
-2.303900473179999864e+01 1.334284850700000025e+00 4.418675000000000352e+01 0.000000000000000000e+00 0.000000000000000000e+00 0.000000000000000000e+00
-2.307514359019999972e+01 6.716178457000000490e-01 4.428900000000000148e+01 0.000000000000000000e+00 0.000000000000000000e+00 0.000000000000000000e+00
-2.351853182909999873e+01 9.909300960000000380e-02 4.409449999999999648e+01 0.000000000000000000e+00 0.000000000000000000e+00 0.000000000000000000e+00
-2.347771974699999831e+01 -4.903220267000000243e-01 4.411424999999999841e+01 0.000000000000000000e+00 0.000000000000000000e+00 0.000000000000000000e+00
-2.305992354099999986e+01 -5.672742204999999815e-01 4.427279999999999660e+01 0.000000000000000000e+00 0.000000000000000000e+00 0.000000000000000000e+00
-3.892200292510000281e+01 4.305884832000000273e+00 3.150000000000000000e+01 0.000000000000000000e+00 0.000000000000000000e+00 0.000000000000000000e+00
3.910000000000000142e+01 1.997500000000000142e+01 2.542000000000000171e+01 0.000000000000000000e+00 0.000000000000000000e+00 0.000000000000000000e+00
9.130835924299999462e+00 -2.230918500530000159e+01 4.429999999999999716e+01 0.000000000000000000e+00 0.000000000000000000e+00 0.000000000000000000e+00
9.172498655900000131e+00 -2.269110751999999920e+01 4.429999999999999716e+01 0.000000000000000000e+00 0.000000000000000000e+00 0.000000000000000000e+00
9.728556114899999940e+00 -2.467778341869999892e+01 4.429999999999999716e+01 0.000000000000000000e+00 0.000000000000000000e+00 0.000000000000000000e+00
9.812773228999999375e+00 -2.518546076279999824e+01 4.422500000000000142e+01 0.000000000000000000e+00 0.000000000000000000e+00 0.000000000000000000e+00
1.625133403570000112e+01 -3.384754486420000319e+01 4.414999999999999858e+01 0.000000000000000000e+00 0.000000000000000000e+00 0.000000000000000000e+00
1.688858290960000019e+01 -3.448309668179999932e+01 4.414999999999999858e+01 0.000000000000000000e+00 0.000000000000000000e+00 0.000000000000000000e+00
-4.067736693420000194e+01 5.567111085299999651e+00 4.400000000000000000e+01 0.000000000000000000e+00 0.000000000000000000e+00 0.000000000000000000e+00
-4.072221376760000311e+01 4.887314889299999798e+00 4.400000000000000000e+01 0.000000000000000000e+00 0.000000000000000000e+00 0.000000000000000000e+00
-4.073730271920000234e+01 4.237157781099999632e+00 4.400000000000000000e+01 0.000000000000000000e+00 0.000000000000000000e+00 0.000000000000000000e+00
-3.133084769630000110e+01 1.391289836780000044e+01 3.635240000000000293e+01 0.000000000000000000e+00 0.000000000000000000e+00 0.000000000000000000e+00
-4.077216025509999753e+01 3.779020469199999788e+00 4.400000000000000000e+01 0.000000000000000000e+00 0.000000000000000000e+00 0.000000000000000000e+00
-4.074903651719999687e+01 2.520335100100000059e+00 4.400000000000000000e+01 0.000000000000000000e+00 0.000000000000000000e+00 0.000000000000000000e+00
-2.361401276890000034e+01 -9.959877628000000094e-01 4.400466666669999682e+01 0.000000000000000000e+00 0.000000000000000000e+00 0.000000000000000000e+00
-2.365533671160000040e+01 -1.613689799599999919e+00 4.400000000000000000e+01 0.000000000000000000e+00 0.000000000000000000e+00 0.000000000000000000e+00
-2.689999999999999858e+01 4.224999999999999645e+00 4.270600000000000307e+01 0.000000000000000000e+00 0.000000000000000000e+00 0.000000000000000000e+00
1.269587598200000045e+01 -3.019068769809999964e+01 4.400000000000000000e+01 0.000000000000000000e+00 0.000000000000000000e+00 0.000000000000000000e+00
3.947500000000000142e+01 3.547500000000000142e+01 2.762875000000000014e+01 0.000000000000000000e+00 0.000000000000000000e+00 0.000000000000000000e+00
1.329061359620000005e+01 -3.086858106969999938e+01 4.400000000000000000e+01 0.000000000000000000e+00 0.000000000000000000e+00 0.000000000000000000e+00
-4.100398138229999745e+01 6.148556065700000239e+00 4.357450000000000045e+01 0.000000000000000000e+00 0.000000000000000000e+00 0.000000000000000000e+00
-4.102140969980000307e+01 5.509465260699999867e+00 4.354933333329999812e+01 0.000000000000000000e+00 0.000000000000000000e+00 0.000000000000000000e+00
-4.098840426630000167e+01 4.372383316399999664e+00 4.362823076920000176e+01 0.000000000000000000e+00 0.000000000000000000e+00 0.000000000000000000e+00
-4.097927658710000287e+01 3.772814201100000098e+00 4.359522222220000032e+01 0.000000000000000000e+00 0.000000000000000000e+00 0.000000000000000000e+00
-4.100218027750000260e+01 3.157232971300000024e+00 4.361299999999999955e+01 0.000000000000000000e+00 0.000000000000000000e+00 0.000000000000000000e+00
-4.103370787330000269e+01 2.530912369899999792e+00 4.363688888890000328e+01 0.000000000000000000e+00 0.000000000000000000e+00 0.000000000000000000e+00
-3.718693654319999808e+01 -3.251452740399999985e+00 4.360000000000000142e+01 0.000000000000000000e+00 0.000000000000000000e+00 0.000000000000000000e+00
-2.419037641039999897e+01 -4.842135293000000007e-01 4.367224999999999824e+01 0.000000000000000000e+00 0.000000000000000000e+00 0.000000000000000000e+00
-2.416997261270000052e+01 -1.637392880299999964e+00 4.358899999999999864e+01 0.000000000000000000e+00 0.000000000000000000e+00 0.000000000000000000e+00
-2.409911016579999909e+01 -2.841648601500000204e+00 4.358088888889999879e+01 0.000000000000000000e+00 0.000000000000000000e+00 0.000000000000000000e+00
3.215289248530000066e+01 3.602430844079999872e+01 1.350000000000000000e+01 0.000000000000000000e+00 0.000000000000000000e+00 0.000000000000000000e+00
1.043659132720000038e+01 -2.651308826160000010e+01 4.354999999999999716e+01 0.000000000000000000e+00 0.000000000000000000e+00 0.000000000000000000e+00
1.157420451579999998e+01 -2.834394893840000051e+01 4.354999999999999716e+01 0.000000000000000000e+00 0.000000000000000000e+00 0.000000000000000000e+00
1.344259134950000067e+01 -3.071721001399999906e+01 4.354999999999999716e+01 0.000000000000000000e+00 0.000000000000000000e+00 0.000000000000000000e+00
1.565978476609999959e+01 -3.316647587599999980e+01 4.370000000000000284e+01 0.000000000000000000e+00 0.000000000000000000e+00 0.000000000000000000e+00
1.861306573519999930e+01 -3.615284944249999910e+01 4.370000000000000284e+01 0.000000000000000000e+00 0.000000000000000000e+00 0.000000000000000000e+00
-3.436117946819999958e+01 6.597649220300000117e+00 3.693333333329999846e+01 0.000000000000000000e+00 0.000000000000000000e+00 0.000000000000000000e+00
-4.144891635430000321e+01 6.242019289199999932e+00 4.339999999999999858e+01 0.000000000000000000e+00 0.000000000000000000e+00 0.000000000000000000e+00
-4.144168510890000334e+01 4.937312090899999895e+00 4.339999999999999858e+01 0.000000000000000000e+00 0.000000000000000000e+00 0.000000000000000000e+00
-4.141237033729999695e+01 3.098440770099999853e+00 4.339999999999999858e+01 0.000000000000000000e+00 0.000000000000000000e+00 0.000000000000000000e+00
-4.148346669160000033e+01 2.506247548999999797e+00 4.339999999999999858e+01 0.000000000000000000e+00 0.000000000000000000e+00 0.000000000000000000e+00
-4.189402900409999830e+01 1.814792382300000062e+00 4.339999999999999858e+01 0.000000000000000000e+00 0.000000000000000000e+00 0.000000000000000000e+00
-2.481696112499999884e+01 -1.712129670099999945e+00 4.339999999999999858e+01 0.000000000000000000e+00 0.000000000000000000e+00 0.000000000000000000e+00
-2.476190649819999834e+01 -2.292423213999999820e+00 4.339999999999999858e+01 0.000000000000000000e+00 0.000000000000000000e+00 0.000000000000000000e+00
-2.475573981999999873e+01 -2.921409545099999949e+00 4.339999999999999858e+01 0.000000000000000000e+00 0.000000000000000000e+00 0.000000000000000000e+00
8.271259950599999300e+00 -2.358874846599999842e+01 4.339999999999999858e+01 0.000000000000000000e+00 0.000000000000000000e+00 0.000000000000000000e+00
1.088120227259999950e+01 -2.745496263729999953e+01 4.350000000000000000e+01 0.000000000000000000e+00 0.000000000000000000e+00 0.000000000000000000e+00
1.572355165559999968e+01 -3.310296354489999970e+01 4.339999999999999858e+01 0.000000000000000000e+00 0.000000000000000000e+00 0.000000000000000000e+00
1.636505165539999851e+01 -3.373428120709999689e+01 4.339999999999999858e+01 0.000000000000000000e+00 0.000000000000000000e+00 0.000000000000000000e+00
-4.160340086499999757e+01 5.006361603900000290e+00 4.301754545450000222e+01 0.000000000000000000e+00 0.000000000000000000e+00 0.000000000000000000e+00
-4.020563476969999783e+01 -2.505070993999999884e-01 4.310000000000000142e+01 0.000000000000000000e+00 0.000000000000000000e+00 0.000000000000000000e+00
-3.541323774749999842e+01 -4.465834021200000059e+00 4.300000000000000000e+01 0.000000000000000000e+00 0.000000000000000000e+00 0.000000000000000000e+00
-2.526971894380000094e+01 -2.880949802800000015e+00 4.295557142860000255e+01 0.000000000000000000e+00 0.000000000000000000e+00 0.000000000000000000e+00
-2.518030514930000052e+01 -3.449732086800000097e+00 4.303649999999999665e+01 0.000000000000000000e+00 0.000000000000000000e+00 0.000000000000000000e+00
-2.533529875920000052e+01 -4.038767668300000224e+00 4.290350000000000108e+01 0.000000000000000000e+00 0.000000000000000000e+00 0.000000000000000000e+00
3.467142857139999990e+01 3.013571428570000066e+01 2.442442857140000001e+01 0.000000000000000000e+00 0.000000000000000000e+00 0.000000000000000000e+00
1.158589511229999935e+01 -2.833230501110000077e+01 4.310000000000000142e+01 0.000000000000000000e+00 0.000000000000000000e+00 0.000000000000000000e+00
-4.201108056449999850e+01 6.193544756599999701e+00 4.279999999999999716e+01 0.000000000000000000e+00 0.000000000000000000e+00 0.000000000000000000e+00
-4.200623075179999688e+01 5.609251901800000439e+00 4.279999999999999716e+01 0.000000000000000000e+00 0.000000000000000000e+00 0.000000000000000000e+00
-4.199652182110000354e+01 3.803249301500000179e+00 4.282719999999999771e+01 0.000000000000000000e+00 0.000000000000000000e+00 0.000000000000000000e+00
-4.247898733139999905e+01 2.079007073800000160e+00 4.279999999999999716e+01 0.000000000000000000e+00 0.000000000000000000e+00 0.000000000000000000e+00
-2.572733635719999867e+01 -3.465708525500000192e+00 4.279999999999999716e+01 0.000000000000000000e+00 0.000000000000000000e+00 0.000000000000000000e+00
3.046848745309999984e+01 3.687382651810000311e+01 1.777142857140000132e+01 0.000000000000000000e+00 0.000000000000000000e+00 0.000000000000000000e+00
-2.524140837859999920e+01 -4.565257858899999910e+00 4.285633333330000028e+01 0.000000000000000000e+00 0.000000000000000000e+00 0.000000000000000000e+00
3.710000000000000142e+01 3.785000000000000142e+01 2.689300000000000068e+01 0.000000000000000000e+00 0.000000000000000000e+00 0.000000000000000000e+00
1.514581854529999916e+01 -3.240813355169999710e+01 4.279999999999999716e+01 0.000000000000000000e+00 0.000000000000000000e+00 0.000000000000000000e+00
-4.220131323129999856e+01 6.122785464399999711e+00 4.248237499999999756e+01 0.000000000000000000e+00 0.000000000000000000e+00 0.000000000000000000e+00
-4.219787730550000049e+01 5.510740276099999946e+00 4.244599999999999795e+01 0.000000000000000000e+00 0.000000000000000000e+00 0.000000000000000000e+00
-4.219137222509999674e+01 4.954360445099999843e+00 4.246399999999999864e+01 0.000000000000000000e+00 0.000000000000000000e+00 0.000000000000000000e+00
-4.270067870460000137e+01 4.338223998600000186e+00 4.227349999999999852e+01 0.000000000000000000e+00 0.000000000000000000e+00 0.000000000000000000e+00
-4.276136666050000201e+01 3.087607480900000034e+00 4.230663636359999913e+01 0.000000000000000000e+00 0.000000000000000000e+00 0.000000000000000000e+00
-3.294464379010000243e+01 -6.240204763800000443e+00 4.250000000000000000e+01 0.000000000000000000e+00 0.000000000000000000e+00 0.000000000000000000e+00
-2.607064063700000034e+01 -3.490869538500000147e+00 4.245839999999999748e+01 0.000000000000000000e+00 0.000000000000000000e+00 0.000000000000000000e+00
-2.596828328189999979e+01 -4.579683944000000118e+00 4.239383333330000170e+01 0.000000000000000000e+00 0.000000000000000000e+00 0.000000000000000000e+00
-2.593141367180000145e+01 -5.297761537499999562e+00 4.235260000000000247e+01 0.000000000000000000e+00 0.000000000000000000e+00 0.000000000000000000e+00
3.522500000000000142e+01 3.960000000000000142e+01 2.584450000000000003e+01 0.000000000000000000e+00 0.000000000000000000e+00 0.000000000000000000e+00
1.871169016059999990e+01 -3.563119979940000093e+01 4.250000000000000000e+01 0.000000000000000000e+00 0.000000000000000000e+00 0.000000000000000000e+00
-4.263272620530000268e+01 6.134683731099999981e+00 4.220000000000000284e+01 0.000000000000000000e+00 0.000000000000000000e+00 0.000000000000000000e+00
-4.263284940110000321e+01 5.598210222799999691e+00 4.220000000000000284e+01 0.000000000000000000e+00 0.000000000000000000e+00 0.000000000000000000e+00
-4.263397710070000102e+01 5.044768092900000056e+00 4.220000000000000284e+01 0.000000000000000000e+00 0.000000000000000000e+00 0.000000000000000000e+00
-3.821762811360000001e+01 -1.298185824900000007e+00 4.220000000000000284e+01 0.000000000000000000e+00 0.000000000000000000e+00 0.000000000000000000e+00
-2.661983570510000163e+01 -3.993803421700000023e+00 4.221266666670000234e+01 0.000000000000000000e+00 0.000000000000000000e+00 0.000000000000000000e+00
-2.644875073689999923e+01 -4.607661935500000361e+00 4.220000000000000284e+01 0.000000000000000000e+00 0.000000000000000000e+00 0.000000000000000000e+00
-2.629485743129999875e+01 -5.089511366199999998e+00 4.220000000000000284e+01 0.000000000000000000e+00 0.000000000000000000e+00 0.000000000000000000e+00
-4.322972371819999893e+01 5.562146044700000402e+00 4.163811111110000240e+01 0.000000000000000000e+00 0.000000000000000000e+00 0.000000000000000000e+00
-4.323472409610000255e+01 4.947368000600000038e+00 4.169912500000000222e+01 0.000000000000000000e+00 0.000000000000000000e+00 0.000000000000000000e+00
-4.328712279650000028e+01 4.323317691699999799e+00 4.171718181819999671e+01 0.000000000000000000e+00 0.000000000000000000e+00 0.000000000000000000e+00
-4.138127143090000004e+01 1.547048539700000003e+00 4.189999999999999858e+01 0.000000000000000000e+00 0.000000000000000000e+00 0.000000000000000000e+00
-3.531276434160000122e+01 -3.879339510899999954e+00 4.189999999999999858e+01 0.000000000000000000e+00 0.000000000000000000e+00 0.000000000000000000e+00
-3.241055342250000137e+01 -6.293775832999999764e+00 4.182500000000000284e+01 0.000000000000000000e+00 0.000000000000000000e+00 0.000000000000000000e+00
-3.183716298030000047e+01 -6.855055798999999617e+00 4.179999999999999716e+01 0.000000000000000000e+00 0.000000000000000000e+00 0.000000000000000000e+00
-2.659764231899999842e+01 -5.291360909099999787e+00 4.189783333329999948e+01 0.000000000000000000e+00 0.000000000000000000e+00 0.000000000000000000e+00
1.028229999999999933e+01 -2.512066499999999891e+01 4.639999999999999858e+01 0.000000000000000000e+00 0.000000000000000000e+00 0.000000000000000000e+00
2.747826783400000039e+01 3.606726410240000291e+01 2.198677777780000042e+01 0.000000000000000000e+00 0.000000000000000000e+00 0.000000000000000000e+00
1.742018790899999914e+01 -3.437703278589999911e+01 4.189999999999999858e+01 0.000000000000000000e+00 0.000000000000000000e+00 0.000000000000000000e+00
1.810845029449999899e+01 -3.496177473859999907e+01 4.189999999999999858e+01 0.000000000000000000e+00 0.000000000000000000e+00 0.000000000000000000e+00
-4.120916921639999941e+01 1.650080342899999941e+00 4.160000000000000142e+01 0.000000000000000000e+00 0.000000000000000000e+00 0.000000000000000000e+00
-2.704985505939999868e+01 -5.281056949099999898e+00 4.164533333330000175e+01 0.000000000000000000e+00 0.000000000000000000e+00 0.000000000000000000e+00
-2.706098001100000161e+01 -5.697356530999999613e+00 4.160266666670000291e+01 0.000000000000000000e+00 0.000000000000000000e+00 0.000000000000000000e+00
-4.377774695520000137e+01 5.966666560600000224e+00 4.114999999999999858e+01 0.000000000000000000e+00 0.000000000000000000e+00 0.000000000000000000e+00
-4.385486003479999795e+01 5.542119787399999886e+00 4.106000000000000227e+01 0.000000000000000000e+00 0.000000000000000000e+00 0.000000000000000000e+00
-4.389041234649999979e+01 4.967330850499999784e+00 4.103887499999999733e+01 0.000000000000000000e+00 0.000000000000000000e+00 0.000000000000000000e+00
-3.413846879580000149e+01 -4.445794741200000288e+00 4.129999999999999716e+01 0.000000000000000000e+00 0.000000000000000000e+00 0.000000000000000000e+00
-2.767439589119999965e+01 -6.506420594499999766e+00 4.110224999999999795e+01 0.000000000000000000e+00 0.000000000000000000e+00 0.000000000000000000e+00
-2.718950078099999956e+01 -6.541437253299999810e+00 4.131071428570000137e+01 0.000000000000000000e+00 0.000000000000000000e+00 0.000000000000000000e+00
1.381477912519999940e+01 -3.076992694580000176e+01 4.129999999999999716e+01 0.000000000000000000e+00 0.000000000000000000e+00 0.000000000000000000e+00
2.051247900019999904e+01 -3.680153223300000320e+01 4.129999999999999716e+01 0.000000000000000000e+00 0.000000000000000000e+00 0.000000000000000000e+00
-4.007113600640000328e+01 1.089894794499999930e+00 4.100000000000000000e+01 0.000000000000000000e+00 0.000000000000000000e+00 0.000000000000000000e+00
-3.940838037679999672e+01 4.797479094000000055e-01 4.100000000000000000e+01 0.000000000000000000e+00 0.000000000000000000e+00 0.000000000000000000e+00
-2.784949250089999850e+01 -7.061359235800000356e+00 4.100000000000000000e+01 0.000000000000000000e+00 0.000000000000000000e+00 0.000000000000000000e+00
-2.774554992539999887e+01 -7.592959992499999977e+00 4.100000000000000000e+01 0.000000000000000000e+00 0.000000000000000000e+00 0.000000000000000000e+00
1.992624363799999898e+01 -3.611517055049999669e+01 4.100000000000000000e+01 0.000000000000000000e+00 0.000000000000000000e+00 0.000000000000000000e+00
-4.441764726840000321e+01 5.523013796499999906e+00 4.050000000000000000e+01 0.000000000000000000e+00 0.000000000000000000e+00 0.000000000000000000e+00
-3.779319424669999705e+01 -8.236812771999999505e-01 4.070000000000000284e+01 0.000000000000000000e+00 0.000000000000000000e+00 0.000000000000000000e+00
-3.713542318780000073e+01 -1.454864652299999950e+00 4.070000000000000284e+01 0.000000000000000000e+00 0.000000000000000000e+00 0.000000000000000000e+00
-3.300536609819999967e+01 -5.032320209699999936e+00 4.070000000000000284e+01 0.000000000000000000e+00 0.000000000000000000e+00 0.000000000000000000e+00
-2.827191355400000106e+01 -7.642533608599999972e+00 4.057285714289999845e+01 0.000000000000000000e+00 0.000000000000000000e+00 0.000000000000000000e+00
1.512328588059999923e+01 -3.200715733770000071e+01 4.070000000000000284e+01 0.000000000000000000e+00 0.000000000000000000e+00 0.000000000000000000e+00
1.921460005970000040e+01 -3.555371645259999980e+01 4.070000000000000284e+01 0.000000000000000000e+00 0.000000000000000000e+00 0.000000000000000000e+00
-2.901547000269999899e+01 -7.657142465399999764e+00 4.059779999999999944e+01 0.000000000000000000e+00 0.000000000000000000e+00 0.000000000000000000e+00
1.453492495539999929e+01 -3.132291273299999901e+01 4.039999999999999858e+01 0.000000000000000000e+00 0.000000000000000000e+00 0.000000000000000000e+00
-4.140955877239999694e+01 2.745322244200000039e+00 4.010000000000000142e+01 0.000000000000000000e+00 0.000000000000000000e+00 0.000000000000000000e+00
