4.0285628581 -10.7924991338 108.7261620154
-0.8040853064 -10.7528477641 109.8967112933
-1.6833162533 -10.5617895355 109.2926435892
-2.0559929302 -10.5278936709 109.0857742478
-2.4806907190 -10.5239050218 108.8935591880
-2.8389016566 -10.5143550456 108.6249069538
-3.3181200840 -10.5099701752 108.3088717079
2.8403207513 -10.3749695983 111.0779365154
1.7316872919 -10.3800926975 111.4038872810
3.2754486395 -9.7934799768 109.2671553804
2.8972143671 -9.7709838839 111.5274848138
-2.1121195000 -9.8510944695 109.1162529023
-2.8923694712 -9.8374446427 108.6501337471
-3.3665231396 -9.8348149941 108.3506582992
-1.2366859686 -9.7005893451 111.4166554471
-1.4429601565 64.3050165417 25.1411953109
4.8858710738 53.5532493448 57.6996167898
-7.2392948540 61.6237119923 20.7113912845
3.2715488807 -9.1686446601 109.3653196945
2.4237273161 -9.1373463971 111.8195869038
1.7920030597 -9.1733133229 111.8640195215
0.5421313053 -9.1733520730 111.8847588144
-0.2082373214 -9.1732738705 111.8429043068
-2.0971022371 -9.2054246976 109.1674438149
-2.5732913013 -9.2103385813 108.8989256941
-2.9894862117 -9.2483874175 108.6540535521
1.1629068901 -8.5484380605 111.9408046028
-0.8728070689 -8.5893004017 111.7830340343
-2.6148655839 -8.5505820959 108.9320068035
-1.4628444419 65.9617390860 11.6511507465
1.0532745593 62.3252142061 30.1703652621
3.5905326960 45.7690034286 76.7158112060
-3.4005348412 12.9504291256 105.7380139876
-9.1985203283 62.7107635435 2.4461364241
2.3508902869 48.5482357189 75.8091148253
1.7828659997 -7.9233381450 111.8973539034
0.5331501551 -7.9234123941 111.9370925255
-0.2172841177 -7.9233192446 111.8872383003
-0.8425359176 -7.9232666874 111.8591093057
-3.0198024860 -7.8892360220 108.7014650957
2.4014868355 -7.2720379643 111.8339560432
1.7778543574 -7.2982496640 111.8600230004
0.5283012609 -7.2983609691 111.9195942558
-1.5493769339 -7.2481588773 111.6743548566
-2.1623097110 -7.2321592953 109.2670924466
-2.9979036827 -7.2924211167 108.7405452113
-7.9991241426 60.2860816418 24.6195413140
2.3967143103 -6.5481100056 111.7973065369
1.7722714638 -6.5482416386 111.8677573958
1.1475195329 -6.5483028962 111.9005429176
-0.2278143750 -6.5482373738 111.8654748496
4.7711589914 49.7086430518 67.2295721251
-1.5193954131 -6.5654056796 111.7132285855
-2.1868213120 -6.5398349068 109.2792054700
-2.7470996487 -6.5325365152 108.9694179310
-2.7738807540 -0.7851895599 108.9538250907
-0.1180081514 46.9327048648 79.2788413015
2.3879640005 -5.9814582466 111.8209980744
1.1420565727 -5.9231116549 111.8082139561
0.5174509782 -5.9232062318 111.8588321817
-0.2327412241 -5.9231681993 111.8384769152
-0.8579991783 -5.9231142408 111.8095979471
-2.7921272059 -5.9505171707 108.9722129814
-3.4226054074 -5.9851184476 108.5416028783
2.3878021117 65.4458049700 16.7300103855
2.4353972801 49.3057998807 73.9923994528
0.4865032718 54.7064221811 63.6098557986
1.7624642650 -5.2981138770 111.8194279937
-0.2375942212 -5.2981158401 111.8204786632
-1.5508399773 -5.2975297512 111.6866573716
2.5909610493 5.1210915277 110.6277570286
-2.1331016219 -5.2934608439 109.3290933119
-3.4286228086 -5.3105941701 108.5532008431
0.5267740175 45.6357486718 81.9419414067
3.6834169778 65.1879171750 18.1395524387
2.6665763664 43.4210006522 81.1834514658
1.7575169014 -4.6730400316 111.7899301475
1.1324374230 -4.6730267101 111.7828004117
0.5075343689 -4.6730535586 111.7971699169
-0.8679814338 -4.6729466206 111.7399359647
-1.5519467248 -4.6141248097 111.6975978040
-2.1376701519 -4.6684732549 109.3457605029
-2.7617931573 -4.6549286013 109.0508736217
-3.4416333673 -4.6310908921 108.5741180232
3.0385997152 66.3004762542 8.9288909208
-4.1290732971 60.6535752592 31.2160516423
-1.4887744222 66.3505124610 8.3524959754
4.4110224599 -4.0032245085 108.8944498193
2.5018413248 -4.0477946497 111.6686248605
-2.1670730713 -4.0934393554 109.3368399752
-2.7754264233 -3.9963225040 109.0243073387
-3.4404712702 -4.0077321219 108.5692171255
-2.0589488381 -73.7099327925 26.4821434010
-0.2544671608 62.9434161395 30.1104978447
-7.3439037701 61.4948000166 20.1123600652
-2.7261732056 -73.5585154388 34.8785528340
-2.1271375453 -73.8003031634 28.5820366134
-1.9931434540 -3.9398771041 109.5213216764
1.7450902129 64.4663481130 23.9312857131
2.5124767833 -3.2894550186 111.6169093504
1.7463493284 -3.2978130506 111.6905027717
1.1215673096 -3.2978674576 111.7196217562
-0.7539439678 -3.2977653698 111.6649837224
-1.4558329701 -3.2940333065 111.6051376371
-2.2111712960 -3.2308899073 109.3242091572
-3.4458430137 -3.3098236586 108.5611981640
-1.6756522894 50.1254004729 70.0498787214
-3.3360456363 -73.4742746351 29.7751275634
-6.9950812879 65.9076268679 10.6502147740
-3.0765690258 -62.1481217305 72.8022473257
2.6236650089 49.2830209339 73.3082045422
-0.9166901802 62.3566731176 30.0590556195
4.4196693175 -2.7024538154 108.8833734074
2.5101957484 -2.6643541138 111.5767891614
1.7410586896 -2.6726610450 111.6191730689
0.4606062518 63.5609678459 29.7187699567
1.1166910628 -2.6728098047 111.6987902709
0.4915274751 -2.6727773324 111.6814108968
-0.1336976559 -2.6727308473 111.6565317875
-1.4694556264 -2.6767042220 111.5970079920
-2.1528072328 -2.6683950760 109.3359977411
-0.0753667350 -76.0535408465 34.9477028456
-3.1188651647 4.3550837588 108.2664890791
4.3573408331 -2.0215322550 108.9089576107
2.4855868900 -2.0474620610 111.5227002386
0.4864474514 -2.0476732817 111.6357469547
-0.1387010924 -2.0476442347 111.6202008492
-0.7640192222 -2.0475765748 111.5839888066
-1.3767030287 -2.0312275135 111.5236918307
-1.9576552846 -2.1824248712 109.5043503630
1.8229425077 47.2864867011 78.6032496802
-2.7897349666 53.0354958118 60.1973184603
-1.4000198344 -0.7971818605 111.3927844604
0.4317038042 4.4538440521 110.9279168451
-3.4414475690 45.0195197047 76.7165152866
-1.5437722992 -9.2126353325 110.9363470414
4.4580486864 -1.4172292373 108.7320824854
2.4802716338 -1.4223044503 111.4483706417
1.7311666976 -1.4225139769 111.5605106981
0.4812580172 -1.4225443193 111.5767501498
-0.8178976868 -1.4100697542 111.5453143273
-1.4254493998 -1.4642024078 111.4911408890
-2.1050917054 -1.4633662414 109.2728864391
6.3614200681 65.9189705390 12.6610041252
3.5176117205 -12.8025451078 108.8657064201
-1.6838951520 -1.4239368477 109.7240722824
4.5903495260 -0.7594445147 108.6279674728
4.2528011086 -0.7280159233 108.8940477997
3.7105441559 -0.7583844598 109.2010932410
3.0545411434 -0.7941298769 111.3651689088
2.4042123438 -0.8329573834 111.4249862318
1.7258623825 -0.7973588573 111.4875143874
0.4761779935 -0.7974402685 111.5310862077
-0.7742832096 -0.7973448073 111.4799947028
-1.5590218967 -0.7867769132 109.7232223404
2.7236682768 -0.6720621660 111.3307281245
-3.0478752495 -0.6672008594 108.7289240817
4.5709132863 -0.0466891667 108.5896283545
4.2222633749 -0.0661810095 108.8663762634
3.7294739794 -0.0449962390 109.1296853473
2.6184501006 0.0029883672 111.3145091006
1.7202260120 -0.0889351479 111.4505058437
1.7182201164 0.0363110501 111.3207439801
-1.2799782447 -0.1721045448 111.3614293440
-1.5804588394 -0.0211876855 111.1529504143
-2.2310216977 -0.0517242398 109.1825391136
-5.3645827603 65.5399728312 14.8208737944
-2.7511452875 -73.6559084338 30.3785476207
-5.2194419962 63.9752441304 4.4245318809
2.4063152809 66.4293696515 6.3813743813
-4.0409449170 62.3564795543 30.1626520249
3.7134884677 0.5903229075 109.1083453943
2.5253596562 0.6406869147 111.2184704274
1.8806215868 0.6196343543 111.3354680509
1.5484999768 0.5361629266 111.4080404586
1.0897377341 0.5778535753 111.3958734158
-0.1180449305 0.5361224700 111.4296930609
-1.5423614739 0.5705735850 111.1306359316
-2.1547048393 0.6039076237 109.1799442042
-2.9746964241 0.6246031097 108.6761566864
-3.4587764052 0.5900506924 108.4070258084
3.7031447677 45.1856019847 77.1142179192
3.7180882520 1.1748112930 109.0199383309
1.7400165912 1.2343629074 111.2676030989
-0.1657241702 1.2030350264 111.3087842943
3.7695107118 43.6469942536 79.3086682271
-0.8226833114 1.2343888459 111.2537206400
-1.4508256525 1.1830617769 111.1491081763
-2.1061747484 1.2064747403 109.1405406489
1.0833151155 1.3280527973 111.3012780901
6.5876754933 61.8565784927 30.1016797418
0.4579755216 1.4529148209 111.3771289809
1.1243021994 49.7297528423 74.0090820884
3.7387050021 1.8609845104 108.9489283976
1.2040660872 1.8281791176 111.2416904145
-0.1707563269 1.8281281783 111.2689534795
-1.5087235792 1.8194680001 111.0045276972
-2.0496895465 1.8069481158 109.1402986245
3.7439134027 51.9058952385 62.8620900293
0.3772307476 -73.2863583730 20.7436030201
5.0670255039 64.0746784760 27.2130466188
-1.5499301649 14.8935852418 106.5294844504
3.6239522092 2.4854409201 108.9253722467
3.1818255547 2.4779093977 109.2894769755
2.4485647415 2.4878031422 111.0552061019
1.1987480958 2.4533373511 111.1670274960
0.4489429329 2.4532872588 111.1938372312
-1.4764013780 2.4339982443 111.0361320630
-2.8805123578 2.4554022183 108.5821943282
8.3288299362 59.8657343811 27.8357269343
-9.2061053219 61.3400198360 13.9751393857
4.4335596225 3.2126500795 108.3269635488
3.8745668956 3.2543352795 108.6682730799
3.5581730643 3.1523011365 108.8652130830
2.4861649048 3.1944364727 110.9694594073
0.4424163744 3.2035101469 111.0865756860
-0.1826829347 3.2035279836 111.0770293687
-2.8413000832 3.1846950900 108.5163290292
-3.3376188279 3.1575184155 108.2351172609
2.9881104138 47.2097327315 73.9752010275
1.1490439677 48.0481255161 77.1915977422
8.2715406504 61.0482680850 21.3192169977
3.7204675228 43.3556928417 79.8160244744
-2.3288307066 3.4579058287 108.7379870899
-2.1417606748 65.7708699096 13.4546276521
4.3281641206 3.7987303214 108.3528757021
3.7865109307 3.8707722762 108.6299457128
2.4359123255 3.8289537131 110.8592007849
-0.1882259013 3.8287374416 110.9749507514
-4.6309155994 65.6957711446 13.4731082551
-1.4395870052 3.8290378009 110.8141964508
-2.3323989674 3.8330867138 108.6471909625
-2.7565151542 3.8664713916 108.4581543236
-2.1014614576 5.7067332317 108.4670461352
-0.1656670824 15.4574844964 109.1559616526
4.6575040979 4.4593865422 107.9615388053
3.4159316558 4.2078791724 108.7642833821
3.0908740504 4.4353223180 109.1554471651
-1.5917169605 46.6601393976 78.6570241865
1.8060776355 4.4539971290 110.8459890430
1.1813694688 4.4539259067 110.8841077099
-0.8189215145 4.4539768807 110.8568260462
-1.5592142873 4.4734741046 110.4287698132
-1.8804041458 4.4743844668 108.8648491005
-2.2418063451 4.4706142940 108.5963066037
-3.4647226005 4.4670579944 107.9038243519
2.5554016234 53.1537634424 65.4955537790
-1.6574953233 46.5309883528 75.9076649677
2.9288332400 4.7040957023 110.7972418530
-4.0144536780 51.0295285246 64.1958128131
4.5277038601 5.0844259335 107.9504809774
4.2331882585 5.0720508310 108.2048566262
3.6683501427 5.0541084163 108.4727275696
2.2589297029 5.0375995479 110.7113290479
1.7585748201 5.1208695153 110.7465795175
-0.7743512305 5.0542030395 110.7454081129
-1.5112588791 5.1249358027 110.4278369877
-1.8448780292 5.0271293665 108.8576766668
-2.8064230633 5.0802395808 108.2484391996
2.6937346977 44.0744559810 81.7754957436
5.7387222657 61.5568389161 29.9574875147
-1.0763887916 5.2044120506 110.6359498498
3.3248451353 5.6866341576 108.5351051812
1.7952932648 5.7043473824 110.6785805110
0.4846769734 5.5167242395 110.7414799831
-0.2019056588 5.4541153737 110.7987431975
-0.7024427151 5.4542338360 110.7353414455
-0.8663191189 5.7758398146 110.6455474763
-2.6624338611 5.6820577628 108.1986106161
5.6594179847 65.2756370890 18.0602152987
1.7956809880 5.7042591019 110.7258288432
1.1681795887 5.9544028224 110.6529185410
4.4079387536 6.4349019135 107.7887838701
3.8930200103 6.4593103114 108.0344171414
3.6956903358 6.4155549797 108.2183912209
3.2624631207 6.4483390547 108.4995785084
0.4140680627 6.4544911499 110.6136648317
-0.8365107566 6.4546133912 110.5482404994
-2.0696234308 6.4194562135 108.3551806712
-2.7963467757 6.4266326353 107.9679384645
-3.2826255744 6.3999403555 107.6974329389
-7.7674825515 60.7578307102 22.5168915218
4.3484409086 7.0752949207 107.7031785216
3.7915795720 7.1365581679 107.9675470524
-0.8420147458 7.0798139744 110.4509117143
-1.4832543394 7.0812469114 110.3396899930
-2.0178531669 7.0299450687 108.2817386308
-2.2790386216 7.1260347674 108.0141809433
-2.7228730982 7.0690284069 107.8866877804
5.5533768828 66.3753620776 8.9171136721
-0.1750466146 64.8368722810 21.2422527738
4.5921244953 7.7568097051 107.3492718967
3.7614995944 7.7292128146 107.8471483590
3.3204276608 7.7718934396 108.0109783164
2.4280620015 7.6908974322 110.2799159731
-0.7886027895 52.4522973882 68.1469052957
1.1528570415 7.7049442771 110.3911975616
-0.0973114887 7.7049730998 110.3757714644
-0.8473409430 7.7049740763 110.3752488311
-1.8880487585 7.6890998627 108.1980522059
-2.7961385658 7.7030313846 107.6872558090
-3.1201611079 7.5853633233 107.4888825409
-3.4572866979 7.7837389174 107.2549565662
-1.1203870455 10.4555880057 110.0907784399
4.1623341956 8.3056336058 107.5164883954
3.7449776302 8.3672138287 107.6992516680
0.5227269434 8.3300549543 110.3419870904
-0.8528709171 8.3301805761 110.2747534912
-2.6914298294 8.3342337745 107.5955589738
-3.5351800652 -73.1453668301 23.8482533953
-1.1190362937 -1.3822412828 109.7581049047
-1.5480271171 8.3986168120 109.7551032788
-2.9536644117 8.5559835136 107.3904416825
4.8049490444 8.8624138372 106.9233984443
4.3710499944 8.9672114591 107.1771255751
3.7075892362 8.9284923639 107.5583088235
2.8486903426 8.9431322015 110.1651056156
2.3845151512 8.9400125699 110.1421544740
1.7666105675 8.9554045215 110.1649210950
1.1417232412 8.9553740920 110.1812071993
0.5169808837 8.9553106545 110.2151593466
-2.1184259892 8.9447462054 107.7164364862
-2.8032139421 9.0030128177 107.3378522540
2.4189191912 64.6437449844 22.7781644755
5.0069636576 63.7796985272 29.0830211257
4.3423715908 9.6096802016 107.0121533363
3.7640546793 9.7015036437 107.2905778438
3.1211583421 9.6353133090 107.7667536832
1.1042277571 9.7055327436 110.1083254411
-0.1152474251 9.7056885488 110.0249374090
-0.8658403125 9.7557336038 110.0016256691
-1.3630131812 9.4555913320 110.0729586271
-2.0294985090 9.6182053611 107.5682824863
-3.2197386933 9.6083973250 106.9585840161
-1.4361569788 14.8796078672 109.0396844350
7.7998756915 63.2171226770 20.5865538197
3.5031937370 40.5895475760 84.1356875269
-0.8189853120 17.2331141208 107.8206201688
1.8005583456 9.7890921934 109.9886430225
-1.5150165152 9.6862845833 109.7368449290
0.5079947944 9.9556725050 110.0375340635
-6.0327527838 59.8685371992 31.7602815150
3.7267296339 10.3551337101 107.1481711146
1.7545752331 10.3308290827 109.9597474520
0.5048511828 10.3307567020 109.9984861095
-0.1703717709 10.3557602046 109.9970124861
-0.8200825456 10.3057735945 109.9890441580
-1.5046345899 10.2603372529 109.7253091055
-2.1560413189 10.3412320920 107.2781216310
1.0844057137 15.4574774713 109.1597214950
4.3635920833 10.9858293251 106.5487557575
3.9131146075 11.1251932032 106.7779732468
-7.5241053049 62.3107774788 12.9116091581
-0.8426356256 64.1124529938 26.5576411789
3.7651358904 11.6279194703 106.6930038140
3.1475638253 11.6493081419 107.0970754566
1.7434482709 11.5812573406 109.7505903937
5.6606537287 63.9618433032 4.2491444321
0.4941304068 11.5810924755 109.8388273039
-0.1309531744 11.5811067312 109.8311975857
-0.8815802832 11.5812437874 109.7578441900
-2.0739505517 14.8612256666 105.7595424892
-2.0488938627 11.5755654226 106.9630380325
-2.3976410259 11.6429341785 106.7195948657
-3.5591559348 11.6275821738 106.0887482990
3.0674508359 66.3673753736 8.3499313592
0.5042051426 46.0767363486 81.1463259527
-7.2223693783 62.8806779580 25.2087087425
4.5880253748 11.7129957577 106.1461491272
3.0925562337 11.7119526686 106.7044174505
6.9668112447 63.8077160829 29.1267762216
7.7856577514 65.7507570031 7.7043872703
3.7118640958 12.2409688991 106.5163342201
3.2007572627 12.2385197992 106.6233276444
1.7381843009 12.2064032740 109.6825105762
1.1133749295 12.2063550949 109.7082963450
0.4885258969 12.2063159463 109.7292489512
-0.8866151751 12.2063375621 109.7176800537
-1.4539055248 12.1810984875 109.6055566632
-2.1933484812 12.2396059051 106.6372678847
-2.7444370769 12.2535424328 106.3584662779
-3.4262237186 12.2726665843 105.9540023330
4.3604156752 53.6777239198 57.7530640885
7.0196091008 63.6252563278 3.1916996523
-0.8246796048 54.0531758142 58.4192150142
4.3486296282 12.9479937013 105.8996311562
3.6893284647 12.8677776739 106.3006959357
3.2232339498 12.9424681602 106.5261726726
2.8517301907 12.8701743627 109.5018324314
2.3875771427 12.9255090808 109.5036088243
2.3977901528 52.5269535209 67.4385303139
1.7847722613 12.9923847411 109.5521158147
1.1067635779 12.9565972895 109.5907018312
-1.3870423182 13.0053913706 109.4796719466
-2.6023503533 12.7238591129 106.2921099966
-2.8145995780 12.9695489840 106.0700622514
-4.0486230204 63.1069646371 29.9150620999
3.8272400043 13.0881299853 106.0963640140
-2.4236241107 13.2130684623 106.1312964614
3.7693002808 13.5703581282 105.9804881866
2.6109347210 47.3814919078 77.2455314102
3.1297386806 13.5416148630 106.4119833848
2.5685783368 13.5438501488 109.3508542104
1.9140527338 13.5193425959 109.4684344657
1.1014305426 13.5817589484 109.5142056441
0.5177135372 13.6234383421 109.5080623912
-0.1487530316 13.5817911964 109.4969462782
-0.7734078607 13.5817078297 109.5415647157
-2.0043630149 13.4916225386 106.3291146692
-3.2510889259 13.5845111092 105.6209127817
2.8497431941 13.7069459863 109.4161066278
1.7245102797 13.7069904237 109.3923234899
7.7776458262 65.6996645659 10.2541442788
9.0392788925 62.5639598736 7.0767957150
-1.3373392743 -75.8987477124 37.5909305286
1.2809804682 -56.9459117812 85.7133728652
4.1633660862 14.0563164323 105.6012315295
3.6988023269 14.2192798098 105.7932891435
3.2595996207 14.2662264335 105.9681150085
2.4582029429 14.1644824688 109.2728247981
1.5978331391 13.9569502890 109.4178137042
-7.2419223974 63.4453580757 20.1074722236
1.1472840663 14.0569034504 109.4444860164
-1.4076403738 14.1640412084 109.1020305265
-2.1856637106 14.2425474959 105.9387828476
-3.4297164069 14.2421818993 105.2473859235
1.6661861304 -60.7926225772 80.6237718694
3.6872678020 64.7444084746 21.9999871840
0.3569824056 -76.0715411880 29.7998579578
-0.2183297995 14.3945336222 109.3802305125
0.4687821056 14.4570219781 109.3874650214
-2.9081681756 14.4974187033 105.4451170274
-1.6538270174 47.8629937491 73.8797133634
4.8293373313 14.7669954328 104.8926936321
4.3625101733 14.8535228997 105.1365657464
1.8395275004 14.8323696415 109.2074080174
1.0900902301 14.8322357839 109.2790495035
0.4652815425 14.8321874491 109.3049186028
-0.1597979359 14.8322007706 109.2977888669
-0.7851687196 14.8322804193 109.2551603842
5.0722633392 43.0211946736 79.3216995433
-2.8173917174 14.9017573085 105.3408918174
4.4902913746 15.6129915256 104.7272086649
-1.8709417773 10.0387148652 107.6205771166
-1.6390241106 -74.1868513154 25.8853454988
7.6293679154 63.5413291622 5.6389529754
3.8034193888 15.0048649879 105.4085234883
-0.2118256776 -73.3445696674 41.4911331892
-2.4423110285 14.9643759491 105.4595899543
4.3755290943 64.0001101478 27.8163923753
2.8487780439 15.4977342803 108.9030332467
1.8488711464 15.4427541971 109.0785017055
0.4595088139 15.4574492215 109.1748409737
-2.0369118312 15.4027209400 105.6023666724
-2.1367518832 15.5316560233 105.4207887085
-2.7188955710 15.5072994601 105.1323471175
-1.5627090936 -73.1754285685 41.5338186712
2.6624918885 50.0670036381 71.3801841024
4.3729991201 40.8587448355 83.1125135289
0.5240001779 66.2792820728 8.9439282596
4.4124488465 16.1681857762 104.5413550202
3.9470940895 16.2855682126 104.7395300965
3.6864808066 16.1478275916 104.9588938454
3.1305770383 16.2329984063 105.1844907241
2.8051364667 16.0583899558 108.7954256443
1.0771378995 16.2078691356 108.9621298050
-0.1726586352 16.2078132588 108.9920354410
-1.3661399429 16.2224161436 108.8614625156
-2.8739608324 16.2857626628 104.6839626034
-3.4203355479 16.1883428435 104.4178628731
-0.1739426209 45.6394029696 81.9455437995
2.4534312401 54.1091506672 57.8523980721
7.8455783656 60.8207949924 27.7693803400
-6.8909962221 59.3558344076 31.9642478270
4.7745561659 66.5501808329 7.5711764411
-1.7339036702 51.2409829762 66.2449117350
2.6791952684 44.7121195818 79.7713177021
3.7775987102 16.8423693199 104.5891336442
2.4672965059 16.9115973647 108.5024947018
1.8246878391 16.9440418589 108.6312942113
-0.8266456879 -76.0534049612 26.4936683872
0.4059462917 16.7772210048 108.8377131022
-0.8550794793 16.7524471681 108.8112317991
8.9937252563 60.8079282287 20.5648102352
3.2117823921 16.9895385198 104.7579233638
0.4329878187 17.0282729372 108.6022772683
3.2635750005 66.5521749348 7.0767074272
3.6880261917 17.3542532788 104.3587946272
3.0881846502 17.5026136935 104.5577928709
-0.2491995294 66.5604212760 6.5122364366
1.0849986417 17.2824748117 108.4153224242
-0.8710542735 17.2514004678 108.3438310782
-1.4356317704 17.3545328856 104.9093616193
-2.1082490918 17.4941670750 104.5169560652
-2.8295288215 17.5609206560 104.0931098015
-3.4048855678 17.4428017512 103.8386265575
5.0460964149 49.4581515010 67.4647191564
1.7248553183 64.5430464489 4.9764112632
2.7842735969 17.4655370244 104.8782734868
-7.4973187436 62.5354923084 10.8108804552
-0.1821403030 17.5166295630 105.0792909504
2.9093471337 18.0547780931 104.3673677793
2.3914287245 18.1090886194 104.5044874427
1.7973821545 18.1119484250 104.6225434925
1.1908422326 18.0601300538 104.7190564693
-0.1817985105 18.1436556191 104.6825366345
-2.7531048356 18.1162769785 103.9055317807
1.1609113235 53.3713958014 66.2224804842
3.6496061711 18.6354976194 103.7059351790
4.2546448069 49.0330913226 69.2280039592
3.0113798134 18.7131213116 103.9375983413
1.7402330553 18.6405453429 104.3735259048
-1.3179324250 18.5374961511 104.3225015241
-1.4951896984 18.8142119316 104.0533156841
-0.8602870753 54.3804024042 64.2683356142
-0.2325614281 18.9044262436 104.1578108709
-0.8621985521 18.9168388375 104.1265771032
1.1662941487 19.0146184628 104.1682441706
-2.7485169962 52.3326525019 62.1420510797
-0.0992611684 64.5742316101 22.9066765850
-1.4518585741 -48.7765648657 94.1770872357
5.1733397810 65.5530021683 15.4939250427
-1.5245629315 54.1118619201 57.9730203348
0.4608924363 41.4109230861 83.7365888689
3.7604244431 52.1106937662 62.3300790195
-1.4042007443 51.3359845699 70.1179794047
1.7459992925 -62.1587344523 78.8271723803
-1.5463309421 1.7987272422 110.3637988878
-1.5586468840 -0.0082653492 110.3731718663
-3.5374912924 50.8405296698 65.0322908771
-0.2096378995 41.3813821782 83.7254200399
8.9087466358 61.8909693796 13.5826668999
-2.8085534693 60.9605629100 31.1586077187
-1.4881312600 55.1776206582 61.6552892766
-3.7677949849 -73.2658634907 34.2725401527
-0.1058709383 51.8803436838 69.4288164723
-8.2875295364 59.3358620069 28.6736645016
4.4490351440 44.9779798476 76.6216990744
1.7165227026 45.2179132203 83.0915854689
1.1282570691 52.7678413653 67.4526932841
-0.7444111503 64.3795435272 24.5382180164
7.8309682221 63.1907025097 25.9864527772
-1.4231780227 63.1068833705 29.9585565121
5.5986055309 64.5554697666 22.7180599174
1.7867836153 49.5485845677 74.0053526675
-5.6572126705 61.1065841333 30.0866311823
2.9960043378 10.3149953794 107.7194837195
-4.1237756413 65.2052956371 17.5324565415
2.7615736750 49.3090040573 73.0376617642
-1.6265962954 -74.9294645802 23.9370149190
-7.1954297043 63.3999408992 3.7780560123
0.4341434133 65.8505959815 12.8638628495
1.8026190668 45.3795270985 82.4851693369
6.3707678879 62.2850234664 30.1762333059
0.4188009923 66.5483993569 6.9870981908
-1.6900779076 48.7932286715 71.4587053830
-2.6468904909 -73.3980210261 36.9786477802
1.1351988797 45.7588143051 82.1690987575
0.4455275647 45.8364775038 81.6882586586
-0.8126134024 -76.0514996481 24.6936991617
1.0775702763 62.9819426139 29.9248440964
-1.4504433156 -56.0278680519 85.6973045427
-1.7355736353 52.5575615118 62.9948396863
1.1341019283 66.0056851625 11.6380084708
-0.8205128838 48.4759328125 76.4436496829
-7.3225086035 64.0045348964 7.6564390224
2.6518586754 50.0829392218 70.7330965219
-2.0310161237 45.7681746564 77.1593756606
-1.7832297027 14.3450847462 106.1286690110
7.4892477719 66.0970578056 10.2580659659
-0.1645742942 40.9629922909 84.3804801697
1.1056829812 17.1647697829 106.5530194909
-6.6495195214 65.6960172014 12.8778724650
-7.2002948389 63.5013078511 28.5073238200
1.7599193552 45.7588827249 82.1324800376
-2.2453228728 48.8766957118 70.2764797840
0.2861395988 -64.7555995759 69.5252351864
4.8671857708 6.3957798459 107.5163076608
-1.6003549479 -5.3963011295 109.8393171043
1.7911671563 42.1328731090 82.6146898961
2.1931345949 53.5395024291 65.8689145841
7.8028620558 62.7336875644 13.5327918964
3.6787965894 46.8632824851 73.8657503624
-2.7474940973 40.7949943011 83.7065038299
4.5007648575 62.2733420122 30.0565265635
3.6689591397 64.1406194654 26.6204792733
3.0082421424 64.4430635595 4.4438346618
4.2658553410 64.2418479676 5.0063012742
-5.4711962718 63.8058320348 28.4498772371
-2.3577012093 -73.1617930177 40.2796780995
2.7699696837 45.6614266548 78.7099823145
3.7375274785 49.0761612258 69.4330615210
3.7276209163 66.3701920954 8.3255217244
7.8258940345 63.1732544111 26.5863681624
2.5661422064 51.3160699715 69.3995776560
-7.2515692532 64.2224329487 16.7557645898
-1.5648443527 44.1509634077 82.3747192513
-2.1089762101 -73.6925308659 34.8820209311
4.3143846675 65.8189058309 12.9114917271
4.9375423357 65.7288966110 14.1004818878
1.0923389221 47.8329551314 77.8125039634
-2.1312709832 53.6190253611 59.0492167433
-2.5014134388 2.3555706129 108.8735753577
3.3710047431 5.2019759582 108.7031021919
-2.6909587550 -73.5937940356 27.0786511810
-3.3997268306 51.0361545714 64.7793614288
-5.8576473552 60.1531931488 30.9726298225
-1.8367664620 50.3705850860 67.5003670163
2.4986371813 50.1024770564 72.0706635384
-0.1664630458 53.1172361887 66.8482863677
-6.5980694918 64.6438225846 21.7249710268
-5.9094271842 61.3566653979 30.0471476927
9.6172983275 60.2487659854 22.0285496686
5.6300788642 60.4326257868 31.0972529946
-2.6644585093 46.0196710775 76.3624909145
-6.0695878903 64.7968205866 20.6728370042
1.1649577343 54.6836658782 63.6252955008
8.0731798181 63.3545075212 2.5858652704
-3.3218663424 -73.2715643385 36.3248861755
0.4344063194 -76.0203735272 23.2000063261
-7.2171226300 62.8529204607 24.0086965273
-1.4669425081 -57.5004513473 83.7504430778
2.6824234796 46.0448720327 76.4481721125
-1.3752206649 66.5445959390 6.5203895616
3.6318686879 66.5856577336 6.6008778542
9.7181166837 60.5845644651 18.9104838917
6.9860725922 66.5707222545 7.0632038841
-4.0968287642 63.7088297713 29.1202016639
-1.4153768327 62.3563702621 30.2211459078
2.6563636715 50.6875791192 68.7376244958
1.0182204759 -76.0519296648 36.2533448099
-6.6238812759 59.6031057461 31.7787694900
-7.2253514728 62.2586992417 24.0100306356
2.6975977488 50.8818479279 66.2888378948
-1.4279553073 -73.0308257549 42.6842142603
-2.8153411858 62.3563514498 30.2312143803
2.6432579776 47.3749205075 76.5030505498
-1.5655622682 15.4885724042 108.3784807719
0.5003319732 17.9038470620 104.9054861361
0.5176588438 47.1594578214 79.0136476451
2.4759565587 60.8869460916 32.3186739751
-0.1845820943 66.3496317625 8.3481077841
-2.6995230670 -73.5040285487 35.6285844655
4.7178128100 50.2893761685 65.8843615368
-3.9299444306 46.5371192311 73.7022209271
4.6843720254 40.5064868208 83.3305763422
9.5610495585 62.7203718607 3.1258631843
3.5883166733 64.3064301759 4.9837763657
-3.7009372266 47.0262850725 72.8386757702
-1.4022356011 -49.5473477796 92.8797837407
-1.4484626481 -61.7152881307 75.3597056963
8.9080494712 60.3176272343 23.8617133749
-1.6092089259 -2.6328722369 110.3486178546
-0.8340120151 44.7743802098 83.0474000011
-2.5176166774 6.2996092263 108.2505048812
-0.8126101985 63.7112345586 29.1578871323
-3.2803628849 40.6887947838 83.5218064133
-0.1915508972 46.5725274654 80.4018876738
-1.4011175289 -52.6697294242 89.6259607892
1.7510688763 52.2697898728 68.5219745319
-2.8174831360 65.6695913499 14.1449230856
2.6061017800 52.5147029035 63.5981029672
-1.6713045861 -7.2062244374 109.7914853728
-7.7786136622 59.4672546820 29.6699598083
3.0984239955 65.4747448860 16.1265678971
-1.4289977268 -48.0749313153 92.8552791290
-3.7405615500 -72.5378785692 41.6212182256
0.5165594626 -75.5998922194 21.9494707983
2.9407056902 46.0142803713 76.5110153853
-7.3494890116 60.9444555961 23.2636772312
-7.2190342511 62.1758836254 19.3600251371
-2.1322752694 64.6272488160 22.6044967565
-3.0761277034 41.7840434211 82.0875063286
-1.4701459349 -56.9139337018 83.7491267950
-3.4271359563 50.7058724463 65.4346883582
7.7993840362 63.2339141407 19.3866314961
-1.7511478486 50.1252215157 68.3340683797
-6.6431884581 65.6314602631 13.4776530806
4.5984604740 41.0562995258 82.6652843710
-7.2102698182 61.7111609082 29.7112787789
-1.4116086089 52.6608962372 67.4591133065
-2.9452020185 47.0249849554 73.5345071927
1.7414963517 52.4347803354 68.1555609912
3.6166253120 50.3898700558 66.5611304938
-6.6729565526 62.9820033581 29.8923333987
-6.8881772263 59.3240591666 32.5135087136
-1.8682800481 -6.6006560315 109.5676736495
-2.2246444131 50.1981631619 67.4993916096
4.3206951025 64.2604725427 3.7937292641
-5.4738441919 61.7938683907 30.2131252705
2.6226026700 46.0317368664 77.9028878880
1.0739247948 65.6444342023 14.9373401675
2.6484514465 51.2983794562 66.8421426312
-1.5854533570 44.6770045046 81.7377695948
-7.1031538676 63.3459655556 29.5570308116
-1.6486779806 48.0188038295 74.7043682360
8.2867576177 63.0894853906 5.0582652640
-1.5379849862 14.1586648036 107.7764108059
5.0580045992 62.9837809298 29.9829872939
-2.6636426129 65.9522483163 11.6577397497
4.9941452967 64.4002561247 24.4938869993
-0.7973171341 47.7416437224 77.7680774831
-1.6547294611 7.7417156579 108.5029667888
5.0308154702 64.8283768429 21.2151536198
-0.7296340664 -76.0415879877 38.1943817817
-1.7071816697 49.9673678387 69.3504113704
1.7879880952 61.2563375689 30.5822739745
3.8833284720 40.4904118940 83.9413867706
-2.9224199706 40.5148569801 83.9268734078
-2.5341988758 17.8172258986 104.2615151025
-1.3562434674 49.1864363049 74.6163516591
1.6444137010 54.2242634158 64.6183755023
4.8557050518 40.7457755992 82.8999389916
3.0983344285 40.9501166480 83.7776328120
-1.4599272422 40.7949353991 84.3172273659
-3.4402715847 40.9097759341 83.0793130628
1.1177192936 66.5534934734 6.9845744508
-0.0727803526 44.8014650944 83.0611473582
3.8553822461 41.0241411264 83.2262646116
-1.4265969429 41.0642851541 83.9168612198
7.5598640032 65.5678435585 14.1541385695
4.3592886054 41.3564293506 82.4068440840
3.6168942047 41.3066527412 82.9828888184
3.0402480551 41.4107554677 83.1308028995
2.9294361316 41.2563341613 83.4243104035
2.3608503294 41.2525469811 83.6586874768
1.1944671838 41.3781596024 83.7353019414
-0.8564151036 41.3766989328 83.6592716069
-1.9705478075 41.2384499087 83.4971044629
-2.1167836090 41.4522406371 83.1218418685
-2.7490010453 41.3007012952 82.9599084185
-2.7155216312 47.2622682972 73.2431883048
8.3981402908 61.9571286408 14.4250461232
-2.6512045459 43.9175282012 79.1176019094
2.5428186339 54.4480160588 62.2941610843
4.4828512479 41.6626432949 81.8799101038
-1.4428167445 41.6571108409 83.1009563680
5.0779719262 41.7439770834 81.2576889359
3.1564840001 41.7245764120 82.6000070254
-0.2250987386 41.7588376563 83.1878181437
-0.7969802950 41.7327447768 83.1504428575
-2.1176655398 41.7592499753 82.6431893300
4.4496532472 44.2435464719 77.8321075820
-8.1264185486 59.2712540821 29.7727438679
5.0424377147 42.2340040837 80.5405774008
4.4178038649 42.2042321870 81.1130447747
4.2583222333 41.9587146937 81.6003715678
-0.1838527633 64.6382690907 22.5915162347
3.7031928959 42.1044360885 81.7563553037
3.0299604897 42.0116988582 82.2495605568
1.1684689881 42.0075547545 82.7830704090
-2.7671349596 42.1336620438 81.7719246298
-3.3160158940 42.0199334847 81.5627885225
-3.4665379142 42.2473226680 81.1084729623
-4.0614093877 66.0158527307 10.9151709831
-3.4099196661 47.3094975944 72.6178276355
6.2054208774 66.2918823566 9.5141456445
-5.4703419024 63.8566624915 4.4912160185
3.8750515423 42.3330368569 81.3002709661
0.4150322352 42.2579104902 82.5966881148
-0.2101600726 42.2579495018 82.5758088644
-2.1643088147 42.2852666283 81.9012157186
-4.0324593563 65.9041861785 12.1989563924
-4.6234891497 65.6331169957 14.1170949547
-7.9177758665 59.5937951395 28.5205968056
4.3578691347 42.6612190019 80.4719418293
3.6680275896 42.5802938276 81.0401174347
3.0343796628 42.8136861016 81.1106966712
2.8993862625 42.5646528657 81.6312299855
1.7617420814 42.7079120531 82.6030694637
1.1304629314 42.7266322890 82.6193001368
-2.0949685441 42.8500311946 81.1307787523
3.0617017129 48.6701460391 70.7218483691
-3.1386936782 42.5523551871 80.9072385595
5.7314063960 60.4285288529 30.5356925398
2.2599325604 44.7007410968 82.9946281369
-1.5417802243 14.8475613881 107.7650780809
3.7355325393 42.9148105564 80.4964050857
-3.4358790321 50.2748564449 66.3732316644
1.9107090297 43.0076431577 82.7517959448
1.4107997156 43.0076186895 82.7648914925
-0.5890837139 43.0075768678 82.7872747423
-2.2958836505 43.0371828468 80.6712466495
4.9813283301 43.2488048642 79.0743918738
4.3721997059 43.4857245139 79.1800470970
2.6387503688 43.3687305910 82.4255984791
2.3584337093 43.5061549351 82.9127430697
1.7835937160 43.5072817435 82.9532470596
1.1587036544 43.5072519367 82.9691998423
0.4086769353 43.5072522904 82.9690105306
-0.2163102280 43.5072445927 82.9731303976
-0.8412454214 43.5072250620 82.9835833744
-1.5602288396 43.5117001024 82.3916731462
-2.7640569254 43.3995472638 79.8306970484
-3.2784178895 43.2286652406 79.7438010311
-3.4097511457 43.5234664162 79.2192093114
3.2104497802 43.5227481414 79.8530348922
-2.3721572343 43.7638308522 79.4521298413
4.3872130108 43.9597310833 78.3841126900
3.0955573045 43.9970140938 79.2212058002
1.7805965932 44.1319115394 83.1614074909
-0.2189175761 44.1317856411 83.2287891523
-1.4691177019 44.1479621517 82.9308849456
6.9679321560 60.9818581351 29.9379786219
4.9600270606 44.1145514290 78.3852734285
3.1298820457 44.2569294743 78.7412261121
-2.2889910958 44.2612249530 78.7224340953
4.7878385593 48.4339845534 69.9263154473
-6.6374592911 59.5022857282 32.3129650985
4.9422775107 44.6001197326 77.8836674334
4.4109323285 44.7014419827 77.1578238813
3.7251491071 44.6082862268 77.8322088278
3.0985967979 44.8252968962 77.8755904835
1.1428044460 44.6300493085 83.1255610073
0.5078651262 44.7992858048 83.0898143258
-1.4042379769 44.6757570068 82.8984227175
-2.0470942581 44.5159657149 78.4697988178
-2.6380737316 44.5161898213 78.2016233237
-2.7562661283 44.6938102807 77.7830621303
-3.3253414345 44.5059113496 77.6853048749
5.0650298814 44.7083406441 77.1337844391
1.6587210895 44.7551465516 84.1160655737
1.1590497432 44.7550679007 84.1581600977
-2.1344791852 44.7649541536 78.8669709390
0.4581259212 65.0968399024 19.4160662569
-6.0133857648 63.9688209429 27.1110163620
2.5103033107 44.8078440456 82.5160748035
1.7779244351 45.0060462972 83.6385255399
0.6532331023 45.0059674221 83.6807400721
-2.3985346424 45.0177314774 77.3845383849
-2.7291699546 45.0154332188 77.1500222644
5.0292034450 45.3319846760 76.4512270715
4.2398354137 45.2349323057 76.4286405600
3.7230981061 45.3402697847 76.5432901615
3.1297893749 45.5306392662 76.5765846537
3.7338312289 62.4065057143 30.1494529581
2.9972227054 45.3416084007 77.0760511251
2.4516914423 45.4257832186 81.7170580010
2.3485605207 45.2944111327 82.2802681732
2.1451499761 45.2573982783 82.9189460449
-0.1307318482 45.4009975821 82.4750098389
-0.1875964392 45.2116014468 83.1353941156
-0.8537971495 45.2571356301 83.0595171426
-2.1062928734 45.3339471608 77.0629456062
-2.7853238129 45.3904872229 76.5505443162
-3.4101609265 45.4660548337 75.9652071868
7.0070460986 65.1509590938 18.8033332316
5.0331224754 45.3519067047 75.8138942664
2.6324590866 45.4638398040 81.1006336231
-2.1558804676 45.5684637794 76.6162006499
-2.7895163585 45.6297550020 76.1147060961
-3.6337909161 45.6072668395 75.5237048164
-3.3458000176 65.9147897019 12.2222394940
1.0626187551 65.0973938333 19.4561582687
8.2472079492 63.0122731688 5.7328788827
7.7865658320 65.0544524747 14.8996348199
-0.1141125634 -73.3316766594 20.8411810418
3.0852697911 45.8376056000 76.9684017361
2.3404237585 45.9565734925 81.1416600441
2.1779620029 45.8459278478 81.7083776476
0.6352403310 45.7588010471 82.1761945170
-0.3645782970 45.7587521107 82.2023856124
-0.7628581136 45.8628007957 81.6101517652
-1.1149961584 45.7588415235 82.1545313166
-2.7855426441 46.0454667349 75.3767025960
2.4770692681 53.3846411833 60.3291343319
4.3306285197 46.0208431890 75.7351689190
3.7536531950 46.0382605545 75.2980616128
-0.8715023567 46.1229132240 81.0784142888
-0.1093856048 -76.0535380359 35.6475424815
1.8080356285 46.0797939928 81.1161116424
-0.0264237930 46.2867222416 80.5039332994
-1.4123556530 46.1896693337 80.4284024601
-2.1433426949 46.1153329336 75.9595464072
-2.7764597387 45.9960726143 75.8056964781
-2.9156209475 46.2757003812 74.8898407545
5.0159358829 46.6325374247 73.2800549469
4.3184035769 46.5227845868 74.7041395372
-2.1409337238 -73.7688591579 33.0819887937
2.9749050836 46.6124450596 75.2640233173
2.1637481871 46.4875871243 80.3930318033
1.0487813558 46.5680003367 80.4373608950
0.5028798080 46.5266723050 80.3750180945
-0.7521297918 46.5169119178 80.4400725810
-2.0484919308 46.5208905741 75.7178278817
-2.6766096000 46.5215956599 75.3404612150
-2.8315547604 46.7535406790 74.0835314365
-1.9583417718 52.9254797243 61.3455094488
-4.1481805600 63.8879200291 27.9558363725
1.8362833392 46.7440275599 79.8319635761
1.1674717115 46.7564845828 79.8128772394
0.4733052342 46.7139723866 79.8294912379
2.7834150590 44.7587644366 79.0031215293
2.3169839128 49.8470528861 73.2349685154
3.9537125535 46.9599037319 73.5036625224
2.5659867984 46.7635406229 78.6030976066
0.4537692361 46.9373289003 79.2832261401
-0.8022007164 46.9192450647 79.2689712383
-7.5606026614 59.3068005125 31.0688684511
7.1036184088 64.5576821169 23.3488733398
5.0255733404 47.2864236974 72.0404251828
4.3004354229 47.2756126067 73.2025938762
2.4427619701 47.3465690596 77.8883819323
2.2952401025 47.2534318616 78.4035720976
1.6421324533 47.1594756826 79.0576316887
0.4946506372 47.3453702675 78.5387180230
-0.2148038292 47.1706887750 79.0210929351
-0.8557018333 47.3355101547 78.5216669955
-1.4294765364 47.2043716689 78.5044004011
-2.0656920001 47.2361800341 73.8871865849
-2.7745289704 47.5083232046 72.7119051378
1.7945420171 47.5867826301 77.9514038944
-0.7425185105 47.5469963932 78.0629261799
-3.5560644856 47.5448104421 72.0462969923
5.0216792014 47.9455457240 70.7432729664
4.3350217986 47.8554534204 71.4216366666
2.9740508142 47.8180075884 72.5348724817
2.3717636699 47.8747205077 77.1186829183
1.5488973471 47.8340727184 77.8300474966
0.5346697447 47.7743145371 77.7841989482
-1.3778780186 47.9411084643 77.1039616190
-2.0813604117 47.8153810992 72.5771757913
-2.4598144300 47.7770527278 72.4398511587
-3.4536250819 47.9055110496 71.4185110347
3.7051306363 48.0939605373 71.3864098091
2.4216349560 48.0441231774 76.5300387637
-0.1809999191 48.0106388828 77.2424016430
3.9016981035 48.2749474310 70.9645038159
2.5888597243 48.0790452977 75.9613321395
1.7621778662 48.2446043693 76.5642718088
2.9744115914 64.4053158210 4.9701454120
1.7530422789 51.8196384411 69.4433629519
5.0034891243 48.5773497215 69.4676585762
3.7352025773 48.7388744145 70.0494863998
2.9461594590 48.4700801911 71.2307946532
0.5454169788 48.4744987014 76.4332975202
-1.3360917142 48.5584265069 75.9120318480
-2.6338991432 48.5144073955 70.7671015003
-2.8151117125 48.7733671653 70.1215070968
-3.4138042476 48.6121382802 70.0389580474
-1.4010372960 48.7510462867 75.2991192550
1.0902440369 -73.1960020323 41.9475031156
-3.4808544509 48.8617715763 69.4258990196
5.0129222635 49.1946634552 68.1611505413
4.3194497101 49.1448874989 68.7612198322
3.5093719709 49.0320092668 69.8071275314
1.8140658039 49.2332831058 74.6486104004
0.3068944004 49.0211640760 75.6115467030
-0.8555280542 49.0801460400 75.1851078855
-2.0045035102 49.1284551082 70.0265373868
-2.4747654823 49.0506949506 69.8203670965
-3.4281918953 49.2326230547 68.7370020617
-3.9479873555 49.0675179104 68.6543236261
-0.1559297515 49.1120737171 75.0754724490
7.5580999134 63.6327601570 29.1356684717
3.0330537674 7.7465810155 108.4604264092
3.9162249010 49.5444632664 68.2883440754
0.4799485830 49.3326084997 74.6191896714
-0.1986298685 49.3316778236 74.6019397034
-0.8298142836 49.2706666685 74.6061666566
-1.5863573205 49.5191698485 73.3466932675
-1.7485651186 49.5329342556 69.3200870519
-3.4501015387 49.5111410528 68.1212549891
5.7675695532 65.4410803277 16.7098866719
-1.5948884659 -7.7988843496 110.9701180222
4.9820836299 49.8270845578 66.7918335858
3.7484287804 49.9632784842 67.4278624565
2.9048309305 49.7596036617 68.6290934145
1.7872497984 49.8990202029 73.3109282985
-0.2112538584 49.7740292840 74.0900977546
-0.6960346664 49.7099612850 73.9982363514
-0.8120300388 49.9192192096 73.3321750366
-1.2140758027 49.7746641714 73.7503017691
-1.3576958493 49.8505316599 73.2785346470
-1.7150812660 50.0211857135 68.7648179318
-2.1222884480 49.9423643545 68.1045748270
-2.6803227796 49.7802119128 68.0752779727
-2.8358957645 49.9950392176 67.5236875113
-3.3868995474 49.8345620889 67.4619088513
4.9957695229 63.9581402399 28.2524572951
3.7791001279 53.8702598388 57.7053291026
3.1020028581 50.1448442077 67.4595471374
2.4324726090 49.9657578499 72.6260312677
1.1445778950 49.9604923322 73.3508155936
0.5180401217 49.9913862870 73.3183340198
-1.4304770012 50.0762648151 72.6462965656
-3.4717541114 50.0599257991 66.8814314729
2.3973117299 48.6650778903 75.2790313798
0.3875593041 17.0010890055 107.1337681398
3.8521049379 50.2429578465 66.7944438004
5.7099349133 62.2939589769 30.1726626991
2.0204141962 50.2773783723 72.3056629228
-2.8429466844 50.2486222191 66.9109655432
4.2464224068 50.4350759633 66.0328631190
3.1351267495 50.7311298847 66.1271543307
2.9995667597 50.5402601314 66.7502950870
2.3031910982 50.4901625553 71.9396159810
1.7440267062 50.5097804534 72.0651876958
1.1448880194 50.4423028378 72.4940559222
0.4916642395 50.4636532688 72.5042532001
-0.8541401918 50.4048639275 72.4867707416
-0.7914863826 50.5356239522 72.0739203973
-3.3822785264 50.4519066589 66.0997315022
-1.6864018462 -4.5832868869 110.3156587137
4.4426274684 50.8059417223 64.9318522245
-3.3531390435 -73.4960306577 30.3751003208
2.5468992144 50.6996501957 70.7536568958
2.3697523429 50.6238238372 71.3417786414
0.5210086183 50.5961521778 72.0501324775
-1.3712367824 50.7355151318 71.3746782508
-1.5454984104 50.7574308629 70.8964233768
-2.1471628890 50.7760321285 66.3007050390
0.5766053915 17.1950931870 107.1565615182
4.3932337844 51.1262996274 64.2983419768
3.6557169939 51.1138063366 64.8602746893
2.2854138770 51.1149996814 70.6607433870
1.1586184213 50.9806613871 71.2811689223
-0.7524897776 51.0966527063 71.1774848499
-1.3079241064 51.1212726916 70.7222813415
-2.0427405688 51.1812623841 65.4346750040
-2.4675463223 -48.5967481158 91.2734060297
4.4451612544 51.3800567699 63.5864630411
3.7549374404 51.3399261612 64.2704049975
3.0035753810 51.3275624157 64.8357188184
-2.1259680707 51.3963639114 64.8777240403
3.7582381841 51.5223177121 63.7337807950
0.4807242497 51.2856938316 70.6620204719
-0.1178851015 51.2842143496 70.6738249125
-0.8898167733 51.4817166877 70.0775036348
-2.9339356227 51.5433030179 63.8027347278
-1.4686342097 -73.1073466578 42.0841624732
4.4076724622 51.9391950083 62.2049187456
4.3287684169 51.7342295312 62.8397364083
3.5980940585 51.7558888599 63.3717787821
0.4906581093 51.7816157805 70.0618328291
-0.1342839224 51.7815978068 70.0714525020
-0.7594475100 51.7816302790 70.0540731279
-1.5492411303 4.4514909502 109.6802604511
-1.3580917760 51.7813466684 69.3921429642
-1.9934909574 51.7374792256 64.1250035877
-2.1021891809 51.9306893135 63.5947834817
-3.4308030425 51.7746924378 62.9110981102
4.4703921375 52.1093089932 61.7167647952
0.5124128123 51.8795607178 69.4698644382
-0.9473295655 52.0841606458 68.8378220145
-2.8486791139 52.1173590049 62.4735463920
-3.4234811659 52.0374167416 62.2922248738
-4.0825954375 52.0543983660 61.5776850675
4.2552180895 52.3030788949 61.5154634429
3.6927804111 52.4009948227 61.6334184070
1.0326718411 52.2757576994 68.6393412702
0.5510820150 52.3354253428 68.6684065349
-2.7535846609 52.5292269493 61.5805878742
-4.0176243610 52.3566523133 60.8694539157
4.3942163937 52.7004451989 60.3428553292
-2.1635103878 -73.3434273249 22.5807135530
3.7384495376 52.6790464176 60.9610133043
0.5126918214 52.4614791730 68.1558742300
-2.8250651570 52.7216616564 61.0432400661
3.0559520193 52.7930314954 61.1233356830
-0.8418521116 52.7664796839 67.4864085532
-2.3115748916 52.8423489116 61.1361661602
-3.4632447731 52.7716068859 60.3287965152
7.4942335934 65.4363374086 15.5034817014
3.7534518767 53.1451521528 59.6954477819
2.8571495580 52.9992054172 60.7906716680
1.7446698175 53.0802433285 66.8840038737
1.0987893850 53.1009074627 66.8499573945
-2.0248921793 53.0723200405 60.8400113801
-3.4286339897 53.0542793730 59.6748021440
-4.0070149284 53.0518724016 59.0672219550
4.4602651011 53.3749576948 58.4532296851
3.1206007516 53.3234150025 59.6666438796
0.4504679617 53.4190130393 66.2079839508
-0.1942390938 53.3744918293 66.2489536293
-3.4039474767 53.2844952680 59.0248943865
-1.3726669222 -75.4579698629 22.0394516804
1.8191072969 53.5392780901 65.9889823532
1.1945304226 53.5391769738 66.0431004554
0.4444982330 53.5391785731 66.0422445005
-0.8055335341 53.5391762563 66.0434844817
-1.3978952934 53.6652492415 65.4858521797
-0.1790908722 53.7630537745 65.5206919890
-1.5070815370 53.9213394420 64.8347620630
-2.8064356379 53.7281643056 58.3500777625
1.1594561689 54.0252717211 64.9274954759
0.4483385981 54.0340761285 64.9384158037
-0.2035268903 54.0342526090 64.9493174074
2.2296260250 54.2908266553 64.2024520500
1.7494615165 54.3565176754 64.2569549986
1.1352570528 54.3729160630 64.2580351459
0.4925053498 54.3859300348 64.2451541449
-0.0791670147 54.2500189180 64.6076495637
-0.2192155438 54.4022585744 64.2237952711
-1.3994058342 54.3028945825 64.1915190143
1.1906810416 53.7728514977 60.3582850055
2.3236679385 54.5405013333 63.5054629487
1.7707734071 54.6822379190 63.5982793771
-3.9956134345 65.2920147009 17.3389640182
-0.7953631412 54.7130489696 63.5949930584
-1.4184229610 54.5972812713 63.5675196150
7.1006573831 65.2196443353 18.2534647885
2.2173250578 54.9656347165 62.7774133704
1.1411185726 55.0437448000 62.8630356182
0.4307709719 55.0508381284 62.8779928519
-1.3609597770 55.0015511009 62.8726023466
-1.7184129411 53.7540092343 63.5921676474
1.8225749506 55.2886339961 62.3081265316
7.6466780498 60.3855590964 29.9475903975
6.3737543296 60.3790617315 30.4679547882
-6.9025856441 60.4815736754 30.0822035843
7.0970500987 60.6065530481 30.0952484003
7.6136112119 60.9356314945 29.9174964979
6.5103187228 61.0232872119 30.0658066374
6.1789110158 60.9396532359 30.2253759741
-4.6792501094 60.9607059607 30.4557244784
-5.9250850930 60.7789862363 30.1290463137
-3.3821438251 -72.8860054610 21.3434132605
-2.7489351663 60.9034626184 31.7285486463
-3.9215239409 60.8089715754 31.0415164651
-4.0821017466 60.8892850258 30.5648830084
6.9634538896 61.6068251720 29.9656454246
5.1236307309 61.6782417628 29.9732032264
4.9682715370 61.3561340112 30.3315494366
4.2806574458 61.4185494744 30.3777965957
-4.0342720221 61.6062233469 30.2877462740
-5.3601625524 61.4566686167 30.0470289306
-6.7230771498 61.4193157639 29.9676732923
1.7204168278 61.6051996742 30.8356228196
1.0961722878 61.6050228889 30.9302394921
-0.7787604820 61.6049932565 30.9460989697
-1.2795560205 61.6051705723 30.8511983296
-1.4260156567 61.6595687129 30.4324421359
-2.0865602810 61.7700003014 30.3949260455
-4.4111590352 61.6066501351 30.0593263446
-6.6116358926 61.7564892746 30.1478259316
5.5882753602 61.8564342694 30.1788690370
-0.1765644754 61.7215541430 30.4032326880
-2.9129401208 61.8566460825 30.0655052083
7.6435790546 62.3951516849 29.9676470648
6.9600300662 62.2315521233 30.1218076914
6.9579874537 62.4192014195 30.0449107396
3.5852827755 62.1066793228 30.0517246768
3.0128497286 62.3564826187 30.1610119421
1.8335495672 62.3566395394 30.0770269303
1.8342265442 62.3564853988 30.1595240181
0.4593507925 62.3564466038 30.1802873126
-0.1654435349 62.3563949994 30.2079063502
-2.0822848674 62.3980166180 30.2326846990
