-16.5011437850 18.5790885000 48.2777862500
-16.3465760750 18.5713446600 49.0253677400
-15.4255746350 17.3586752900 49.3058166500
-16.2463105650 18.2663367300 48.4260139500
-15.1184915050 16.9648039800 49.3453064000
-15.2724870150 17.1826384500 49.4339752200
-15.8747018350 17.8162673000 48.6155891400
-16.1106561150 18.0956938700 48.4613723800
-15.9832032650 17.9596236200 48.6240387000
-16.5462411350 18.6006758700 48.1186027500
-15.3245500050 17.2481139200 49.4203224200
-15.4306558150 17.2980101600 48.9465065000
-15.2463334550 17.0697234100 49.0135841400
-15.3714135650 17.2732413300 49.2275505100
-15.4294198550 17.3449461900 49.2057189900
-15.3008645550 17.2090285300 49.3768806500
-16.1979897950 18.1899512300 48.3553123500
-15.6520989850 17.5816405300 48.9159126300
-15.5506852650 17.4538329100 48.9410591100
-15.9867547550 17.9838927300 48.7288246200
-15.4084733450 17.2708533300 48.9562530500
-15.1185525450 16.9655745500 49.3490066500
-15.9112580750 17.8879988700 48.7435760500
-15.4977601550 17.3790762900 48.9111862200
-16.1778024150 18.1699164400 48.3891906700
-15.1434281850 17.0067732800 49.3954238900
-15.8240502850 17.7514784800 48.6230773900
-15.2124589450 17.0909407600 49.3632011400
-15.9805024650 17.9521620700 48.6030464200
-15.1488831950 17.0414107300 49.5422706600
-15.9068063250 17.8812010800 48.7383155800
-15.8123315350 17.7300971000 48.5906829800
-15.0885079850 16.9362433400 49.4019775400
-15.5555871450 17.4420302400 48.8438339200
-15.4288171250 17.2891638700 48.9121093800
-15.9758981250 17.9577925700 48.6652298000
-15.0819467050 16.9493964200 49.5179901100
-15.4304231150 17.3027823400 48.9735984800
-15.3661378350 17.1706221600 48.8005294800
-15.2530129950 16.9765646900 48.7156410200
-15.1532624750 16.9319670700 48.9776458700
-15.0567811450 16.7864058500 48.9583511400
-15.2373269550 17.0435126300 48.9537849400
-15.0938142250 16.8542044600 48.9975204500
-15.8576539550 17.7311003700 48.4167175300
-16.2282250850 18.2002585400 48.2514076200
-15.1197045750 16.8162749300 48.7977066000
-15.4278977850 17.2104170800 48.6707611100
-15.2173799050 16.9348853100 48.7406768800
-15.7390664550 17.6345046000 48.6121978800
-15.3028291250 17.0886786400 48.8240203900
-15.8333276250 17.7443755100 48.5449371300
-15.8502152950 17.7255652400 48.4303779600
-15.4563859450 17.2347510300 48.6268119800
-15.2756265150 17.0924895300 48.9379921000
-15.3148377850 17.0639441500 48.7123107900
-15.2941926450 17.1036589600 48.8968658400
-16.4860299550 18.4773276300 51.0355758700
-16.6107438550 18.6552145900 50.9135284400
-15.5735314850 17.3408148800 51.4205131500
-17.0229676750 19.1743529300 50.7220153800
-16.4151376250 18.3902609800 51.0617141700
-15.9311402750 17.7471068400 51.3900642400
-16.0893357750 17.9724448200 51.2361946100
-16.5272592050 18.5128539100 51.0669136000
-16.5301927050 18.5411627800 50.9897613500
-15.8598969950 17.6922133400 51.3159637500
-15.6648667850 17.4260809900 51.4697189300
-16.5650666750 18.5611403500 51.0472793600
-16.4058488350 18.3632681800 51.1131057700
-16.0679467650 17.9514945000 51.2276916500
-16.5188668750 18.5021575000 51.0712013200
-15.9494470150 17.8478377300 51.1424179100
-16.5711205950 18.6268370600 50.8656730700
-15.7119401450 17.5483267800 51.2540092500
-15.8153336950 17.7339385000 51.0354232800
-16.1271279850 18.1234648700 50.9002113300
-16.4117692450 18.4598601300 50.8359260600
-15.5941842550 17.3840163200 51.3580093400
-15.7976411350 17.7118437800 51.0430526700
-16.3837769950 18.4394629500 50.8032035800
-15.7183602850 17.6460097300 50.9751777600
-16.0200608750 17.9971182800 50.9238166800
-15.6214288250 17.5298140500 51.0021057100
-16.0864327850 18.1041319800 50.8208618200
-16.0083344950 18.0156386400 50.8267936700
-16.1437104650 18.1205237400 50.9658622700
-15.7078279050 17.5985892300 51.0852203400
-16.0033982750 17.9332030300 51.0637321500
-16.5163339150 18.5486586600 50.9193992600
-15.5023644950 17.3278105700 51.2176971400
-15.5374024850 17.3365347800 51.3104209900
-15.6448396150 17.5190032000 51.1152877800
-16.0087464850 17.9730971300 50.9591484100
-16.1167520050 18.1573737100 50.7603988600
-16.0529435650 17.9957755100 51.0401649500
-16.5487321350 18.6437590600 50.7371673600
-16.0913423050 18.1257231700 50.7711372400
-16.0306466550 17.9610808400 51.0708808900
-16.4149087450 18.4418471300 50.9021034200
-16.6454728550 18.7525580400 50.7323646500
-15.7403977850 17.5667937300 51.2942619300
-15.6341699150 17.4215796500 51.3788147000
-16.0665124450 18.0738814300 50.8460083000
-15.7559998950 17.6193411800 51.1857299800
-15.8520120150 17.8342879300 50.8516426100
-15.5083192350 17.4022734600 51.0087814300
-15.7527764750 17.6742117900 51.0057945300
-16.2811425650 18.3858855200 50.5786247300
-16.5065072550 18.6396239300 50.5717048600
-17.0474236950 19.2283537900 50.6386566200
-17.1004403550 19.3569853800 50.3534126300
-16.8292420850 19.1156027800 50.0985298200
-16.2978394950 18.3826964400 50.6685562100
-15.9848741050 18.0301001500 50.6790580700
-16.5344346550 18.7248290000 50.3496742200
-16.8677514550 19.1505148900 50.1321106000
-16.7926057350 19.0750105800 50.0969696000
-16.5587533450 18.6848128300 50.6262321500
-16.8320497050 19.1412833200 50.0058021500
-16.0921357650 18.1515372300 50.6730232200
-16.1522325050 18.2928336100 50.3682174700
-17.1048005550 19.3707907700 50.3166618300
-16.1712716550 18.2651045800 50.5699348400
-16.1440576050 18.2755415900 50.4017524700
-17.1147569150 19.3746779400 50.3465004000
-15.9941857850 18.1025145500 50.4239730800
-16.7989877250 19.0983145700 50.0304451000
-15.5557816950 17.5264952600 50.7764701800
-16.8511498950 19.0362494500 50.5258407600
-17.0777963150 19.3459265700 50.2947006200
-16.1140779050 18.1585982300 50.7449417100
-16.5272859050 18.7764304100 50.1044578600
-15.9863999850 18.0628531400 50.5513382000
-16.0379327250 18.1293356900 50.5149421700
-16.6669305350 18.8151305200 50.5878601100
-16.4368508850 18.6622145600 50.1582145700
-16.6880868450 18.8929541600 50.3650054900
-16.0679963550 18.1944258700 50.3854827900
-16.8721803150 19.2100394200 49.9076042200
-16.9071877950 19.2300360700 49.9864120500
-16.8922685150 19.2411139500 49.8721923800
-16.2642358250 18.3729041100 50.5542182900
-16.8931878550 19.1543372100 50.2334365800
-16.9649651950 19.1655715000 50.5175132800
-16.7922967450 18.9671271300 50.5393867500
-16.6734574750 18.8040030500 50.6636810300
-16.7475007550 18.9592268900 50.3657608000
-16.8645738150 19.1589873300 50.0826454200
-16.8121255350 19.1407530800 49.9162826500
-16.5457147150 18.7888434400 50.1381988500
-16.6216348150 18.8514082900 50.2301712000
-16.6466783050 18.9200842800 50.0628547700
-15.6180413750 17.6089537600 50.7236976600
-16.1735146950 18.3384688400 50.2784080500
-16.1327279550 18.2768652900 50.3441810600
-16.6364701750 18.8022368400 50.5007476800
-16.5965608150 18.8464911400 50.1349945100
-16.1096414050 18.2335913600 50.4159660300
-16.8472474550 19.0077536600 50.6251373300
-17.1377748050 19.3652060500 50.4913940400
-16.6281503150 18.8286231000 50.3538703900
-15.9370835750 18.0237563100 50.4852485700
-15.5911859050 17.6000273700 50.5790634200
-15.8880837950 17.9852431300 50.3456726100
-16.1748651050 18.3549864800 50.1437072800
-15.4266694550 17.3960478800 50.6135063200
-16.0423730350 18.1879675900 50.1989364600
-15.8019479250 17.8698332800 50.4499435400
-15.3439248550 17.2800047900 50.7655181900
-15.5678361450 17.5796568900 50.4979744000
-16.1372788850 18.2952597600 50.2830085800
-16.1355241250 18.3056777000 50.1572494500
-15.7934792950 17.8527854000 50.5173683200
-15.7289727650 17.7892172800 50.3663864100
-15.3418611050 17.2898810400 50.6413574200
-16.1838944950 18.3542731300 50.2611618000
-15.3625710950 17.3028967800 50.7639122000
-16.2352517550 18.4265349400 50.1643371600
-16.5476411350 18.8233550100 50.0038642900
-15.8957627750 17.9934409100 50.3573303200
-15.5201943850 17.5183241800 50.5306396500
-16.5735009650 18.8660529100 49.0902519200
-16.5376122950 18.8194792700 49.5184364300
-16.7970612950 19.1488020900 49.2287826500
-16.5828546050 18.8765585900 49.6025848400
-16.3411744550 18.5707266800 49.5118103000
-16.7390855350 19.0760558100 48.9736862200
-16.6688340650 18.9863875400 49.2386245700
-16.3481553550 18.5788443600 49.7881927500
-16.0916551150 18.2536795600 49.9162674000
-16.5764497250 18.8698256500 49.0745048500
-16.0133508150 18.1542418500 50.0198478700
-16.1219209150 18.2921927400 49.8460083000
-16.1091264250 18.2766287800 49.6037368800
-16.0531610050 18.2045538900 50.0602455100
-15.7869447250 17.8676016800 49.9901504500
-16.0035012750 18.1418746000 49.9794349700
-16.7489999250 19.0878508600 49.2623977700
-16.1385529950 18.3136046400 49.7124633800
-15.9144242750 18.0290015200 50.0039138800
-16.4801743950 18.7474539700 49.2461280800
-16.4185861150 18.6692221600 49.3365936300
-16.1033128250 18.2692015600 49.6268081700
-16.2558244250 18.4628546700 49.4317627000
-15.9855378650 18.1186812400 50.1495170600
-16.5316651850 18.8127615900 49.2081680300
-16.0821336250 18.2410071400 50.1497077900
-15.9690812550 18.0986540800 49.8416061400
-16.3263276550 18.5519240400 49.5140419000
-15.6527703750 17.6967108700 50.3597335800
-16.8779939150 19.2501128200 49.6815834000
-16.6306222450 18.9382536900 49.1413574200
-15.9423783750 18.0649321500 49.8039703400
-16.3422273150 18.5717452000 49.6314621000
-16.4922097650 18.7623351100 49.3823204000
-15.8591454950 17.9584525100 50.2129631000
-16.5418504250 18.8237746200 49.9275360100
-15.7027505350 17.7601302100 50.3138389600
-16.7248528950 19.0574248300 49.2044715900
-16.4549706950 18.7154982600 49.2615318300
-15.7980607550 17.8815520300 50.0396003700
-16.0784104850 18.2364867200 50.0769119300
-16.6152146850 18.9168837500 49.8517799400
-16.8141435150 19.1693442300 49.6451606800
-16.1233590550 18.2945273400 49.6485328700
-16.5704682850 18.8612311300 49.4645462000
-16.8493455450 19.2138731900 49.6650047300
-16.3825753650 18.6222098300 49.8740539600
-16.7460397250 19.0841315300 49.2508583100
-16.7937921050 19.1433890300 49.7160606400
-16.0370286450 18.1842444400 50.0131988500
-15.9443543950 18.0665648400 50.1352844200
-15.5964539950 17.6257536900 50.2247543300
-16.0287850850 18.1738493900 49.9962081900
-16.3091767750 18.5295050600 49.7779274000
-16.1161263950 18.2852728800 49.6854629500
-16.2824662650 18.4963934900 49.5069427500
-16.3164742950 18.5423911100 49.3241920500
-16.2620385650 18.4853575700 49.2481079100
-15.3604806450 17.3746893900 49.8915634200
-16.3428872550 18.5798247300 49.2492561300
-16.1894715750 18.3812926300 49.4679718000
-15.3336671350 17.3062232000 50.3167800900
-15.4629205250 17.4911826100 49.9297294600
-15.6527017150 17.7357543000 49.6708335900
-15.5027039950 17.5278151500 50.0431175200
-15.8346818450 17.9384825700 49.7868690500
-15.3407777350 17.3208449300 50.2444992100
-15.9365495150 18.0802748700 49.5274124100
-15.4456513850 17.4680159600 49.9637489300
-15.6071008150 17.6539519300 49.9970588700
-15.2741197150 17.2395422900 50.2827682500
-16.5790856850 18.8733847600 49.0511665300
-15.7816804450 17.8815482100 49.7288665800
-16.6510156150 18.9661429400 48.9523353600
-15.8867143150 18.0180419000 49.5725975000
-15.2403520050 17.1927321400 50.3664932300
-15.5672677550 17.5992911300 50.0895347600
-15.6992104950 17.7661421800 49.9460296600
-16.1965745450 18.4069655400 49.2689971900
-15.4317811450 17.4603980100 49.8651504500
-16.2275727750 18.4300940500 49.4194412200
-16.0271638350 18.1778433800 49.6239051800
-15.3293870450 17.3130476900 50.1812210100
-16.3040269350 18.5377257300 49.2108230600
-15.2827828850 17.2541525800 50.2314796400
-15.3177102550 17.2992079700 50.1833305400
-15.8234551850 17.9252989800 49.7874412500
-16.4313806050 18.6902068100 49.1704406700
-16.1770661850 18.3696044000 49.4356803900
-15.2448419050 17.2301619500 49.8682937600
-15.3970139950 17.4214079800 49.8454856900
-16.4508660750 18.7211134900 49.0712585400
-15.1791490050 17.1489813800 49.9125099200
-15.2923959250 17.2898543300 49.8592720000
-15.3222077850 17.3255599000 49.8109855700
-15.4410317850 17.4722121200 49.7264862100
-17.1652902150 18.8819067900 51.6216964700
-16.3253892450 17.9247229600 51.8091201800
-16.9921411050 18.8977034600 51.2218208300
-16.4229463050 17.9816649400 51.8989563000
-16.6407922250 18.3279898600 51.6485824600
-16.1532243250 17.6399939500 52.0296821600
-17.1467965550 19.2367957100 50.8522605900
-17.4446214150 19.3517325400 51.2476654100
-16.6600678950 18.4817069000 51.3731918300
-17.1533730950 19.1302016200 51.0855293300
-16.6436036550 18.2938635800 51.7247467000
-17.1086801050 18.9835608500 51.2924270600
-17.2696107350 19.2403166800 51.1056022600
-17.0077928050 18.7692320800 51.5193710300
-17.0731423850 18.8544562300 51.4826736500
-17.3689912350 19.3617575600 51.0665664700
-17.2888864050 19.2986739100 51.0264091500
-17.0773538150 19.1766722700 50.8286323500
-17.2476876750 19.2189734400 51.1029930100
-16.8079255550 18.4084151300 51.8377075200
-16.8707421750 18.5388854000 51.7025375400
-16.1336854450 17.5615561500 52.1496124300
-16.6038545150 18.1782439200 51.8783111600
-16.9106515350 18.7379630100 51.3775939900
-16.2158196950 17.7030051200 52.0328521700
-16.6825822350 18.3671668000 51.6566352800
-16.7349999850 18.3680441800 51.7660446200
-16.9911416550 19.0401518800 50.9266014100
-17.2878755050 19.3963034600 50.8233985900
-17.3828233250 19.3940222700 51.0295333900
-17.2220910550 19.3932593300 50.6900825500
-16.6093247850 18.3121359800 51.6144371000
-17.0907128850 18.9931662500 51.2345542900
-17.3279870550 19.1899245200 51.3331298800
-16.7936967350 18.5988410000 51.4157104500
-16.5467408650 18.2927725800 51.5214843800
-17.2399629150 19.0908568400 51.3502044700
-17.4191392450 19.2316115400 51.4407539400
-16.6656831250 18.3210394800 51.7156906100
-16.9325936750 18.9372160900 51.0141792300
-16.9713891450 18.9124739600 51.1473999000
-16.6881860250 18.5391562400 51.3146476700
-16.4490884250 18.1324065200 51.6442565900
-17.1549905250 18.8930876700 51.5768470800
-17.0401986550 18.9385932000 51.2396507300
-16.6672891150 18.2852728800 51.7926864600
-16.8321641450 18.4998190900 51.7010612500
-17.1737130650 18.9115431800 51.5785942100
-16.8156007250 18.6034949300 51.4526062000
-17.4749787750 19.2517531400 51.5177993800
-16.3546899350 17.9161360700 51.8889656100
-16.6160653550 18.1845305400 51.8912925700
-17.2609361150 19.0453818300 51.4882736200
-16.5120156750 18.1435454400 51.7548522900
-17.4978898550 19.3745215400 51.3138008100
-15.9267724550 17.4843771900 51.9202041600
-16.2038033950 17.8244879700 51.7794799800
-16.4054292150 18.2912352500 51.2766456600
-16.0464280550 17.5955069500 51.9247589100
-16.1016839450 17.7034743300 51.8233985900
-16.4447625650 18.1877615900 51.5338783300
-16.5055764650 18.2986319500 51.4368591300
-15.8433679050 17.4007933600 51.9282035800
-16.3841241350 18.2157881700 51.3775062600
-16.6043427950 18.4672911600 51.3000907900
-16.0722993350 17.5247443200 52.0989036600
-15.9136422650 17.6152937900 51.6582908600
-15.9431832750 17.3851225800 52.1299705500
-16.5173753250 18.3590720200 51.3469162000
-16.7423890550 18.6865637800 51.1390152000
-16.2941316150 18.0351622600 51.5513458300
-16.4176743950 18.1215804100 51.6077804600
-15.9692147750 17.3935339900 52.1597595200
-16.0455697550 17.7446845000 51.6507873500
-16.1325486650 17.6139967900 52.0403785700
-16.5855897450 18.3868506400 51.4144897500
-16.5124543650 18.2626631700 51.5144767800
-15.9461244050 17.5886290500 51.7633476300
-16.7004464650 18.7048552500 51.0328521700
-16.3670838850 18.0835249900 51.5895462000
-15.8998406850 17.4523718800 51.9319458000
-16.5492394950 18.3541129100 51.4112434400
-16.7423318350 18.6328185100 51.2370834400
-16.4777596950 18.3654921500 51.2664680500
-16.3209870850 17.9697135000 51.7174835200
-16.0860093550 17.7365096100 51.7358589200
-16.2529481450 17.8947279900 51.7364273100
-16.5654748450 18.5233138100 51.1303443900
-17.0978196650 19.2647688900 50.6980209400
-15.9374421550 17.7029097500 51.5278320300
-17.0961144950 19.2613204000 50.7018585200
-16.0646394250 17.8555624900 51.4790191700
-16.7296594150 18.7641737900 50.9727821400
-16.5237496850 18.4835036300 51.1280250500
-18.1337884450 18.7446272800 52.8496360800
-17.7484010250 18.5240767500 52.7594184900
-17.8521264550 18.5979407300 52.7687034600
-17.6507218850 17.9946959500 53.2260818500
-17.9391511450 18.6316245100 52.8057479900
-17.9674180450 18.7442992200 52.7125968900
-18.3457540050 19.0158598900 52.7442512500
-17.8649667250 18.6945975300 52.6793785100
-17.8885873350 18.2916739400 53.1154632600
-17.9358628750 18.4053137800 53.0370101900
-17.4311440950 17.5277426700 53.5275344800
-18.5068582050 18.9779761300 52.9164466900
-17.9984735050 18.4292777000 53.0639343300
-17.4211457750 17.7052672400 53.3357391400
-18.3923581550 18.9770339000 52.8228721600
-18.0243104450 19.0234473200 52.4709701500
-17.7137101650 17.9417708400 53.3328056300
-18.2428525450 19.0028937300 52.6726760900
-17.7694848550 18.4227278700 52.8816108700
-18.5419934750 19.1328986200 52.7852897600
-18.1330407650 18.7754385900 52.8171691900
-17.3895257450 17.6768668200 53.3389930700
-17.8786843750 18.4252303100 52.9692001300
-18.0368646150 18.7782271400 52.7348594700
-17.9989007450 18.7846282000 52.6968917800
-17.9814599550 18.7735198000 52.6939773600
-18.4246991650 18.9436133400 52.8841323900
-18.5423100950 18.9502699800 52.9743690500
-18.1807244750 19.1421759600 52.4773750300
-17.3378480450 17.5989096600 53.3769187900
-17.8295320050 18.6409590700 52.7055702200
-17.5483125250 17.8676550900 53.2728576700
-18.3241094150 18.8207419400 52.9281082200
-18.2612012350 18.6712401400 53.0307235700
-18.1219743250 19.3104193700 52.2549209600
-17.3369096250 17.4689047800 53.5105514500
-18.1936276950 19.2589476600 52.3673019400
-18.1496194350 19.2654326400 52.3242569000
-17.8772576850 18.5373862300 52.8520660400
-17.4552300950 17.6471541400 53.4239654500
-17.9807427850 18.6083167100 52.8641853300
-18.4501145850 19.1093390500 52.7337837200
-18.0635484250 18.9547827700 52.5743560800
-18.0421250850 18.4422400500 53.0865783700
-17.6121095150 17.8582556700 53.3352623000
-17.9719155750 18.9534018500 52.5001182600
-17.6491464150 18.2249701500 52.9866981500
-18.2862485450 19.1487486800 52.5577163700
-18.0787232850 18.5815756800 52.9727401700
-17.8467706150 18.3700163800 52.9999313400
-17.6929048050 18.1077979100 53.1439743000
-17.6983216750 18.1744978900 53.0794906600
-17.6437638750 18.2539656600 52.9522781400
-16.9246705550 17.1817343700 53.4935760500
-17.2325929150 17.8742812100 53.0327224700
-17.1177361950 17.1657851200 53.6444587700
-17.5795472650 18.3447554600 52.8161811800
-17.7594636450 18.7165511100 52.5790062000
-17.1559937950 17.5879118900 53.2588348400
-17.3609612950 18.1661170000 52.8375434900
-17.1376489150 17.6276152600 53.2071876500
-17.1001962150 17.1684325200 53.6295738200
-17.1671937450 17.5186179100 53.3343849200
-17.3448136750 17.6477492300 53.3326911900
-17.6488793850 18.4378302600 52.7738342300
-17.2556336850 17.8331969200 53.0890045200
-17.1521562050 17.4005682900 53.4391784700
-17.1641229150 17.5527442000 53.2988929700
-17.8040536350 18.8168204300 52.5122871400
-17.1359857050 17.4906447400 53.3398475600
-17.1990808050 17.5885756500 53.2883796700
-17.3978684850 17.9830458600 53.0422706600
-17.5211709450 18.2849944100 52.8336639400
-17.4092286550 17.8516715000 53.1785926800
-17.1460031050 17.2712958300 53.5611724900
-17.4995149150 18.4018729200 52.7042961100
-17.9389375250 19.0620711300 52.3671951300
-17.6338609250 18.5404875700 52.6630096400
-17.1419404450 17.8193190600 53.0228920000
-17.0381616150 17.1302321400 53.6234283400
-17.3225434750 17.8770506800 53.0930442800
-17.4956124750 18.2326605800 52.8668899500
-17.8775475950 18.8586829200 52.5228881800
-17.4222596650 18.2171118700 52.8306770300
-17.9889749050 19.1025984700 52.3626594500
-17.0057443150 17.1663954700 53.5653801000
-17.1531518450 17.9619391400 52.8826561000
-16.7788423050 17.3723166500 53.2002220200
-16.9523652550 17.6102240500 53.0919990500
-17.4512055850 18.3695052100 52.6979599000
-17.3142617650 18.1614859600 52.8056640600
-16.9868196050 17.6649458900 53.0622787500
-16.9600442450 17.6720145200 53.0307960500
-16.6304963550 17.2628348300 53.1852455100
-17.6367791650 18.6760733600 52.5211753800
-17.8750298950 18.9948409100 52.3839874300
-16.6745179650 17.4361060100 53.0151367200
-17.0136102150 17.9206946400 52.7807731600
-16.9110597150 17.6466048200 53.0130806000
-17.6016114750 18.6111434000 52.5640564000
-16.8186372250 17.6328413900 52.9272003200
-16.5776704350 17.3140395200 53.0613937400
-16.8412583850 17.6197226500 52.9690895100
-17.3469613550 18.3340552300 52.6301536600
-17.4419053550 18.4061568200 52.6450119000
-16.6889832950 17.4688094100 52.9899063100
-17.5837434250 18.5863593100 52.5754547100
-17.1855081050 18.4925749800 52.2064476000
-17.4128869550 18.4903739000 52.4994850200
-17.6030190950 19.3580458600 51.5355567900
-17.0892365950 18.1308043500 52.5866813700
-16.9646142450 18.0023215300 52.6063842800
-17.8672173950 19.0184538800 52.3446502700
-17.0053742850 18.0147002200 52.6411590600
-17.4764283650 18.6478484100 52.3615760800
-17.5066522150 18.6338370300 52.4195976300
-17.3509438950 18.4568694100 52.4670753500
-17.4449685550 18.7496016500 52.1799697900
-17.4011796450 18.9616301500 51.8293190000
-17.4826653950 19.1696379600 51.6440277100
-17.1858056550 18.3343794800 52.4267845200
-17.2903893950 18.3643210400 52.5185279800
-17.7269967550 18.8719962100 52.3694686900
-17.5186418050 19.1423705100 51.7278175400
-17.1012719650 18.1979811700 52.5086212200
-17.9000543150 19.1350348500 52.2244377100
-17.5220521450 18.7460616100 52.2831955000
-17.1242326250 18.1073325100 52.6639480600
-17.9091027750 19.2938406900 52.0151786800
-17.0851319750 18.2155783600 52.4635772700
-17.8643029650 19.3584082600 51.8682670600
-17.4079049550 18.9615881900 51.8379516600
-16.9858964450 18.1838934900 52.3810691800
-17.8340257150 19.2104743000 52.0353393600
-17.6919091650 19.2317679400 51.8244934100
-17.0495103350 18.3247702600 52.2663230900
-17.4755013950 18.6017935700 52.4244232200
-17.0842126350 18.3688185700 52.2493362400
-17.4772675950 18.5509284000 52.4973983800
-17.2699159150 18.7278540600 51.9869537400
-17.4288323850 18.9251463900 51.9153060900
-17.4923432850 19.1038992900 51.7477645900
-17.5329354750 18.9832366000 51.9673080400
-16.9927552650 18.2187293000 52.3413810700
-17.4927018650 18.8084281000 52.1590461700
-16.7017282050 17.5704100600 52.8716545100
-16.9648354950 18.0473197000 52.5441055300
-17.4331201050 18.8264830600 52.0579643200
-17.2735780250 18.5236151700 52.2756042500
-16.9965051150 18.2247794100 52.3377494800
-17.0789941350 18.3954375300 52.2056617700
-17.8537896650 19.1289237000 52.1739349400
-16.9703858850 17.9354231800 52.7067642200
-17.7281678650 18.8613074300 52.3858223000
-17.1404031250 18.3851454700 52.2982902500
-17.6903069950 19.3113806700 51.7117538500
-17.6103127950 19.0794203700 51.9322547900
-17.2999108750 18.7473929400 51.9980545000
-17.4133676050 19.0230086300 51.7595214800
-17.4664376750 18.9084036800 51.9865493800
-17.8274301050 19.0507224100 52.2490577700
-16.2396310350 17.4050620100 52.5656395000
-16.6379731650 17.8712676000 52.3996238700
-16.8458741650 18.3190329500 52.0462722800
-17.2811730850 18.9043372100 51.7659187300
-16.4244645550 17.6245482400 52.4844741800
-16.5004914750 17.6242735800 52.5692253100
-16.5177262750 17.8215582800 52.3309974700
-17.5178636050 19.2740767500 51.5463066100
-16.5647843850 17.6522505700 52.6040954600
-16.6893571350 17.7021620700 52.6772537200
-16.4173577750 17.4584448800 52.6932716400
-16.5745309350 17.8950408000 52.2981910700
-16.6678803950 17.6482985500 52.7236900300
-16.6841424450 17.6840498900 52.6951065100
-16.8721574250 18.3528082800 52.0313911400
-17.2473557950 18.7871420800 51.8812637300
-17.2358773750 18.8681242900 51.7628784200
-17.3932984850 19.0973265600 51.6386184700
-16.6505998150 17.7571089700 52.5625572200
-16.9186357050 18.4074538200 52.0116958600
-16.4876397650 17.5193198200 52.6918678300
-16.6007035750 17.6153510100 52.6921081500
-16.5632012850 17.4676077800 52.8432121300
-17.2967904550 18.9354193700 51.7427024800
-17.0838960150 18.5884345000 51.9590377800
-17.1369164950 18.6567709900 51.9287490800
-16.6364968750 17.9677184100 52.2721595800
-16.4232858150 17.7010291100 52.3833961500
-16.6354745350 17.9572432500 52.2846946700
-16.7423509150 17.9002783800 52.4776382400
-17.1996835250 18.8133032800 51.7942199700
-16.6514314150 17.8513854000 52.4404983500
-16.3902657950 17.4056113200 52.7321281400
-16.3935845850 17.6115668300 52.4671325700
-16.4744256450 17.8113272700 52.2962799100
-16.1923058950 17.4226630200 52.4901466400
-16.3962357950 17.7220404600 52.3259582500
-18.7353948150 17.0722258600 54.4242286700
-19.1522210550 17.9346716900 54.0120048500
-18.8203195050 17.1696455900 54.3896789600
-18.9528687950 17.2474005700 54.3826599100
-19.0855706650 17.8551962800 54.0410308800
-19.1027863950 18.0702956200 53.9106903100
-19.1660016550 17.6916487700 54.1698226900
-18.9422162550 17.1002333600 54.4721984900
-19.4882482050 17.8708746900 54.1589546200
-19.2018216650 17.9439566600 54.0218925500
-19.2252629750 17.6164420100 54.2361221300
-19.5751431950 18.0152876800 54.0953559900
-19.2308743950 17.5217536000 54.2976837200
-20.0008252650 18.3873007800 53.9956016500
-19.7122186150 18.2954962700 53.9619522100
-19.2329419650 17.6175253900 54.2378730800
-19.2868245550 18.1587889700 53.9132309000
-18.8902543550 17.0980856900 54.4570579500
-18.9494489150 17.0819609600 54.4860305800
-19.6559175050 18.6342986100 53.7301635700
-19.4605363350 18.1918128000 53.9475212100
-18.9263967050 17.1249754900 54.4515533400
-19.3056558150 17.8548300700 54.1111259500
-19.6431153750 18.5897162400 53.7542495700
-18.8854135050 17.2926199900 54.3326988200
-19.4365323550 18.7177718100 53.6078224200
-19.3329328050 18.0923941600 53.9697876000
-19.3716977550 17.9170821200 54.0927810700
-19.3986733950 18.3653700800 53.8183059700
-19.7662023050 18.1102889000 54.0960235600
-19.7271474350 18.5667937300 53.7953987100
-19.3818791850 18.7823203100 53.5497169500
-19.5099404850 18.5755599000 53.7209167500
-19.3662026850 17.9128783200 54.0936927800
-19.4732316450 18.3119643200 53.8756904600
-18.7464917650 16.8903716100 54.5425720200
-19.0420659550 17.2308524100 54.4214248700
-18.9420579450 17.5347731600 54.1977844200
-19.2134908150 18.0926764500 53.9316940300
-19.5701936250 17.8883612600 54.1739273100
-18.9502843350 17.3721144700 54.3031005900
-18.8453172150 17.3824904400 54.2632255600
-19.2754548550 18.3923399900 53.7621650700
-19.2733453250 17.4654334100 54.3467292800
-19.2545751050 17.5094283100 54.3129882800
-19.5152314650 18.6480238900 53.6768455500
-19.4593633150 18.0616286300 54.0293502800
-19.2329705750 18.1420538900 53.9067039500
-19.1892789350 17.4637053500 54.3211288500
-19.7768624750 18.2122061700 54.0350570700
-19.0186322650 17.4171736700 54.2963447600
-18.8113530650 16.9958327300 54.4965744000
-19.5573304650 18.0413115500 54.0732727100
-18.4344342750 16.7137434900 54.5655632000
-18.7519734850 17.8483641600 53.9572525000
-18.9375279850 18.0394957500 53.8869934100
-18.6253903850 16.9730589900 54.4554061900
-18.6669000150 16.9768965700 54.4632148700
-18.4740651550 17.0267928100 54.3860244800
-18.2491258150 16.6355155000 54.5676460300
-18.4329598850 16.5398581500 54.6702995300
-18.4056428450 16.8604529400 54.4698715200
-18.7713750350 17.4283621800 54.2158317600
-18.2170690050 17.0104582800 54.3332176200
-19.1054223550 18.3216345800 53.7574234000
-18.7590249550 17.2640936800 54.3121032700
-19.0648110850 18.1792281100 53.8335800200
-18.2737573150 17.0475867300 54.3246002200
-18.4848454950 16.7807562800 54.5373573300
-18.3891709750 17.0437491400 54.3550682100
-18.5576051250 17.3825171500 54.1914024400
-18.8383267850 17.5436614000 54.1624755900
-18.5526708150 17.5394919400 54.0953254700
-18.4336102950 16.9469779000 54.4243965100
-18.9318097550 17.8595488500 53.9943542500
-18.5037759250 17.0787261000 54.3618850700
-19.0670712950 18.2531722100 53.7894439700
-18.9324220150 17.9776900300 53.9231033300
-19.0275872650 17.9900382000 53.9388504000
-18.7833684450 17.8210089700 53.9814453100
-18.6388162150 17.1531508400 54.3498344400
-18.3663667150 17.0282996200 54.3588447600
-18.5049546750 16.5313017800 54.6930275000
-18.4896501050 16.7743475900 54.5424041700
-18.1474259850 16.8459418300 54.4156608600
-18.7974885450 17.4605620400 54.2027397200
-18.5120805250 16.8655951500 54.4927253700
-17.9946359150 16.8282149300 54.3777656600
-18.7170709150 17.8233397500 53.9629554700
-17.9828256150 16.7470496200 54.4280815100
-18.5333417450 17.5170424400 54.1041488600
-18.1549008850 17.0073340400 54.3136787400
-17.9519380050 16.7633650800 54.4063339200
-18.8167241550 17.9931548100 53.8839035000
-18.8323644150 18.1146872500 53.8035697900
-18.4455712750 17.5796759600 54.0246276900
-18.2989171450 17.2978423100 54.1677589400
-17.9290002350 17.0114501000 54.2099876400
-18.5260632950 17.6797736200 53.9870643600
-18.9734052150 18.3325865700 53.7058296200
-18.0411294450 17.1186621700 54.1818695100
-17.9698327550 16.9098761500 54.3053550700
-18.3667195750 17.4933951400 54.0525817900
-18.7371953450 17.9661734600 53.8706359900
-18.1631425350 17.1915648400 54.1841316200
-18.1200631650 17.2650931300 54.1087837200
-18.7620938750 17.9976141900 53.8586578400
-18.3130582350 17.3929923000 54.1029090900
-18.4869359450 17.9375403400 53.7644424400
-18.8442357550 18.4399664900 53.5513725300
-18.8605626550 18.7560561200 53.3062133800
-18.2081235450 17.6020682300 53.8852691700
-18.6312955350 18.5713561000 53.3323555000
-18.4368012850 18.4210722900 53.3493919400
-19.0945752650 18.8276312800 53.3734588600
-18.4301217550 18.2557166100 53.4786300700
-18.7035172950 18.7089560500 53.2603378300
-18.8863519150 18.3578589400 53.6397628800
-18.7585805450 18.6465743100 53.3397865300
-18.9439595650 18.5178969400 53.5419349700
-18.4539655250 18.3824370400 53.3895683300
-18.4315331950 18.3822043400 53.3777961700
-18.8834222350 18.8024466500 53.2811431900
-18.0372384550 17.2868330900 54.0473594700
-18.2752889150 17.8567450500 53.7165298500
-18.8467076750 18.9323828700 53.1572227500
-18.0217851150 17.1873496000 54.1190185500
-19.0603345350 18.4561026600 53.6535911600
-18.6060956450 18.7829459200 53.1489906300
-18.7359136050 18.4421217900 53.4919090300
-18.8614057050 18.6862547900 53.3627243000
-18.3087438050 18.1371405600 53.5091667200
-18.4900411150 18.5090735400 53.3070907600
-18.6722196050 18.0738280300 53.7537422200
-18.3850186850 17.8180373200 53.8060989400
-18.6548379450 18.1768210400 53.6617622400
-18.4738553550 17.8454230300 53.8314514200
-18.4285272150 17.6821654300 53.9384117100
-19.0579198350 18.9043524700 53.2923049900
-18.4729932350 18.0926039700 53.6324806200
-18.4021275950 18.3763411500 53.3668327300
-19.1289723850 18.6452391600 53.5382728600
-18.9853776450 18.8315527900 53.3121109000
-18.7859261950 18.3700888600 53.5764122000
-18.4714978650 18.2943938200 53.4696197500
-18.3262971350 17.6622870400 53.8998870800
-19.1945298650 18.6285803800 53.5865936300
-18.2054666050 17.8601248700 53.6765976000
-18.9742902250 18.5307601000 53.5477714500
-18.9616158950 18.5404875700 53.5332031300
-18.7702878450 18.2486403500 53.6656189000
-18.7859757850 18.2505286200 53.6724586500
-18.7956078950 18.8774474100 53.1741066000
-18.9129365450 18.7811949700 53.3139419600
-18.6070645850 18.7769072500 53.1543579100
-18.7402108650 18.1993697200 53.6891555800
-18.7670396350 18.8584311500 53.1741523700
-18.8869565450 19.0212500600 53.1073036200
-18.0967439150 17.4098685300 53.9802589400
-19.0858796550 18.8350852000 53.3628425600
-18.7273801350 18.3759902000 53.5404701200
-18.2138455850 18.1508811000 53.4543762200
-17.6635812250 17.1618483500 53.9667320300
-18.3098901250 18.2691901200 53.4069213900
-18.3398087950 18.3984015500 53.3207778900
-18.0139497250 17.9512541800 53.5171394300
-17.7545426850 17.4933722500 53.7522087100
-18.0975945950 17.8702948600 53.6179695100
-17.6276696650 17.1010649700 53.9972610500
-18.2407945150 18.0392821300 53.5529403700
-17.5718606450 16.9583228100 54.0820121800
-17.5019372450 17.3408415800 53.7544593800
-17.8700746050 17.4623206100 53.8290748600
-18.2805379350 18.1602156600 53.4776878400
-18.2046540750 18.1657317100 53.4386978100
-17.9571565150 17.3215773600 53.9776687600
-18.0207131850 17.6858542400 53.7252960200
-17.9616998150 17.5245039900 53.8229560900
-17.6308129750 17.0146468100 54.0654678300
-17.6388238450 16.9846327800 54.0923271200
-17.8420518350 17.4324858700 53.8393020600
-18.3139127250 18.4333479900 53.2819290200
-18.2068665950 17.9645522100 53.5951538100
-17.8104814050 17.4619620300 53.8020782500
-17.9513314750 17.5748808800 53.7792854300
-17.9159615950 17.7562544800 53.6229667700
-18.1286576750 17.7690337200 53.7104263300
-18.1552499250 18.1456320700 53.4316139200
-18.0937455650 17.7307265300 53.7240486100
-17.8513101050 17.1127036100 54.0906143200
-17.3920052950 17.0536025000 53.9260902400
-17.6362489250 17.0728323900 54.0230026200
-18.2780107050 18.1214278200 53.5064964300
-18.0520890750 17.8089697800 53.6445312500
-17.6145013350 17.4961226400 53.6860008200
-17.5509561050 17.3537695900 53.7669029200
-17.8316758650 17.7260344500 53.6077461200
-17.8949655050 17.1904776600 54.0505027800
-17.3796914550 17.1644080100 53.8345642100
-17.9300530950 18.0671713800 53.3743324300
-17.5786050350 17.6251891100 53.5412635800
-18.1596997750 18.4379294400 53.1878891000
-17.2460473550 17.2274382600 53.6799011200
-17.7539132550 17.7450430900 53.5529632600
-17.3791078050 17.3548987400 53.6543388400
-18.4532865050 18.8048003200 53.0506515500
-17.9821427850 18.1210349100 53.3605766300
-17.8272202950 17.9440978000 53.4172744800
-17.3390382250 17.2219222100 53.7513275100
-17.8470986850 17.9222853600 53.4520225500
-18.0680154350 18.3107779500 53.2426261900
-18.1504243350 18.3346999200 53.2787284900
-17.8550446950 18.0381186500 53.3483429000
-17.4008058050 17.4492934200 53.5806884800
-17.2975953550 17.1196539900 53.8183441200
-20.0660031750 17.2221129400 54.5879478500
-19.3597749250 16.4482024200 54.8729324300
-19.5039323350 16.6077445000 54.8140373200
-19.4751447150 16.4796965600 54.8700828600
-19.1199887750 16.1968138700 54.9644546500
-20.2412160350 17.3711150200 54.5370445300
-19.1156266650 16.1461508700 54.9873428300
-20.4907372950 17.6259749400 54.4449081400
-19.2681916750 16.2729476000 54.9443702700
-19.6001828650 16.6351759900 54.8111267100
-19.4385369750 16.4826834700 54.8650131200
-19.9776929350 17.0572951300 54.6549110400
-19.8895410050 16.9012778300 54.7178344700
-20.3405831850 17.4149191800 54.5269088700
-19.4542954950 16.3246291100 54.9393653900
-20.2862409150 17.4689581900 54.4965477000
-20.2240060350 17.4541838600 54.4970626800
-20.4669564750 17.6804869600 54.4174079900
-19.0633233550 16.2260306300 54.9452858000
-19.9292939650 17.2024405500 54.5832061800
-19.3745797650 16.5862639400 54.8108673100
-19.0235608550 16.1755240400 54.9645195000
-20.0741246650 17.3540289900 54.5280418400
-19.3536885750 16.6304801000 54.7884025600
-19.4359143750 16.7823584500 54.7267875700
-19.8437608250 17.0109541900 54.6627235400
-19.4080346550 16.6790144900 54.7715492200
-19.8318704150 17.1443388900 54.6001167300
-18.9553521650 16.2732718500 54.9126396200
-19.7958272450 17.1830466300 54.5757980300
-20.2745431450 18.0275252300 54.2174339300
-20.3581117150 17.9407485000 54.2724494900
-19.8717664250 17.1812041300 54.5871315000
-20.1325639250 18.1928847300 54.1149597200
-20.2276471650 17.7066176400 54.3721160900
-20.6026643250 17.9374106400 54.3076362600
-19.6312974450 16.9759924900 54.6572074900
-19.5061467650 17.1506140700 54.5523872400
-20.0760472750 18.2373641000 54.0848846400
-19.6523602950 17.0466330500 54.6246299700
-19.7950356950 17.9507277500 54.1902847300
-19.4866021650 17.0639060000 54.5932426500
-20.5530904250 17.7899115500 54.3748931900
-20.5210050050 17.7947676600 54.3680572500
-19.7117932750 17.1494429600 54.5811576800
-20.3371404150 18.0523856100 54.2135276800
-20.0892003550 18.0484374000 54.1815376300
-19.7416947850 17.6201308200 54.3489494300
-20.2288907550 17.5303748100 54.4607658400
-19.5524972450 17.4634993500 54.4016609200
-19.5688546650 17.4855940800 54.3928108200
-20.4904397450 17.7874930400 54.3675193800
-20.1557801750 17.9200804700 54.2551002500
-20.1195157550 18.2765296000 54.0711822500
-20.2328084450 17.6112959800 54.4206771900
-20.4328149350 17.9773314500 54.2643203700
-19.8402131550 17.1535399400 54.5966987600
-19.9052079650 17.3630202300 54.5004348800
-19.9616979150 17.6889708500 54.3445358300
-19.9152406250 17.6135657300 54.3760261500
-19.9934190250 17.5420325300 54.4226493800
-20.3019803550 17.8798735600 54.2953186000
-19.3424943450 17.0963614400 54.5572052000
-20.6086343250 17.9134505300 54.3204803500
-20.1570275750 17.5147345500 54.4587745700
-19.7989018950 17.8823416700 54.2251472500
-19.6403497250 17.0714896200 54.6105041500
-19.6006177450 17.0833304400 54.5991134600
-19.5048726550 17.2482932100 54.5031776400
-18.9050591950 16.3809340500 54.8564415000
-20.5564168450 18.0901587500 54.2246093800
-20.6473248950 17.9509604400 54.3069496200
-20.0921872650 17.8968604100 54.2580452000
-19.5124410150 17.2828429200 54.4868698100
-19.8925946750 17.7836363800 54.2875404400
-19.9740155650 17.6630347200 54.3592453000
-19.4702275750 17.3971884700 54.4236793500
-20.2586663750 18.1818373700 54.1377868700
-20.3678201150 17.6616347300 54.4139061000
-19.7365449450 17.2819884300 54.5180053700
-19.7279466150 17.3253195700 54.4950714100
-18.8144238950 16.4289839700 54.8241195700
-19.1932729250 17.0907652800 54.5438079800
-19.2955716650 17.1698897300 54.5154876700
-18.7550271550 16.4204390500 54.8227691700
-19.7450726950 17.9168952000 54.2010650600
-19.4754556150 17.4673369400 54.3903694200
-18.8619683750 16.5887930900 54.7524261500
-19.0572103050 16.7469542500 54.6949729900
-19.0496095150 17.0205634100 54.5493850700
-19.0556596250 17.1672614100 54.4654731800
-18.7996972550 16.5957549100 54.7328987100
-19.5928300350 17.8367789300 54.2129211400
-19.8959344350 18.2225020400 54.0657844500
-18.6736482150 16.4290259300 54.7977676400
-18.9525807850 16.9125006700 54.5875053400
-18.8545163650 16.7546027200 54.6543922400
-19.2014497250 17.3031790700 54.4236030600
-19.8910306450 18.1974165900 54.0791473400
-19.0400880350 17.0397666000 54.5357589700
-18.7166779950 16.4224913600 54.8125877400
-18.8213933450 16.7001441000 54.6776390100
-18.9026654750 16.8826926200 54.5920982400
-19.4271367550 17.5404074700 54.3431625400
-18.6993020550 16.6237090100 54.6909179700
-21.7889703250 16.3051093100 54.7621612500
-21.9007714750 16.6397727000 54.6582832300
-22.0063394050 16.9319556200 54.5663871800
-21.6672757650 16.7851889600 54.6557045000
-21.6286996350 17.1205084800 54.5743370100
-21.1924870950 15.5787642500 55.0410080000
-21.6101678350 16.9201338800 54.6292305000
-21.4010537650 15.8578131700 54.9369888300
-21.8008073350 16.7106383300 54.6549415600
-22.0100167750 16.6060202600 54.6505775500
-21.5841363450 16.5423758500 54.7313766500
-21.5311978850 16.4727843300 54.7574615500
-21.6187127550 16.2076590500 54.8131866500
-21.6522706550 17.3510230100 54.5108451800
-21.1556409350 15.8843443900 54.9671173100
-22.0953000550 16.9440558400 54.5498199500
-21.5209153650 16.9442008000 54.6364402800
-21.2399514650 15.9618895500 54.9342346200
-21.7280496150 16.3213141400 54.7671394300
-21.1082967250 15.7559302300 55.0076484700
-21.7556699250 16.4768126500 54.7225456200
-21.9896100550 16.9836714700 54.5554657000
-21.1445287250 16.0350668900 54.9296035800
-21.4286607250 16.7840636200 54.6919937100
-21.4394238950 16.1538527500 54.8542289700
-21.8139260750 17.1822951300 54.5303268400
-20.9621613950 15.6469061800 55.0580444300
-21.5882409550 16.5954649900 54.7169532800
-21.4276898850 16.2581961600 54.8288688700
-20.8305753250 15.2831366500 55.1724777200
-21.4331487150 16.5763762500 54.7453155500
-21.2255052050 15.5906317700 55.0329437300
-21.3187821850 15.9921401000 54.9144744900
-21.7823060550 16.5680296900 54.6948089600
-21.1963246850 15.8956931100 54.9580307000
-20.9797891150 15.4653876300 55.1025772100
-21.3322919350 16.0891898100 54.8872032200
-21.7182801750 17.2255461700 54.5335159300
-21.7149766450 17.0401747700 54.5822105400
-21.5277055250 16.8021376600 54.6723518400
-21.5102151350 16.4763854000 54.7596893300
-21.1325219650 16.1703703900 54.8962364200
-21.5408452550 17.3363326100 54.5314788800
-21.6419976750 16.7696326200 54.6635627700
-21.4205926450 16.6568778000 54.7262802100
-21.1053555950 15.7346938100 55.0136146500
-21.4154027450 16.3614676500 54.8038749700
-21.7073625050 16.4936278300 54.7254600500
-22.0327199450 17.0394385300 54.5344619800
-22.0322545550 17.0400908500 54.5343627900
-21.6587708950 16.5433600400 54.7198600800
-21.6724389550 17.2923567800 54.5230560300
-21.6653970250 17.3440344800 54.5106849700
-21.2209752550 16.8997786500 54.6991691600
-20.9629071750 16.3235266700 54.8908805800
-20.5213159050 15.6663878400 55.1383209200
-21.1363309350 16.3520262700 54.8499717700
-20.4326241950 15.3412306800 55.2353591900
-20.2830518250 15.4839232400 55.2296485900
-20.3424886250 15.2016280200 55.2872047400
-20.8909963150 15.5610182700 55.0918235800
-20.8623059750 16.3043997800 54.9152488700
-20.5982049450 15.4649069800 55.1726570100
-20.8909028550 15.7578375800 55.0436058000
-21.0421861150 16.3524306300 54.8682899500
-20.9600575950 16.1073630300 54.9444160500
-20.3837350350 15.4590437900 55.2160491900
-20.8348821150 15.5057700100 55.1163444500
-20.3511231850 15.1979430200 55.2864189100
-20.4877599250 15.4697936000 55.1930656400
-20.5207894750 15.8018286700 55.1052284200
-21.2510198150 16.6281378700 54.7598648100
-20.4087270250 15.6383841500 55.1672096300
-20.2507356150 15.4504645300 55.2441673300
-20.8255971450 16.0774863200 54.9780426000
-21.3257707150 16.8321326200 54.6952438400
-20.7060559750 15.4344885800 55.1590156600
-21.0792554350 16.4197180700 54.8445472700
-20.7113736650 15.0836203600 55.2439651500
-21.0729344850 16.0882895500 54.9270095800
-21.0974267450 16.2799475700 54.8752479600
-20.5649064550 15.4139655100 55.1916580200
-20.4856503950 15.3527205500 55.2221717800
-20.6302712950 15.8066466300 55.0826301600
-20.9646504850 16.1921103500 54.9227447500
-21.4019864550 17.0812590600 54.6192817700
-20.2365239650 15.3960288000 55.2602920500
-20.7669824150 15.3768561300 55.1612167400
-20.2231191150 15.3291228300 55.2793083200
-21.0096581950 15.8694899500 54.9930114700
-20.8529103750 15.5105765300 55.1116371200
-20.5135301150 16.1378844200 54.9991951000
-20.3802369550 15.8549368800 55.1014328000
-20.8837045150 16.6101859100 54.8204002400
-20.6519330450 16.1402419100 54.9907875100
-20.1722539450 15.5183928500 55.2257652300
-20.2210134050 15.7943442300 55.1305198700
-20.5469659350 16.1983397500 54.9770736700
-20.2518800250 15.7138388600 55.1558265700
-21.0498536550 16.8262579900 54.7387847900
-20.5111745350 15.9439528500 55.0643768300
-20.6862157350 16.2229979500 54.9611396800
-20.2005418250 15.4644530300 55.2423019400
-20.7153714650 16.3849318500 54.9052200300
-20.6281884650 16.3025610900 54.9376487700
-20.9655946250 16.6327117000 54.8083419800
-20.9439729250 17.1573050500 54.6172332800
-20.8005288550 17.3854773500 54.5337104800
-20.1584580850 16.0368483500 55.0411987300
-20.6441091050 16.6841643300 54.7959709200
-20.7430070350 16.9259017000 54.7051544200
-20.8613370450 16.9913504600 54.6797180200
-21.1978524650 17.2936804800 54.5641632100
-20.6203092050 17.2191336600 54.5972442600
-20.5111821650 16.6670783000 54.8035583500
-21.0364583450 17.3928702300 54.5287704500
-21.0650666750 17.3883383700 54.5301933300
-20.5299447550 16.1953948000 54.9787979100
-20.9771150150 17.4423392300 54.5109252900
-20.3394101650 16.0346358300 55.0403480500
-20.0759423750 15.7674582500 55.1421508800
-20.7681535250 17.2437155700 54.5867309600
-20.7318280650 16.6469100000 54.8090095500
-21.1272290650 17.3357337000 54.5491790800
-21.2807286750 17.5270102500 54.4766235400
-21.0827535150 17.6110518400 54.4472045900
-20.6581624550 17.5017378800 54.4917984000
-20.5257810150 16.5553114900 54.8449859600
-20.9123776950 17.7325881000 54.4035873400
-20.7391999750 17.2504637700 54.5844879200
-20.6917203450 17.6626341800 54.4316520700
-20.8111356250 17.4045584700 54.5265197800
-21.3622411250 17.4030173300 54.5219764700
-20.4576924750 16.5966055900 54.8302612300
-21.2132924550 17.6718123400 54.4233970600
-20.6300385950 16.4564192800 54.8807945300
-21.0831025550 17.7155936200 54.4083213800
-20.7379029750 17.4520781500 54.5095214800
-20.8453973250 17.1482604000 54.6215095500
-20.2581609250 15.8538878400 55.1083183300
-20.6439603350 16.7813590000 54.7598266600
-21.0789216550 17.5152686100 54.4828605700
-20.9045194150 17.2664740500 54.5770034800
-20.7589868050 16.8130591400 54.7469711300
-20.5670350550 16.4685080500 54.8768844600
-20.5079663750 17.1003172900 54.6424751300
-20.8655351150 17.7801344900 54.3863410900
-20.9295285650 17.1601355500 54.6163139300
-20.6683495950 16.7450430900 54.7731018100
-20.7600491950 17.7116034500 54.4128074600
-20.6492455950 16.8626769100 54.7295341500
-21.1022618750 17.6446784000 54.4345207200
-21.0558274750 16.9146941200 54.7064209000
-20.3898423650 16.5258467700 54.8572044400
-20.2368272250 16.1098158800 55.0133400000
-20.8625577450 17.4156821200 54.5219039900
-20.2875798650 16.1986144100 54.9798469500
-20.7635091250 17.1634924900 54.6166076700
-20.5592397250 16.4385436000 54.8880996700
-19.9489434750 16.5186064700 54.8849258400
-20.5216611350 17.4179747600 54.5292091400
-20.1788094950 16.2667830500 54.9581718400
-20.4323686150 17.0750105800 54.6561393700
-20.2946332450 16.9408934600 54.7127189600
-20.0440209850 16.1171134000 55.0200347900
-19.6823171150 15.6892722100 55.1952819800
-20.0619481550 16.2123206100 54.9852676400
-20.4702466450 17.0289404900 54.6698188800
-20.3083451750 17.1657088300 54.6325416600
-19.5942624550 15.8504546200 55.1444129900
-19.9008172550 15.6156523700 55.2064819300
-20.2197717150 16.2980177900 54.9443969700
-20.4283460150 17.0248778300 54.6740837100
-20.5422280750 17.2679007500 54.5807228100
-19.6833375450 15.9961722400 55.0870285000
-19.8301938550 16.0351393700 55.0633735700
-20.1993897950 16.2207701700 54.9730033900
-20.2557271450 16.6971419300 54.8012695300
-19.8807881850 16.4702895200 54.9065628100
-20.3128446050 16.6406920400 54.8173103300
-20.3677400150 16.8855345700 54.7272949200
-20.0074723750 16.5923483800 54.8549766500
-20.6339219550 17.6503165200 54.4397201500
-20.3513806850 16.7777731900 54.7663879400
-19.9486840750 16.5266287800 54.8821144100
-19.9319871450 16.1948988900 55.0001831100
-20.5255998150 17.5136015900 54.4952316300
-19.8283799650 15.9924185700 55.0785560600
-19.8630670050 16.3501418100 54.9501113900
-19.8869374750 16.4296248400 54.9204826400
-19.9916394750 16.2822783500 54.9653511000
-19.7184651850 16.0036147100 55.0820312500
-19.4614480450 15.8939650500 55.1325378400
-20.3640531050 17.2962058100 54.5814933800
-19.5346005950 15.9410803800 55.1147003200
-20.0031541350 16.7381003400 54.8007888800
-19.6644357150 16.1981223100 55.0131263700
-19.5151628050 15.9281981500 55.1195869400
-20.2050717850 17.0855315200 54.6639137300
-23.4708169450 15.7875121100 54.2240562400
-22.6330712750 15.2087996500 54.6077995300
-23.5375665150 15.6188490900 54.2005806000
-23.3790849250 15.3857138600 54.2772636400
-23.0350278350 15.1432822200 54.4350204500
-22.8718656050 15.6198103900 54.4902839700
-23.3226064150 15.4127638800 54.3009491000
-22.8348077250 15.0366690600 54.5256843600
-23.4595368850 15.5167944900 54.2379150400
-23.2244142050 15.2981627500 54.3474731400
-22.7017472750 15.5410101900 54.5669326800
-23.3174966350 15.6781790700 54.2944030800
-22.6305573950 15.2568190600 54.6073074300
-23.1781743550 15.3565276100 54.3656692500
-23.3888314750 15.4037344900 54.2724266100
-23.3145841150 15.3268454500 54.3072814900
-22.7963746550 14.7363570200 54.5523414600
-23.4128697850 15.7207701700 54.2514839200
-22.2840989550 14.0416205400 54.7982597400
-22.7364285950 14.6283209800 54.5820007300
-22.5703347650 14.4185088100 54.6612243700
-23.4258702750 15.7927725800 54.2434463500
-22.9898789850 14.9581740400 54.4607887300
-23.2534440550 15.5835631400 54.3254089400
-22.7985719150 14.7806876200 54.5499153100
-23.0512670050 15.2448561700 54.4245948800
-22.5309976050 14.9604132600 54.6604347200
