-2.797383336660000097e+01 -7.053711568199999782e+00 4.082872657869999955e+01 -5.668925693328097370e-01 -1.250008498354193698e-01 8.142527877604521791e-01
-2.843149220950000000e+01 -6.547130904900000381e+00 4.060589903200000350e+01 -5.725128747388853467e-01 -1.181874153773075087e-01 8.113326956955755342e-01
-2.888214095449999874e+01 -6.041275417299999617e+00 4.037411842769999737e+01 -5.778257475698220791e-01 -1.119438485938627770e-01 8.084466464816156828e-01
-2.932584500800000171e+01 -5.536138339399999886e+00 4.013346830060000059e+01 -5.843311600966859531e-01 -1.060830972637358677e-01 8.045517210316525114e-01
-2.976266977650000101e+01 -5.031712905100000022e+00 3.988403218559999885e+01 -5.902202552730410057e-01 -9.906188673544513712e-02 8.011409319600641954e-01
-3.019268066629999936e+01 -4.527992348099999731e+00 3.962589361770000096e+01 -5.974286310719384430e-01 -9.135755230575703933e-02 7.967012165248716915e-01
-3.061594308400000131e+01 -4.024969902399999633e+00 3.935913613160000324e+01 -6.065563700554106319e-01 -8.062484746410587821e-02 7.909418461028556724e-01
-3.103252243600000071e+01 -3.522638801799999886e+00 3.908384326230000028e+01 -6.154862404400488485e-01 -6.903636842545222974e-02 7.851182507518210674e-01
-3.144248412869999854e+01 -3.020992280300000221e+00 3.880009854459999730e+01 -6.242088827540387408e-01 -5.841408987940609893e-02 7.790706417228898673e-01
-3.184589356860000109e+01 -2.520023571599999901e+00 3.850798551350000309e+01 -6.327256788217308081e-01 -4.785888850182632576e-02 7.728956864616012279e-01
-3.224281616220000046e+01 -2.019725909799999997e+00 3.820758770380000158e+01 -6.410337731555185714e-01 -3.737868310780252668e-02 7.666019408553083059e-01
-3.263331731579999939e+01 -1.520092528599999993e+00 3.789898865039999976e+01 -6.491308639588921903e-01 -2.698106964431329705e-02 7.601980947995271576e-01
-3.301746243600000241e+01 -1.021116662000000064e+00 3.758227188810000285e+01 -6.570151937779339368e-01 -1.667330116886282104e-02 7.536929322828205269e-01
-3.339531692909999805e+01 -5.227915438000000359e-01 3.725752095189999835e+01 -6.637696118376005261e-01 -6.299132630073281565e-03 7.479105717457601443e-01
-3.376694620170000150e+01 -2.511040800000000073e-02 3.692481937670000036e+01 -6.712362393235067337e-01 3.808656127543016186e-03 7.412337048174064691e-01
-3.413241566020000306e+01 4.719335116999999746e-01 3.658425069719999811e+01 -6.786176970994255431e-01 1.257028276914743184e-02 7.343841019347955301e-01
-3.449179071100000016e+01 9.683469813999999731e-01 3.623589844850000219e+01 -6.856615574098682275e-01 2.245824001706111031e-02 7.275739523550921461e-01
-3.484513676059999909e+01 1.464136767100000069e+00 3.587984616539999649e+01 -6.924916158413779721e-01 3.222631599523748114e-02 7.207057836223963454e-01
-3.519251921530000260e+01 1.959309634900000097e+00 3.551617738270000046e+01 -6.991089887561842131e-01 4.186954076123284435e-02 7.137881782411004128e-01
-3.553400348179999924e+01 2.453872351099999793e+00 3.514497563529999979e+01 -7.055152019759453053e-01 5.138334574356589329e-02 7.068295774520462205e-01
-3.586965496639999884e+01 2.947831681699999873e+00 3.476632445820000328e+01 -7.117121649116782134e-01 6.076356181773815562e-02 6.998382555076236855e-01
-3.619953907549999883e+01 3.441194392799999946e+00 3.438030738620000193e+01 -7.182738597020595916e-01 6.995589156813801501e-02 6.922346680885123060e-01
-3.652372121570000019e+01 3.933967250599999854e+00 3.398700795420000276e+01 -7.240495430890615536e-01 7.905666448884951514e-02 6.852023810177680918e-01
-3.684226679329999854e+01 4.426157021199999875e+00 3.358650969699999678e+01 -7.281930749733519503e-01 8.631813755307138347e-02 6.799147186892067207e-01
-3.715524121490000198e+01 4.917770470699999841e+00 3.317889614959999989e+01 -7.319610839419037340e-01 9.212041926902835021e-02 6.750902161550643710e-01
-3.746270988679999903e+01 5.408814365199999585e+00 3.276425084689999778e+01 -7.349328014712928070e-01 9.857945772141650520e-02 6.709365602178113397e-01
-3.776473821550000309e+01 5.899295470800000274e+00 3.234265732360000101e+01 -7.381927179008246354e-01 1.035458540247230774e-01 6.665956550657112789e-01
-3.806139160749999917e+01 6.389220553700000416e+00 3.191419911479999882e+01 -7.417608358088020326e-01 1.087236560431397159e-01 6.617930409703932648e-01
-2.833842567769999832e+01 -7.553830786399999830e+00 4.048760858450000200e+01 -5.727417297473010871e-01 -1.292032974251160482e-01 8.094896039731125370e-01
-2.879611372460000140e+01 -7.047247102000000041e+00 4.026481833609999939e+01 -5.780784222533961181e-01 -1.228117008829530954e-01 8.066861991203645443e-01
-2.924679167360000065e+01 -6.541388593399999785e+00 4.003307503010000090e+01 -5.832192259560236014e-01 -1.168897185852684900e-01 8.038607641652334435e-01
-2.969052493110000057e+01 -6.036248494499999673e+00 3.979246220139999934e+01 -5.896405781507084720e-01 -1.113915306580057635e-01 7.999474454586156247e-01
-3.012737890360000037e+01 -5.531820039000000300e+00 3.954306338479999994e+01 -5.954061660352277796e-01 -1.062929883378393447e-01 7.963625418598256900e-01
-3.055741899739999923e+01 -5.028096460899999620e+00 3.928496211510000080e+01 -6.026446823667070962e-01 -9.947452185926949908e-02 7.917854547262158649e-01
-3.098071061910000168e+01 -4.525070994100000021e+00 3.901824192739999830e+01 -6.117681017104090735e-01 -8.875367283472181124e-02 7.860423495512118830e-01
-3.139731917499999980e+01 -4.022736872500000338e+00 3.874298635640000299e+01 -6.206924669195511557e-01 -7.808043164841774186e-02 7.801565917832897767e-01
-3.180731007179999992e+01 -3.521087329899999840e+00 3.845927893710000234e+01 -6.293789902429651750e-01 -6.653597460219286275e-02 7.742448260882870414e-01
-3.221074871569999942e+01 -3.020115600200000028e+00 3.816720320430000157e+01 -6.378896691264851482e-01 -5.598656404930855979e-02 7.680900172946241167e-01
-3.260770051320000107e+01 -2.519814917300000179e+00 3.786684269290000060e+01 -6.461909766005429212e-01 -4.550991772584588729e-02 7.618176088465159479e-01
-3.299823087080000050e+01 -2.020178515100000016e+00 3.755828093790000111e+01 -6.542806327230017427e-01 -3.511366340673335862e-02 7.554362211899474655e-01
-3.338240519499999692e+01 -1.521199627399999921e+00 3.724160147389999764e+01 -6.621569018481872071e-01 -2.480509139396007770e-02 7.489545678983122734e-01
-3.376028889210000017e+01 -1.022871488100000059e+00 3.691688783610000257e+01 -6.698185801127931605e-01 -1.459113709750765875e-02 7.423814170989757599e-01
-3.413194736869999701e+01 -5.251873311000000433e-01 3.658422355919999802e+01 -6.772649800938721487e-01 -4.478366583569064717e-03 7.357255541104918972e-01
-3.449744603119999908e+01 -2.814039039999999964e-02 3.624369217809999810e+01 -6.844959129036720658e-01 5.527034973120895610e-03 7.289957455997767566e-01
-3.485685028599999669e+01 4.682761002999999977e-01 3.589537722770000272e+01 -6.915116680505808411e-01 1.541927195226319540e-02 7.222007054845387408e-01
-3.521022553950000145e+01 9.640689071000000387e-01 3.553936224289999757e+01 -6.983129913465827565e-01 2.519294415374019255e-02 7.153490628227968662e-01
-3.555763719830000014e+01 1.459244795999999900e+00 3.517573075850000208e+01 -7.049010612026636036e-01 3.484304999487605747e-02 7.084493318384972316e-01
-3.589915066870000260e+01 1.953810533299999985e+00 3.480456630949999663e+01 -7.112774636066808709e-01 4.436498716036802598e-02 7.015098842350742103e-01
-3.623483135730000271e+01 2.447772884900000001e+00 3.442595243070000066e+01 -7.180300614919254976e-01 5.366287636638145814e-02 6.939402902944806772e-01
-3.656474467049999788e+01 2.941138617100000019e+00 3.403997265710000164e+01 -7.239789133582549274e-01 6.291539357174061320e-02 6.869470039706944142e-01
-3.688895601459999796e+01 3.433914495999999872e+00 3.364671052340000301e+01 -7.297230877296786433e-01 7.202824859568131288e-02 6.799383403210194077e-01
-3.720753079619999681e+01 3.926107287699999837e+00 3.324624956459999936e+01 -7.333147220622030504e-01 7.936174178815164071e-02 6.752416103493508182e-01
-3.752053442180000076e+01 4.417723758200000184e+00 3.283867331550000301e+01 -7.359059220559730496e-01 8.516379112960401065e-02 6.717064854260240692e-01
-3.782803229759999653e+01 4.908770673800000317e+00 3.242406531110000145e+01 -7.386662895332197776e-01 9.153692323647381890e-02 6.678271515831214478e-01
-3.813008983030000110e+01 5.399254800499999618e+00 3.200250908619999990e+01 -7.417382387685764744e-01 9.632124796306661130e-02 6.637368472062762370e-01
-3.842677242629999768e+01 5.889182904500000149e+00 3.157408817569999826e+01 -7.450627239083427167e-01 1.011929292946524839e-01 6.592734853632806757e-01
-2.869583853800000028e+01 -8.054692699500000330e+00 4.013732124079999863e+01 -5.791460943223775137e-01 -1.336003113894353445e-01 8.042019387117775864e-01
-2.915355578890000032e+01 -7.548105994100000160e+00 3.991456829079999835e+01 -5.841575387592169433e-01 -1.277009399183187677e-01 8.015313093415327161e-01
-2.960426294190000007e+01 -7.042244464400000403e+00 3.968286228320000220e+01 -5.891041944105828154e-01 -1.221654952450099002e-01 7.987689527638136555e-01
-3.004802540329999871e+01 -6.537101344299999894e+00 3.944228675269999940e+01 -5.954726023837401128e-01 -1.171055218822705385e-01 7.947947386306839501e-01
-3.048490857979999902e+01 -6.032669867800000141e+00 3.919292523450000232e+01 -6.012388770711302177e-01 -1.123681360744168828e-01 7.911290758741000850e-01
-3.091497787759999838e+01 -5.528943268699999969e+00 3.893486126319999840e+01 -6.086501913446598078e-01 -1.076078333963960409e-01 7.861078162490450216e-01
-3.133829870330000134e+01 -5.025914780799999981e+00 3.866817837379999645e+01 -6.177577471928807906e-01 -9.689507685839517104e-02 7.803760054382646860e-01
-3.175493646319999996e+01 -4.523577638099999909e+00 3.839296010110000168e+01 -6.266652141687606425e-01 -8.622785101930312279e-02 7.745033680103748930e-01
-3.216495656389999880e+01 -4.021925074400000355e+00 3.810928998020000336e+01 -6.353686695758850034e-01 -7.561468380421133839e-02 7.684979331882155762e-01
-3.256842441180000236e+01 -3.520950323600000154e+00 3.781725154570000313e+01 -6.437926064023500317e-01 -6.408219185792975170e-02 7.625120016290577452e-01
-3.296540541339999919e+01 -3.020646619599999916e+00 3.751692833269999738e+01 -6.520745272507368906e-01 -5.360657249868770735e-02 7.562573280938644782e-01
-3.335596497499999913e+01 -2.521007196299999809e+00 3.720840387589999665e+01 -6.601439674194449214e-01 -4.320936708593053899e-02 7.498952546027667365e-01
-3.374016850310000137e+01 -2.022025287599999999e+00 3.689176171039999730e+01 -6.679992400116712137e-01 -3.289789569967234428e-02 7.434344246820719926e-01
-3.411808140429999980e+01 -1.523694127199999970e+00 3.656708537080000099e+01 -6.756391893769982948e-01 -2.267912788693063342e-02 7.368835341736716948e-01
-3.448976908480000247e+01 -1.026006949199999907e+00 3.623445839229999876e+01 -6.830631755991969367e-01 -1.255966796363166930e-02 7.302512943370823573e-01
-3.485529695129999794e+01 -5.289569873999999672e-01 3.589396430949999939e+01 -6.902710564440206475e-01 -2.545743186114346208e-03 7.235463964579507135e-01
-3.521473041000000137e+01 -3.253747559999999733e-02 3.554568665749999923e+01 -6.972631670794400272e-01 7.356805195273521426e-03 7.167774781978489829e-01
-3.556813486760000131e+01 4.632583523000000092e-01 3.518970897100000172e+01 -7.040402978694721980e-01 1.714252810859184101e-02 7.099530919053109734e-01
-3.591557573040000051e+01 9.584372623000000369e-01 3.482611478500000146e+01 -7.106036705781726415e-01 2.680637217123715485e-02 7.030816750362969270e-01
-3.625711840480000347e+01 1.453006020599999948e+00 3.445498763429999656e+01 -7.175765012253803032e-01 3.620506950698697268e-02 6.955380347839621447e-01
-3.659282829739999698e+01 1.946971393299999908e+00 3.407641105390000291e+01 -7.237060899403658931e-01 4.561127147529756010e-02 6.885993808431966068e-01
-3.692277081449999798e+01 2.440340146600000093e+00 3.369046857850000265e+01 -7.296279719721332491e-01 5.488275819926818205e-02 6.816383978094783247e-01
-3.724701136259999856e+01 2.933119046499999882e+00 3.329724374319999924e+01 -7.353448506226664128e-01 6.401605423012694807e-02 6.746628013041284788e-01
-3.756561534819999792e+01 3.425314859299999792e+00 3.289682008270000324e+01 -7.376935343720957272e-01 7.168094138674424576e-02 6.713196645321183320e-01
-3.787864817780000237e+01 3.916934350900000084e+00 3.248928113200000212e+01 -7.400711614589475795e-01 7.750276217127338718e-02 6.680479008518979134e-01
-3.818617525759999864e+01 4.407984287499999709e+00 3.207471042590000110e+01 -7.425767614600057298e-01 8.382714592472984005e-02 6.644943663761824215e-01
-3.848826199429999662e+01 4.898471435300000287e+00 3.165319149930000009e+01 -7.454239454083924077e-01 8.840271280811129451e-02 6.607027334436815780e-01
-3.878497379430000080e+01 5.388402560400000318e+00 3.122480788709999899e+01 -7.484660059366243789e-01 9.291680954509093371e-02 6.566316352881866880e-01
-2.904598277330000045e+01 -8.556306532300000711e+00 3.977775065769999685e+01 -5.835458726959837916e-01 -1.386724769326942164e-01 8.001525845742385457e-01
-2.950372922820000099e+01 -8.049716805799999264e+00 3.955503500609999890e+01 -5.884915451297225708e-01 -1.331420148981488361e-01 7.974653002981966221e-01
-2.995446558520000124e+01 -7.543852255000000007e+00 3.932336629670000150e+01 -5.934134635419950898e-01 -1.279047112666889252e-01 7.946702750970857654e-01
-3.039825725060000039e+01 -7.038706113900000005e+00 3.908282806470000281e+01 -5.998906799394941869e-01 -1.232300364579560631e-01 7.905349645880960230e-01
-3.083516963110000120e+01 -6.534271616299999863e+00 3.883350384469999739e+01 -6.057607574174720400e-01 -1.188121169859364668e-01 7.867258643455996570e-01
-3.126526813290000106e+01 -6.030541996100000190e+00 3.857547717180000291e+01 -6.135099127626891802e-01 -1.142949704828505331e-01 7.813720283349294693e-01
-3.168861816249999919e+01 -5.527510487099999814e+00 3.830883158070000150e+01 -6.226063588777526192e-01 -1.035934938166173103e-01 7.756479291043415492e-01
-3.210528512650000010e+01 -5.025170323300000241e+00 3.803365060640000195e+01 -6.315019375268440260e-01 -9.293584962144310624e-02 7.697845352791800044e-01
-3.251533443120000300e+01 -4.523514738600000307e+00 3.775001778379999706e+01 -6.401927648549888827e-01 -8.233057009472383170e-02 7.637898278029124910e-01
-3.291883148309999996e+01 -4.022536966699999716e+00 3.745801664769999917e+01 -6.486755193376365636e-01 -7.178593036853045395e-02 7.576719942119888307e-01
-3.331584168860000261e+01 -3.522230241699999986e+00 3.715773073289999928e+01 -6.568478416961647248e-01 -6.022592252097747068e-02 7.516140972038694024e-01
-3.370643045420000306e+01 -3.022587797299999934e+00 3.684924357450000088e+01 -6.649026482512182534e-01 -4.983329804457303780e-02 7.452657987285593588e-01
-3.409066318629999870e+01 -2.523602867500000180e+00 3.653263870730000207e+01 -6.727427081670553921e-01 -3.952482126911116556e-02 7.388200302588588952e-01
-3.446860529149999763e+01 -2.025268685999999985e+00 3.620799966610000098e+01 -6.803669045527229731e-01 -2.930748395208704338e-02 7.322854269844127906e-01
-3.484032217600000081e+01 -1.527578486899999977e+00 3.587540998589999930e+01 -6.877746354237879167e-01 -1.918791620227305872e-02 7.256706379201863788e-01
-3.520587924640000210e+01 -1.030525504000000092e+00 3.553495320150000225e+01 -6.949657955458322656e-01 -9.172374460274107522e-03 7.189842909049601882e-01
-3.556534190920000071e+01 -5.341029712000000540e-01 3.518671284780000263e+01 -7.019407560620676279e-01 7.332676678997729347e-04 7.122349593340244756e-01
-3.591877557069999938e+01 -3.830412230000000001e-02 3.483077245959999857e+01 -7.087003422129682928e-01 1.052352582332335973e-02 7.054311308352272381e-01
-3.626624563749999908e+01 4.568778088000000071e-01 3.446721557189999885e+01 -7.159379782766568390e-01 2.001597310730598989e-02 6.978769032441904940e-01
-3.660781751590000255e+01 9.514495882000000293e-01 3.409612571960000338e+01 -7.222574971615106643e-01 2.956075795746318513e-02 6.909922353999142786e-01
-3.694355661249999656e+01 1.445417981999999935e+00 3.371758643750000317e+01 -7.283666588395191210e-01 3.897601635519554186e-02 6.840781245150554524e-01
-3.727352833359999806e+01 1.938789756400000064e+00 3.333168126049999813e+01 -7.342678728560582124e-01 4.825784322707071805e-02 6.771424307031062018e-01
-3.759779808569999915e+01 2.431571677400000020e+00 3.293849372350000237e+01 -7.399638724140930046e-01 5.740271748573697042e-02 6.701928047563572299e-01
-3.791643127529999902e+01 2.923770511199999866e+00 3.253810736140000159e+01 -7.421573236741396684e-01 6.543433509604301701e-02 6.670238786635580563e-01
-3.822949330880000218e+01 3.415393023900000102e+00 3.213060570900000101e+01 -7.443408855959557924e-01 7.138994296615380764e-02 6.639729829394547256e-01
-3.853704959270000074e+01 3.906445981600000117e+00 3.171607230120000054e+01 -7.466156063604448834e-01 7.784311188788051172e-02 6.606856940108786214e-01
-3.883916553339999922e+01 4.396936150500000196e+00 3.129459067299999830e+01 -7.492807437834051454e-01 8.240729551415865162e-02 6.571053223353384709e-01
-3.913590653730000213e+01 4.886870296599999719e+00 3.086624435919999954e+01 -7.521001679984665733e-01 8.686894690788074525e-02 6.532986479090507892e-01
-2.938876920970000128e+01 -9.058681509499999507e+00 3.940878294520000225e+01 -5.878324349595698273e-01 -1.439400307698593118e-01 7.960743030342551929e-01
-2.984654486859999878e+01 -8.552088761900000335e+00 3.918610459180000305e+01 -5.927371863916989225e-01 -1.388707492401043408e-01 7.933331852846851051e-01
-3.029731042950000131e+01 -8.046221190100000697e+00 3.895447318080000088e+01 -5.976611227377548463e-01 -1.340016735300917916e-01 7.904712100127249119e-01
-3.074113129899999919e+01 -7.541072027900000307e+00 3.871397224710000273e+01 -6.043480885742575914e-01 -1.298156691795797901e-01 7.860733298313198336e-01
-3.117807288339999872e+01 -7.036634509199999776e+00 3.846468532549999964e+01 -6.104052335686170894e-01 -1.258150793691310831e-01 7.820332580110522791e-01
-3.160820058919999909e+01 -6.532901867899999715e+00 3.820669595089999859e+01 -6.186565400558490246e-01 -1.215207121584228611e-01 7.762066747733074035e-01
-3.203157982289999950e+01 -6.029867337899999846e+00 3.794008765809999773e+01 -6.277378903731751780e-01 -1.108280544810893997e-01 7.704948301771867847e-01
-3.244827599079999914e+01 -5.527524153099999893e+00 3.766494398220000051e+01 -6.366176054304140131e-01 -1.001773440514547864e-01 7.646453584471968323e-01
-3.285835449950000253e+01 -5.025865547199999561e+00 3.738134845790000327e+01 -6.452918432322316544e-01 -8.957711961422554214e-02 7.586661826518745766e-01
-3.326188075540000000e+01 -4.524884754300000367e+00 3.708938462009999881e+01 -6.537573238164018363e-01 -7.903566774680509388e-02 7.525654289031832311e-01
-3.365892016490000316e+01 -4.024575008200000248e+00 3.678913600370000125e+01 -6.620113263068044818e-01 -6.856099643193058757e-02 7.463513874910174817e-01
-3.404953813449999700e+01 -3.524929542699999807e+00 3.648068614369999807e+01 -6.699242535727586434e-01 -5.690134974859686889e-02 7.402457233052887053e-01
-3.443380007060000025e+01 -3.025941591800000108e+00 3.616411857479999981e+01 -6.777448644811912004e-01 -4.659303277600596038e-02 7.338194518858885962e-01
-3.481177137969999791e+01 -2.527604389299999976e+00 3.583951683189999926e+01 -6.853490935236924431e-01 -3.637416158352330120e-02 7.273056718982391367e-01
-3.518351746830000337e+01 -2.029911169200000032e+00 3.550696444999999812e+01 -6.927363794888989901e-01 -2.625139528002609635e-02 7.207129614336513779e-01
-3.554910374269999807e+01 -1.532855165199999981e+00 3.516654496400000340e+01 -6.999066566900438158e-01 -1.623102296163178582e-02 7.140498762793707765e-01
-3.590859560940000250e+01 -1.036429611199999989e+00 3.481834190859999723e+01 -7.068603345077044686e-01 -6.318954293919654130e-03 7.073249170758002524e-01
-3.626205847490000167e+01 -5.406277413000000198e-01 3.446243881880000259e+01 -7.144140267885588091e-01 3.255760465914969704e-03 6.997156553569066073e-01
-3.660955774570000187e+01 -4.544278909999999866e-02 3.409891922940000342e+01 -7.209208914148774738e-01 1.293571613748606408e-02 6.928966269001378686e-01
-3.695115882809999874e+01 4.491320113999999752e-01 3.372786667550000317e+01 -7.272150784630924125e-01 2.249191115579776690e-02 6.860410655263124990e-01
-3.728692712870000037e+01 9.431034262999999918e-01 3.334936469170000350e+01 -7.332986819639366605e-01 3.192000552455812046e-02 6.791569452470211932e-01
-3.761692805380000237e+01 1.436478221700000057e+00 3.296349681299999901e+01 -7.391741450712616679e-01 4.121604658248256836e-02 6.722520515121392926e-01
-3.794122700989999686e+01 1.929263163799999958e+00 3.257034657439999847e+01 -7.448442328426900794e-01 5.037646382445537530e-02 6.653339617767366487e-01
-3.825988940349999723e+01 2.421465018600000185e+00 3.216999751059999824e+01 -7.468872604165974760e-01 5.895924801180804642e-02 6.623316595945503149e-01
-3.857298064100000090e+01 2.913090552399999922e+00 3.176253315650000175e+01 -7.488187572920648183e-01 6.514957748946906269e-02 6.595650091389867464e-01
-3.888056612879999818e+01 3.404146531199999881e+00 3.134803704710000005e+01 -7.508021515476874796e-01 7.184752370520597342e-02 6.566079976430326814e-01
-3.918271127349999716e+01 3.894639721199999904e+00 3.092659271719999836e+01 -7.532427551789234732e-01 7.643680091032889479e-02 6.532861296836625087e-01
-3.947948148140000058e+01 4.384576888399999817e+00 3.049828370170000014e+01 -7.557844361545862366e-01 8.088288077605487736e-02 6.498060061771211426e-01
2.948121823760000026e+01 -2.865529802200000020e+01 2.870121025119999913e+01 6.129566734155679208e-01 -5.368842030288100142e-01 5.796891141408819781e-01
2.922143909800000117e+01 -2.832828382110000121e+01 2.930207772509999842e+01 6.102585640330250305e-01 -5.340116304977938766e-01 5.851632793652022935e-01
2.895833845539999984e+01 -2.799642943750000157e+01 2.989610593580000142e+01 6.079169822046948113e-01 -5.308824984646525191e-01 5.904241827458163172e-01
2.869184571019999908e+01 -2.765963199169999953e+01 3.048314951320000077e+01 6.069042207612382889e-01 -5.252648470602001574e-01 5.964596442887135641e-01
2.842189026309999988e+01 -2.731778860460000047e+01 3.106306308670000149e+01 6.063566149306093278e-01 -5.188232643204639949e-01 6.026226646333099346e-01
2.814840151470000151e+01 -2.697079639669999906e+01 3.163570128619999977e+01 6.059195739404116265e-01 -5.119413415926256095e-01 6.089150455393694816e-01
2.787130886550000142e+01 -2.661855248859999890e+01 3.220091874119999886e+01 6.012158886158101012e-01 -5.051364626369367894e-01 6.191741349495669677e-01
2.759054171620000062e+01 -2.626095400110000000e+01 3.275857008149999672e+01 5.962892787698336194e-01 -4.980745178567024256e-01 6.295719741903742506e-01
2.730602946719999835e+01 -2.589789805470000061e+01 3.330850993669999838e+01 5.911331385948738193e-01 -4.907506946878426035e-01 6.400979363490976182e-01
2.701770151930000097e+01 -2.552928177020000078e+01 3.385059293650000001e+01 5.857410868628404321e-01 -4.831605789831343034e-01 6.507405274588486943e-01
2.672548727290000059e+01 -2.515500226820000051e+01 3.438467371059999778e+01 5.801070225050694029e-01 -4.753002146086197088e-01 6.614873758684312044e-01
2.642931612869999825e+01 -2.477495666920000161e+01 3.491060688870000206e+01 5.742251834771399110e-01 -4.671661650878491390e-01 6.723252284852603289e-01
2.612911748730000028e+01 -2.438904209409999879e+01 3.542824710040000014e+01 5.680902084799581697e-01 -4.587555767782292571e-01 6.832399547772887161e-01
2.582482074920000059e+01 -2.399715566340000095e+01 3.593744897540000238e+01 5.616972011549170585e-01 -4.500662428572071438e-01 6.942165593351473651e-01
2.551635531499999843e+01 -2.359919449779999923e+01 3.643806714339999786e+01 5.550417960689227881e-01 -4.410966674565259260e-01 7.052392037992012419e-01
2.520365058530000013e+01 -2.319505571799999899e+01 3.692995623409999695e+01 5.481202258908574043e-01 -4.318461290016093468e-01 7.162912388377238315e-01
2.488663596070000139e+01 -2.278463644449999848e+01 3.741297087710000113e+01 5.409293888692998653e-01 -4.223147418704573108e-01 7.273552468061081910e-01
2.456524084180000145e+01 -2.236783379810000127e+01 3.788696570209999948e+01 5.334669157766765979e-01 -4.125035152984184994e-01 7.384130955218541903e-01
2.423939462910000131e+01 -2.194454489940000030e+01 3.835179533889999703e+01 5.257312352484310169e-01 -4.024144084357094142e-01 7.494460035035857004e-01
2.390902672329999845e+01 -2.151466686899999914e+01 3.880731441700000062e+01 5.177216364453594011e-01 -3.920503804050402552e-01 7.604346167689912672e-01
2.357406652490000099e+01 -2.107809682770000137e+01 3.925337756609999929e+01 5.094383278883072297e-01 -3.814154341663062997e-01 7.713590970864958596e-01
2.323444343459999928e+01 -2.063473189600000168e+01 3.968983941599999810e+01 5.008824912256705231e-01 -3.705146529851578441e-01 7.821992213668165217e-01
2.289008685279999966e+01 -2.018446919459999833e+01 4.011655459629999854e+01 4.920563287235124594e-01 -3.593542284218799732e-01 7.929344915429359375e-01
2.254092618019999961e+01 -1.972720584409999844e+01 4.053337773669999677e+01 4.829631032720030914e-01 -3.479414786466291654e-01 8.035442541111682546e-01
2.218689081739999835e+01 -1.926283896529999851e+01 4.094016346680000140e+01 4.736071697113228285e-01 -3.362848561963424632e-01 8.140078281509554037e-01
2.182791016490000047e+01 -1.879126567879999854e+01 4.133676641640000327e+01 4.639939964206676870e-01 -3.243939442703198117e-01 8.243046404129497073e-01
2.146391362330000163e+01 -1.831238310510000034e+01 4.172304121509999675e+01 4.541301762003530640e-01 -3.122794409098862967e-01 8.344143657975007233e-01
2.109483059329999932e+01 -1.782608836500000038e+01 4.209884249249999755e+01 4.440234256288003722e-01 -2.999531306205411862e-01 8.443170713208405509e-01
2.072059047540000165e+01 -1.733227857920000048e+01 4.246402487839999651e+01 4.336825723119175358e-01 -2.874278431744472506e-01 8.539933614736143763e-01
2.034112267020000075e+01 -1.683085086819999887e+01 4.281844300249999691e+01 4.231175296032368416e-01 -2.747173996663074824e-01 8.634245227366641462e-01
1.995635657820000120e+01 -1.632170235279999915e+01 4.316195149440000023e+01 4.123392587025019873e-01 -2.618365461088293378e-01 8.725926649098478816e-01
1.956622160010000044e+01 -1.580473015349999955e+01 4.349440498370000086e+01 4.013597182214133641e-01 -2.488008751821685904e-01 8.814808569094476631e-01
1.917064713639999951e+01 -1.527983139110000010e+01 4.381565810029999852e+01 3.902312242342752535e-01 -2.438602072672848564e-01 8.878354526285687776e-01
1.876956258779999942e+01 -1.474690318610000084e+01 4.412556547370000004e+01 3.796842654386019533e-01 -2.389200368855187717e-01 8.937321044658577129e-01
1.836289735480000118e+01 -1.420584265930000001e+01 4.442398173360000158e+01 3.697599564118003723e-01 -2.324689276826319984e-01 8.995753288615859766e-01
1.795058083800000048e+01 -1.365654693129999941e+01 4.471076150969999929e+01 3.639040575208079553e-01 -2.262687710279893127e-01 9.035354338250248807e-01
1.753254243789999833e+01 -1.309891312270000086e+01 4.498575943169999647e+01 3.582610591336825023e-01 -2.197616555987173814e-01 9.073884660039066574e-01
2.897829128240000074e+01 -2.917628785429999994e+01 2.882524823789999857e+01 6.028018133050014882e-01 -5.480668136324456929e-01 5.798730392689248614e-01
2.871845232649999957e+01 -2.884918648749999903e+01 2.942599254479999971e+01 5.996420857505608826e-01 -5.451911291045615782e-01 5.858293281685462706e-01
2.845529186750000150e+01 -2.851724493789999926e+01 3.001989758859999924e+01 5.969264700252070455e-01 -5.421020031770334979e-01 5.914424803264416441e-01
2.818873930599999866e+01 -2.818036032630000065e+01 3.060681799889999866e+01 5.954549863976350554e-01 -5.366976529206780588e-01 5.978201974871940605e-01
2.791872404260000096e+01 -2.783842977320000145e+01 3.118660840549999946e+01 5.944939981898074155e-01 -5.305524810350186193e-01 6.042275655610919172e-01
2.764517547790000052e+01 -2.749135039929999991e+01 3.175912343799999960e+01 5.937310773140240805e-01 -5.240736251347464236e-01 6.105982666775703338e-01
2.736802301239999835e+01 -2.713901932530000138e+01 3.232421772600000054e+01 5.889483828749122463e-01 -5.173141658635664886e-01 6.209072846294431125e-01
2.708719604670000081e+01 -2.678133367190000058e+01 3.288174589930000025e+01 5.839427362779318065e-01 -5.102949174994396708e-01 6.313556667382353993e-01
2.680262398149999825e+01 -2.641819055959999929e+01 3.343156258749999665e+01 5.787076511104887189e-01 -5.030108367673591374e-01 6.419326698656036001e-01
2.651423621720000057e+01 -2.604948710909999932e+01 3.397352242040000192e+01 5.732368749149037157e-01 -4.954572764837463228e-01 6.526266715489826842e-01
2.622196215450000167e+01 -2.567512044120000070e+01 3.450748002750000154e+01 5.675244451265352152e-01 -4.876300465683359731e-01 6.634251592060562697e-01
2.592573119400000081e+01 -2.529498767629999989e+01 3.503329003849999879e+01 5.615647482350953901e-01 -4.795254772486587935e-01 6.743147263771567257e-01
2.562547273619999899e+01 -2.490898593529999872e+01 3.555080708330000050e+01 5.553525817698974354e-01 -4.711404839361062469e-01 6.852810768713528677e-01
2.532111618180000079e+01 -2.451701233860000073e+01 3.605988579129999749e+01 5.488832186450575135e-01 -4.624726330738361257e-01 6.963090376747922416e-01
2.501259093130000011e+01 -2.411896400710000066e+01 3.656038079230000193e+01 5.421524732516892486e-01 -4.535202082219324526e-01 7.073825814093892550e-01
2.469982638529999974e+01 -2.371473806130000028e+01 3.705214671600000287e+01 5.351567685823072074e-01 -4.442822754752720482e-01 7.184848590882464414e-01
2.438275194439999893e+01 -2.330423162190000141e+01 3.753503819200000180e+01 5.278932035823818980e-01 -4.347587472611515458e-01 7.295982437557284594e-01
2.406129700920000047e+01 -2.288734180959999875e+01 3.800890985009999667e+01 5.203596197855689942e-01 -4.249504434450442902e-01 7.407043855091436368e-01
2.373539098019999827e+01 -2.246396574490000120e+01 3.847361631980000141e+01 5.125546662102307138e-01 -4.148591485925626210e-01 7.517842782176101801e-01
2.340496325810000044e+01 -2.203400054860000168e+01 3.892901223089999974e+01 5.044778613979424842e-01 -4.044876642223162455e-01 7.628183380408031233e-01
2.306994324340000091e+01 -2.159734334139999845e+01 3.937495221310000204e+01 4.961296514311778760e-01 -3.938398547810877948e-01 7.737864936510523428e-01
2.273026033669999890e+01 -2.115389124369999863e+01 3.981129089600000270e+01 4.875114626978729326e-01 -3.829206861521008975e-01 7.846682877847075410e-01
2.238584393860000077e+01 -2.070354137640000047e+01 4.023788290929999789e+01 4.786257481647976375e-01 -3.717362554780704875e-01 7.954429895076267076e-01
2.203662344960000041e+01 -2.024619085999999868e+01 4.065458288269999798e+01 4.694760259562101856e-01 -3.602938111745886407e-01 8.060897162733524635e-01
2.168252827050000064e+01 -1.978173681530000039e+01 4.106124544579999736e+01 4.600669090486876334e-01 -3.486017620997947097e-01 8.165875645999667309e-01
2.132348780170000069e+01 -1.931007636280000028e+01 4.145772522840000107e+01 4.504041250351351056e-01 -3.366696750008286165e-01 8.269157478765116753e-01
2.095943144379999978e+01 -1.883110662320000017e+01 4.184387686010000351e+01 4.404945249864021251e-01 -3.245082595239502377e-01 8.370537395876926912e-01
2.059028859749999896e+01 -1.834472471719999831e+01 4.221955497060000084e+01 4.303460806286262819e-01 -3.121293403229095098e-01 8.469814199834407864e-01
2.021598866329999922e+01 -1.785082776539999827e+01 4.258461418950000166e+01 4.199678692817225278e-01 -2.995458159748988214e-01 8.566792240406568837e-01
1.983646104170000157e+01 -1.734931288849999831e+01 4.293890914659999680e+01 4.093700461535560997e-01 -2.867716047641002963e-01 8.661282884268693971e-01
1.945163513339999994e+01 -1.684007720720000023e+01 4.328229447140000019e+01 3.985638039620935102e-01 -2.738215776338880358e-01 8.753105950423283321e-01
1.906144033900000068e+01 -1.632301784199999872e+01 4.361462479379999735e+01 3.875613199951334353e-01 -2.607114788824191898e-01 8.842091087647601100e-01
1.866580605900000123e+01 -1.579803191359999914e+01 4.393575474339999687e+01 3.771259092304500293e-01 -2.553513962004118065e-01 8.902649678863066018e-01
1.826466169409999907e+01 -1.526501654269999975e+01 4.424553894980000024e+01 3.671433160209713886e-01 -2.497639573007481295e-01 8.960043253994900425e-01
1.785793664479999876e+01 -1.472386885000000056e+01 4.454383204269999652e+01 3.579295841887087937e-01 -2.429330975951471683e-01 9.015929917958128703e-01
1.744556031160000131e+01 -1.417448595599999983e+01 4.483048865180000320e+01 3.521194822245302114e-01 -2.361981069697128843e-01 9.056612636642096259e-01
1.702746209529999888e+01 -1.361676498149999937e+01 4.510536340680000222e+01 3.464588177381828227e-01 -2.289741175543544560e-01 9.096906842997047882e-01
2.846561868079999869e+01 -2.968307607130000036e+01 2.892921909309999862e+01 5.927251999453291287e-01 -5.590027516878026681e-01 5.798213181276060668e-01
2.820571990859999900e+01 -2.935588753860000111e+01 2.952984023300000160e+01 5.892023468991175461e-01 -5.560655564348591096e-01 5.862010673441002684e-01
2.794249963329999886e+01 -2.902385882309999943e+01 3.012362210979999944e+01 5.861869621583178924e-01 -5.529644132863774653e-01 5.921276914943727210e-01
2.767588725550000106e+01 -2.868688704550000068e+01 3.071041935319999894e+01 5.843475733417962115e-01 -5.476677868841784980e-01 5.988304507445662006e-01
2.740581217580000128e+01 -2.834486932649999957e+01 3.129008659269999981e+01 5.830551384684053984e-01 -5.416825631672943508e-01 6.054970737056446506e-01
2.713220379470000054e+01 -2.799770278669999968e+01 3.186247845819999824e+01 5.820146520873838991e-01 -5.354373464440728148e-01 6.120178043068121854e-01
2.685499151289999986e+01 -2.764528454679999925e+01 3.242744957930000282e+01 5.771641645625952277e-01 -5.287134425758143186e-01 6.223693620225795309e-01
2.657410473090000025e+01 -2.728751172739999831e+01 3.298485458559999728e+01 5.720908618070816853e-01 -5.217272324647654891e-01 6.328607593629794748e-01
2.628947284939999918e+01 -2.692428144919999866e+01 3.353454810680000264e+01 5.667883789386300997e-01 -5.144734636432616304e-01 6.434811486803831970e-01
2.600102526879999942e+01 -2.655549083280000033e+01 3.407638477270000266e+01 5.612505937816270052e-01 -5.069472780369806975e-01 6.542187923551777695e-01
2.570869138979999846e+01 -2.618103699890000158e+01 3.461021921279999702e+01 5.554716830740735745e-01 -4.991442742811181832e-01 6.650610519006745491e-01
2.541240061299999908e+01 -2.580081706809999886e+01 3.513590605689999791e+01 5.494461818272051712e-01 -4.910605723753767582e-01 6.759943842472903031e-01
2.511208233889999875e+01 -2.541472816110000110e+01 3.565329993459999969e+01 5.431690454520816669e-01 -4.826928801335838015e-01 6.870043460786984246e-01
2.480766596810000024e+01 -2.502266739859999944e+01 3.616225547559999853e+01 5.366357141677214893e-01 -4.740385607233859599e-01 6.980756070992599760e-01
2.449908090130000105e+01 -2.462453190109999923e+01 3.666262730969999950e+01 5.298421790497694905e-01 -4.650957005531045629e-01 7.091919730417207690e-01
2.418625653899999861e+01 -2.422021878940000050e+01 3.715427006640000229e+01 5.227850490198758804e-01 -4.558631765784838530e-01 7.203364191550083451e-01
2.386912228179999929e+01 -2.380962518409999973e+01 3.763703837540000308e+01 5.154616179234620121e-01 -4.463407220465057668e-01 7.314911347998215296e-01
2.354760753020000053e+01 -2.339264820580000048e+01 3.811078686649999980e+01 5.078699307564951138e-01 -4.365289895912601859e-01 7.426375796307552735e-01
2.322164168489999980e+01 -2.296918497520000102e+01 3.857537016919999928e+01 5.000088480043646255e-01 -4.264296104839712109e-01 7.537565516928108611e-01
2.289115414649999991e+01 -2.253913261299999959e+01 3.903064291340000125e+01 4.918781069542226825e-01 -4.160452488419335570e-01 7.648282675314659329e-01
2.255607431549999831e+01 -2.210238823979999978e+01 3.947645972849999652e+01 4.834783788014729855e-01 -4.053796495079177720e-01 7.758324542040871963e-01
2.221633159239999955e+01 -2.165884897620000160e+01 3.991267524439999903e+01 4.748113203368172774e-01 -3.944376783281072218e-01 7.867484528075928685e-01
2.187185537799999935e+01 -2.120841194300000154e+01 4.033914409079999785e+01 4.658796189365240759e-01 -3.832253536251773451e-01 7.975553328756675997e-01
2.152257507279999871e+01 -2.075097426070000139e+01 4.075572089709999801e+01 4.566870296755942138e-01 -3.717498676418550807e-01 8.082320167095251584e-01
2.116842007729999864e+01 -2.028643304999999941e+01 4.116226029330000102e+01 4.472384033841120821e-01 -3.600195969485223135e-01 8.187574123948153648e-01
2.080931979220000017e+01 -1.981468543160000095e+01 4.155861690889999949e+01 4.375397045921322059e-01 -3.480441008284579918e-01 8.291105540179426470e-01
2.044520361800000074e+01 -1.933562852609999894e+01 4.194464537359999667e+01 4.275980184109147708e-01 -3.358341069609855345e-01 8.392707472876534958e-01
2.007600095540000140e+01 -1.884915945410000049e+01 4.232020031710000296e+01 4.174215456274598668e-01 -3.234014838568934347e-01 8.492177185416834861e-01
1.970164120480000136e+01 -1.835517533639999854e+01 4.268513636899999852e+01 4.070195854128654811e-01 -3.107591997912151349e-01 8.589317649472877347e-01
1.932205376699999988e+01 -1.785357329360000023e+01 4.303930815910000263e+01 3.958003233102687091e-01 -3.006370778373038122e-01 8.677323616743434220e-01
1.893716804239999973e+01 -1.734425044629999846e+01 4.338257031700000255e+01 3.849838442112810677e-01 -2.876278949839498611e-01 8.769593113271596518e-01
1.854691343160000017e+01 -1.682710391519999860e+01 4.371477747240000156e+01 3.739753776907603355e-01 -2.744516024636963758e-01 8.858999575494754808e-01
1.815121933529999865e+01 -1.630203082090000066e+01 4.403578425490000114e+01 3.645889931534960215e-01 -2.659460693933228814e-01 8.923830759520049449e-01
1.775001515410000152e+01 -1.576892828409999936e+01 4.434544529440000105e+01 3.549542738553737031e-01 -2.598130647951254479e-01 8.980560310100746957e-01
1.734323028840000092e+01 -1.522769342540000004e+01 4.464361522029999918e+01 3.462385284414269959e-01 -2.530806593528081017e-01 9.033654085054745320e-01
1.693079413899999963e+01 -1.467822336549999918e+01 4.493014866240000060e+01 3.402647996594781454e-01 -2.453244784223627961e-01 9.077641579174026143e-01
1.651263610630000045e+01 -1.412041522500000035e+01 4.520490025040000148e+01 3.345220086829166495e-01 -2.374304206790008864e-01 9.119878404030059560e-01
2.794362600099999838e+01 -3.017628282220000102e+01 2.901399909839999935e+01 5.823621368413639532e-01 -5.726066729107973652e-01 5.770406742263384237e-01
2.768366741250000018e+01 -2.984900712359999986e+01 2.961449707130000064e+01 5.784749058746799788e-01 -5.691217407725820410e-01 5.843519722335726030e-01
2.742038732090000153e+01 -2.951689124210000159e+01 3.020815578119999856e+01 5.751574779785703084e-01 -5.656824141489320557e-01 5.909291682155879410e-01
2.715371512680000166e+01 -2.917983229860000094e+01 3.079482985750000168e+01 5.729533438621201569e-01 -5.602465034319167314e-01 5.982042470172930226e-01
2.688358023079999981e+01 -2.883772741370000148e+01 3.137437393009999909e+01 5.713238539885574507e-01 -5.542466430464879634e-01 6.053096005643393562e-01
2.660991203340000055e+01 -2.849047370799999968e+01 3.194664262859999937e+01 5.681881804123237734e-01 -5.484704476320462208e-01 6.134674887180536773e-01
2.633263993530000135e+01 -2.813796830209999911e+01 3.251149058269999870e+01 5.632497922656094502e-01 -5.417966703509151660e-01 6.238637988450762561e-01
2.605169333699999967e+01 -2.778010831679999981e+01 3.306877242200000211e+01 5.580888807890060921e-01 -5.348578387272043821e-01 6.344004204693896032e-01
2.576700163909999830e+01 -2.741679087269999826e+01 3.361834277620000222e+01 5.526992398279894081e-01 -5.276484599565297584e-01 6.450663942564867082e-01
2.547849424220000003e+01 -2.704791309040000158e+01 3.416005627509999698e+01 5.470749167243702527e-01 -5.201634328723998557e-01 6.558498597952304721e-01
2.518610054690000055e+01 -2.667337209049999913e+01 3.469376754820000031e+01 5.412102687017433800e-01 -5.123981116937127434e-01 6.667380446505989378e-01
2.488974995370000087e+01 -2.629306499380000162e+01 3.521933122530000304e+01 5.351000223486964691e-01 -5.043483722493358190e-01 6.777172607303653118e-01
2.458937186329999847e+01 -2.590688892089999840e+01 3.573660193599999957e+01 5.287393357712945052e-01 -4.960106801457478398e-01 6.887729088672716049e-01
2.428489567629999968e+01 -2.551474099240000015e+01 3.624543431010000205e+01 5.221238628924010916e-01 -4.873821601787879931e-01 6.998894925184799831e-01
2.397625079310000018e+01 -2.511651832900000159e+01 3.674568297710000309e+01 5.152498192961317836e-01 -4.784606662083824014e-01 7.110506413798768355e-01
2.366336661449999923e+01 -2.471211805140000095e+01 3.723720256680000062e+01 5.081140488472360994e-01 -4.692448505459475006e-01 7.222391457129555548e-01
2.334617254089999960e+01 -2.430143728010000004e+01 3.771984770889999794e+01 5.007140902419024986e-01 -4.597342318853878118e-01 7.334370019749321123e-01
2.302459797310000056e+01 -2.388437313589999889e+01 3.819347303299999652e+01 4.930482425481314546e-01 -4.499292606115743443e-01 7.446254702638909206e-01
2.269857231150000132e+01 -2.346082273940000107e+01 3.865793316869999785e+01 4.851156286532143924e-01 -4.398313802920939541e-01 7.557851439045015773e-01
2.236802495670000113e+01 -2.303068321130000129e+01 3.911308274590000167e+01 4.769162554907468432e-01 -4.294430841121243403e-01 7.668960312564875315e-01
2.203288530929999922e+01 -2.259385167210000134e+01 3.955877639410000057e+01 4.684510698726126465e-01 -4.187679649041796681e-01 7.779376496257374152e-01
2.169308277000000018e+01 -2.215022524260000125e+01 3.999486874299999783e+01 4.597220086607584633e-01 -4.078107574930546209e-01 7.888891308833316796e-01
2.134854673930000146e+01 -2.169970104340000105e+01 4.042121442229999673e+01 4.507320420661762861e-01 -3.965773720633916088e-01 7.997293381026789882e-01
2.099920661770000052e+01 -2.124217619519999900e+01 4.083766806170000052e+01 4.414852088458822710e-01 -3.850749173272333126e-01 8.104369922552475680e-01
2.064499180600000017e+01 -2.077754781859999866e+01 4.124408429089999828e+01 4.319866422653824145e-01 -3.733117123992789055e-01 8.209908076767963303e-01
2.028583170450000139e+01 -2.030571303429999830e+01 4.164031773949999859e+01 4.222425857723745013e-01 -3.612972864003030637e-01 8.313696347594351499e-01
1.992165571399999990e+01 -1.982656896279999970e+01 4.202622303719999763e+01 4.122603974675732030e-01 -3.490423650166836200e-01 8.415526080426812827e-01
1.955239323509999849e+01 -1.934001272500000113e+01 4.240165481369999867e+01 4.020485426578839783e-01 -3.365588434961805375e-01 8.515192976152596849e-01
1.917797366819999993e+01 -1.884594144129999904e+01 4.276646769860000319e+01 3.916165739822338732e-01 -3.238597457634279642e-01 8.612498615712314010e-01
1.879832641400000171e+01 -1.834425223259999882e+01 4.312051632170000204e+01 3.809127386612320976e-01 -3.125368148202521956e-01 8.701874653818056915e-01
1.841338087309999949e+01 -1.783484221930000047e+01 4.346365531259999671e+01 3.700780744911251752e-01 -2.994621260892336156e-01 8.794115383704361744e-01
1.802306644600000141e+01 -1.731760852229999870e+01 4.379573930099999757e+01 3.590575405401969511e-01 -2.862155857965686945e-01 8.883458341368815070e-01
1.762731253340000137e+01 -1.679244826200000062e+01 4.411662291660000079e+01 3.498828020872349898e-01 -2.757771738573940867e-01 8.952815061101248029e-01
1.722604853580000039e+01 -1.625925855930000097e+01 4.442616078900000076e+01 3.403565793693354991e-01 -2.690020901224204897e-01 9.009968226302323968e-01
1.681920385389999950e+01 -1.571793653469999974e+01 4.472420754800000253e+01 3.315670979052008360e-01 -2.615446433223065359e-01 9.064533408488991695e-01
1.640670788810000147e+01 -1.516837930890000052e+01 4.501061782309999870e+01 3.253410922399483929e-01 -2.534241590789461096e-01 9.110045934545261126e-01
1.598849003910000022e+01 -1.461048400249999979e+01 4.528524624420000322e+01 3.187771144929114620e-01 -2.440102433972206608e-01 9.158821716753760001e-01
2.741273881120000055e+01 -3.065652825629999967e+01 2.908046453549999910e+01 5.716068992193074072e-01 -5.873924015272309340e-01 5.729185975275725706e-01
2.715272040629999850e+01 -3.032916539160000013e+01 2.968083934139999869e+01 5.675460866878619948e-01 -5.830530113602632181e-01 5.813266082238301991e-01
2.688938049840000133e+01 -2.999696234430000175e+01 3.027437488429999846e+01 5.640463982574880353e-01 -5.790474849820845815e-01 5.886897916124228525e-01
2.662264848799999939e+01 -2.965981623489999919e+01 3.086092579359999988e+01 5.615792315788181721e-01 -5.732667738318865114e-01 5.966523046798065666e-01
2.635245377560000080e+01 -2.931762418399999959e+01 3.144034669919999914e+01 5.578210295943599739e-01 -5.673810707405154696e-01 6.057346114492998534e-01
2.607872576189999947e+01 -2.897028331230000120e+01 3.201249223069999772e+01 5.537651251879044390e-01 -5.616431267638729574e-01 6.147366788182764274e-01
2.580139384750000175e+01 -2.861769074060000051e+01 3.257721701780000245e+01 5.487419145150954636e-01 -5.550147086375613048e-01 6.251727636823843914e-01
2.552038743290000156e+01 -2.825974358930000108e+01 3.313437569010000061e+01 5.434966786597812405e-01 -5.481185286792917832e-01 6.357495094801370872e-01
2.523563591870000167e+01 -2.789633897919999939e+01 3.368382287739999725e+01 5.380233868304143963e-01 -5.409488592386555439e-01 6.464558507059300352e-01
2.494706870539999954e+01 -2.752737403100000080e+01 3.422541320930000097e+01 5.323162727519872295e-01 -5.335003618939702097e-01 6.572798107521901079e-01
2.465461519380000155e+01 -2.715274586520000000e+01 3.475900131539999904e+01 5.263698911572662897e-01 -5.257681525875160800e-01 6.682084909725393151e-01
2.435820478440000159e+01 -2.677235160260000058e+01 3.528444182549999653e+01 5.201791772616159992e-01 -5.177478694134179937e-01 6.792280671919369572e-01
2.405776687759999888e+01 -2.638608836370000077e+01 3.580158936929999669e+01 5.137395088015855871e-01 -5.094357424660017619e-01 6.903237946025179150e-01
2.375323087430000157e+01 -2.599385326930000062e+01 3.631029857629999924e+01 5.070467700956612367e-01 -5.008286650761321068e-01 7.014800219347782084e-01
2.344452617480000001e+01 -2.559554344000000015e+01 3.681042407639999681e+01 5.000974175033617852e-01 -4.919242656205661257e-01 7.126802157350342615e-01
2.313158217990000054e+01 -2.519105599639999937e+01 3.730182049910000330e+01 4.928885454974035185e-01 -4.827209789537506568e-01 7.239069955425120328e-01
2.281432828999999884e+01 -2.478028805929999834e+01 3.778434247420000247e+01 4.854179525142161555e-01 -4.732181164290639730e-01 7.351421805747749838e-01
2.249269390579999950e+01 -2.436313674910000060e+01 3.825784463120000112e+01 4.776842055858767644e-01 -4.634159333705905048e-01 7.463668484278052073e-01
2.216660842790000174e+01 -2.393949918670000088e+01 3.872218159999999898e+01 4.696867026803375755e-01 -4.533156927132305780e-01 7.575614061349721373e-01
2.183600125679999948e+01 -2.350927249260000096e+01 3.917720801019999755e+01 4.614257316522901164e-01 -4.429197235716395564e-01 7.687056736101089971e-01
2.150080179309999906e+01 -2.307235378749999910e+01 3.962277849139999830e+01 4.529025245442719894e-01 -4.322314733304001844e-01 7.797789794063806346e-01
2.116093943750000150e+01 -2.262864019210000066e+01 4.005874767329999742e+01 4.441193060508060730e-01 -4.212555519491142930e-01 7.907602683146122136e-01
2.081634359039999893e+01 -2.217802882699999856e+01 4.048497018569999994e+01 4.350793348940286687e-01 -4.099977671280697900e-01 8.016282201233728699e-01
2.046694365260000126e+01 -2.172041681279999992e+01 4.090130065809999849e+01 4.257869369104620993e-01 -3.984651490828516329e-01 8.123613785273072763e-01
