-1.830845998610000080e+01 3.157020592849999829e+01 3.358177171359999846e+01 -3.643377421809597672e-01 6.210680583150897105e-01 6.939254113831001547e-01
-1.760596221329999977e+01 3.201603994149999721e+01 3.354207650250000228e+01 -3.526971080206334763e-01 6.272717726448284736e-01 6.943593257362474791e-01
-1.689867224449999838e+01 3.245493683910000016e+01 3.349200728209999767e+01 -3.428292707816459339e-01 6.318859217419221519e-01 6.951174526651495711e-01
-1.618658868729999867e+01 3.288689460559999844e+01 3.343156103830000347e+01 -3.332604161019818712e-01 6.366082408477882204e-01 6.954620354442203611e-01
-1.546971014930000088e+01 3.331191122570000118e+01 3.336073475709999769e+01 -3.252686887048691911e-01 6.410948513185757980e-01 6.951242131885699838e-01
-2.732777842530000001e+01 2.561083488399999908e+01 3.255663909759999797e+01 -5.200303220301198959e-01 5.217732961133201286e-01 6.762551971203558665e-01
-2.668749135870000089e+01 2.614672423800000089e+01 3.265161584770000047e+01 -5.124803877895849347e-01 5.280458068125990501e-01 6.771495241367803120e-01
-2.604243019649999979e+01 2.667570267840000042e+01 3.273625777169999651e+01 -5.054917950311558217e-01 5.337673237795124148e-01 6.779162848179982603e-01
-2.539259354620000053e+01 2.719776818969999965e+01 3.281056185570000139e+01 -4.967182231280798943e-01 5.408221571776028469e-01 6.788095470146593424e-01
-2.473798001569999983e+01 2.771291875640000058e+01 3.287452508540000196e+01 -4.876431031813761030e-01 5.479833414518364698e-01 6.796458352781379331e-01
-2.407858821239999969e+01 2.822115236289999984e+01 3.292814444679999752e+01 -4.751869862966040525e-01 5.576264783791228252e-01 6.806247414433657106e-01
-2.341441674420000041e+01 2.872246699380000123e+01 3.297141692579999983e+01 -4.625786327275739351e-01 5.671560054925911531e-01 6.814360380678264884e-01
-2.274546421859999867e+01 2.921686063350000140e+01 3.300433950829999930e+01 -4.498265550328886531e-01 5.765638168188311763e-01 6.820778808336660504e-01
-2.207172924329999830e+01 2.970433126640000054e+01 3.302690918009999876e+01 -4.369396478379362070e-01 5.858420291380324052e-01 6.825487975542062768e-01
-2.139321042590000133e+01 3.018487687709999889e+01 3.303912292729999933e+01 -4.239271575358313227e-01 5.949830142638764530e-01 6.828476973974961783e-01
-2.070990637419999914e+01 3.065849545000000020e+01 3.304097773569999674e+01 -4.107986494911766151e-01 6.039794300003913374e-01 6.829738777673913797e-01
-2.002181569580000087e+01 3.112518496959999936e+01 3.303247059120000273e+01 -3.975639730383025428e-01 6.128242494436989540e-01 6.829270287781608051e-01
-1.932893699830000145e+01 3.158494342030000013e+01 3.301359847970000061e+01 -3.842332245557578685e-01 6.215107884039692276e-01 6.827072352370092689e-01
-1.863126888949999937e+01 3.203776878659999738e+01 3.298435838710000212e+01 -3.713394754399900188e-01 6.293679546269197456e-01 6.826441032255978758e-01
-1.792880997689999845e+01 3.248365905299999667e+01 3.294474729939999946e+01 -3.602801670436642234e-01 6.354665262996900266e-01 6.829205628677427198e-01
-1.722155886819999893e+01 3.292261220400000354e+01 3.289476220230000081e+01 -3.498673369175354653e-01 6.404659313048357561e-01 6.836638336171229069e-01
-1.650951417119999931e+01 3.335462622400000043e+01 3.283440008190000015e+01 -3.397696556478048691e-01 6.456307841834210137e-01 6.838987290642324357e-01
-1.579267449339999985e+01 3.377969909749999999e+01 3.276365792400000032e+01 -3.312695919823246959e-01 6.505366772920621043e-01 6.834197018857939288e-01
-2.764529864760000066e+01 2.607074192199999985e+01 3.194777698520000087e+01 -5.235387895226101262e-01 5.312395861003751385e-01 6.661018225655163105e-01
-2.700505044120000164e+01 2.660668752930000025e+01 3.204283785860000222e+01 -5.165053917781657900e-01 5.373037069243845609e-01 6.667285105568817594e-01
-2.636002813909999887e+01 2.713572222310000015e+01 3.212756390610000068e+01 -5.098120036322815185e-01 5.428887929012894409e-01 6.673555869958829323e-01
-2.571023034899999971e+01 2.765784398790000154e+01 3.220195211339999730e+01 -5.027465096131431554e-01 5.497421412032097443e-01 6.671053329550830080e-01
-2.505565567860000087e+01 2.817305080799999928e+01 3.226599946639999672e+01 -4.936994447068334679e-01 5.568978683688132758e-01 6.679263600895207764e-01
-2.439630273550000084e+01 2.868134066800000070e+01 3.231970295120000003e+01 -4.812808709583258349e-01 5.665308236015920151e-01 6.688882934832222071e-01
-2.373217012739999987e+01 2.918271155229999891e+01 3.236305955360000297e+01 -4.687092339076706637e-01 5.760485473391609990e-01 6.696862886143978288e-01
-2.306325646199999824e+01 2.967716144530000122e+01 3.239606625940000129e+01 -4.559929682637984261e-01 5.854429650677623886e-01 6.703185418490504865e-01
-2.238956034679999973e+01 3.016468833169999897e+01 3.241872005460000139e+01 -4.431408907933285790e-01 5.947062275444537915e-01 6.707836117756152960e-01
-2.171108038970000109e+01 3.064529019580000124e+01 3.243101792520000259e+01 -4.301621704764074239e-01 6.038307428420816025e-01 6.710804281826476814e-01
-2.102781519810000077e+01 3.111896502209999937e+01 3.243295685689999885e+01 -4.170662961782915512e-01 6.128092070420881887e-01 6.712082987840426451e-01
-2.033976337980000082e+01 3.158571079509999890e+01 3.242453383579999837e+01 -4.038630421253811553e-01 6.216346332897925153e-01 6.711669135914685169e-01
-1.964692354250000150e+01 3.204552549919999649e+01 3.240574584760000221e+01 -3.905624314433107092e-01 6.303003789428014425e-01 6.709563469031722960e-01
-1.894929429380000130e+01 3.249840711899999945e+01 3.237658987839999725e+01 -3.781697584248667754e-01 6.377063614915787770e-01 6.710575462104942934e-01
-1.824687424140000047e+01 3.294435363880000267e+01 3.233706291400000055e+01 -3.687497115511403911e-01 6.421903990516493188e-01 6.720231704315217103e-01
-1.753966199290000105e+01 3.338336304319999925e+01 3.228716194030000253e+01 -3.575449956236870785e-01 6.475296590555911225e-01 6.729538741606349017e-01
-1.682765615599999975e+01 3.381543331660000007e+01 3.222688394330000250e+01 -3.468224246577464864e-01 6.529063170837478003e-01 6.733702895633714158e-01
-1.611085533829999861e+01 3.424056244349999645e+01 3.215622590880000331e+01 -3.379513301699649808e-01 6.575956629698676004e-01 6.733177871403456249e-01
-2.795803384219999899e+01 2.652372222139999991e+01 3.132855638159999856e+01 -5.281633866566673996e-01 5.404121859332272626e-01 6.549794701288207399e-01
-2.731782449600000007e+01 2.705972408219999892e+01 3.142370137840000055e+01 -5.213338706447060433e-01 5.463656446354363538e-01 6.555116914904819403e-01
-2.667284105410000095e+01 2.758881502939999919e+01 3.150851154920000141e+01 -5.147306800592568177e-01 5.518822634709954489e-01 6.561084470359040965e-01
-2.602308212419999833e+01 2.811099304749999916e+01 3.158298387980000044e+01 -5.076610859902681572e-01 5.586937769079591831e-01 6.558517251753638311e-01
-2.536854631390000137e+01 2.862625612109999906e+01 3.164711535629999872e+01 -4.996036742759771832e-01 5.656313474260509233e-01 6.560924839219948179e-01
-2.470923223100000143e+01 2.913460223450000086e+01 3.170090296440000088e+01 -4.872252506437055319e-01 5.752513210452008252e-01 6.570368884400098475e-01
-2.404513848310000057e+01 2.963602937219999944e+01 3.174434369009999912e+01 -4.746930671050029749e-01 5.847545560972755574e-01 6.578211011862749036e-01
-2.337626367780000081e+01 3.013053551870000035e+01 3.177743451930000163e+01 -4.620154756282515707e-01 5.941330161531492848e-01 6.584433608115145553e-01
-2.270260642279999885e+01 3.061811865849999847e+01 3.180017243789999881e+01 -4.492012097259658332e-01 6.033788922069578398e-01 6.589022580169483501e-01
-2.202416532570000030e+01 3.109877677600000112e+01 3.181255443179999887e+01 -4.362593550862417513e-01 6.124846344291475786e-01 6.591967442940914745e-01
-2.134093899439999831e+01 3.157250785569999962e+01 3.181457748689999931e+01 -4.231993177393251204e-01 6.214429825766174531e-01 6.593261384711270878e-01
-2.065292603620000023e+01 3.203930988209999953e+01 3.180623858910000124e+01 -4.100307900392374805e-01 6.302469947435652697e-01 6.592901310019003702e-01
-1.996012505910000101e+01 3.249918083960000104e+01 3.178753472429999860e+01 -3.967637147323122560e-01 6.388900742320733350e-01 6.590887859154881401e-01
-1.926253467049999912e+01 3.295211871280000082e+01 3.175846287850000138e+01 -3.852849044000783429e-01 6.452241620791218102e-01 6.597282191256620409e-01
-1.856015347829999840e+01 3.339812148600000086e+01 3.171902003739999998e+01 -3.755562031839697612e-01 6.499708146172280543e-01 6.606780444330339064e-01
-1.785298008990000085e+01 3.383718714380000137e+01 3.166920318709999904e+01 -3.661057477907820878e-01 6.548085400105847498e-01 6.612052308956415381e-01
-1.714101311319999965e+01 3.426931367059999900e+01 3.160900931340000142e+01 -3.543792075248074491e-01 6.607287758676012590e-01 6.617045126146495759e-01
-2.826598248069999997e+01 2.696977356960000094e+01 3.069897397769999969e+01 -5.337927523516412531e-01 5.490363064155850958e-01 6.431364021530665553e-01
-2.762581199459999937e+01 2.750583168380000032e+01 3.079420309789999877e+01 -5.268146897194019296e-01 5.550492954813710522e-01 6.437286402526172235e-01
-2.698086741290000035e+01 2.803497888440000096e+01 3.087909739199999848e+01 -5.200965515099759129e-01 5.606031123798979054e-01 6.443785591540135416e-01
-2.633114734309999960e+01 2.855721315599999954e+01 3.095365384600000169e+01 -5.128787003227907038e-01 5.674497193637625392e-01 6.441709825420518509e-01
-2.567665039299999918e+01 2.907253248290000158e+01 3.101786944579999883e+01 -5.045653265009313326e-01 5.744654456734845649e-01 6.445178686585604222e-01
-2.501737517029999935e+01 2.958093484970000020e+01 3.107174117730000162e+01 -4.930176147769897432e-01 5.837837752812219394e-01 6.450814950361013489e-01
-2.435332028250000036e+01 3.008241824079999915e+01 3.111526602640000050e+01 -4.805275424221152614e-01 5.932698735788716204e-01 6.458514829877466390e-01
-2.368448433729999891e+01 3.057698064079999867e+01 3.114844097889999830e+01 -4.678914078212561001e-01 6.026298506153139334e-01 6.464633737764324817e-01
-2.301086594250000061e+01 3.106462003400000071e+01 3.117126302089999967e+01 -4.551178561091948072e-01 6.118559437120720812e-01 6.469157914248034880e-01
-2.233246370559999860e+01 3.154533440490000018e+01 3.118372913820000036e+01 -4.422158840836498128e-01 6.209406508157561122e-01 6.472077101121564979e-01
-2.164927623439999849e+01 3.201912173800000261e+01 3.118583631659999966e+01 -4.291948088916375803e-01 6.298767605826315341e-01 6.473384605431697914e-01
-2.096130213649999874e+01 3.248598001780000288e+01 3.117758154219999867e+01 -4.160642345639660178e-01 6.386573808031421606e-01 6.473077341283444142e-01
-2.026854001950000139e+01 3.294590722880000300e+01 3.115896180080000022e+01 -4.033579629846605896e-01 6.466216984761358200e-01 6.474432274390569120e-01
-1.957098849109999961e+01 3.339890135539999960e+01 3.112997407829999830e+01 -3.924588338322950176e-01 6.528346963224731514e-01 6.479065696723095291e-01
-1.886864615889999897e+01 3.384496038199999646e+01 3.109061536060000108e+01 -3.822018208790590177e-01 6.579692448557212803e-01 6.488437723679896241e-01
-1.816151163079999975e+01 3.428408229320000089e+01 3.104088263359999900e+01 -3.722349894769453882e-01 6.632481242392042065e-01 6.492634583143234162e-01
-1.744958351420000042e+01 3.471626507349999713e+01 3.098077288329999845e+01 -3.638223099974421393e-01 6.682217806381902658e-01 6.489321833819394758e-01
-2.856914303439999969e+01 2.740889375380000104e+01 3.005902646459999872e+01 -5.352942324983934741e-01 5.564007337755756399e-01 6.355142076365846160e-01
-2.792901140849999919e+01 2.794500812140000079e+01 3.015433970810000019e+01 -5.283721946537996983e-01 5.619094579393970612e-01 6.364594134703173145e-01
-2.728410568689999849e+01 2.847421157539999825e+01 3.023931812560000054e+01 -5.217924464005184726e-01 5.671383289687683682e-01 6.372493693161848105e-01
-2.663442447730000140e+01 2.899650210040000076e+01 3.031395870300000084e+01 -5.147408819279468695e-01 5.738061757181068812e-01 6.370151467428387670e-01
-2.597996638740000108e+01 2.951187768080000140e+01 3.037825842619999861e+01 -5.076832266890516365e-01 5.808861677903129905e-01 6.362617397018912602e-01
-2.532073002479999957e+01 3.002033630100000039e+01 3.043221428100000026e+01 -4.971951573189469786e-01 5.899320044304312560e-01 6.362210352442626560e-01
-2.465671399709999889e+01 3.052187594549999972e+01 3.047582325340000153e+01 -4.847387169246457073e-01 5.994038034342547006e-01 6.369799500320222352e-01
-2.398791691219999933e+01 3.101649459889999960e+01 3.050908232929999997e+01 -4.721358223321286962e-01 6.087485837001591626e-01 6.375836628347802959e-01
-2.331433737749999935e+01 3.150419024549999847e+01 3.053198849460000019e+01 -4.593950478930952652e-01 6.179586219282182658e-01 6.380308233587763667e-01
-2.263597400080000099e+01 3.198496086979999831e+01 3.054453873530000152e+01 -4.465253188295253417e-01 6.270264561584093510e-01 6.383204233937819216e-01
-2.195282538969999919e+01 3.245880445640000289e+01 3.054673003710000145e+01 -4.335358803591228272e-01 6.359449155727074920e-01 6.384518030348589335e-01
-2.126489015190000131e+01 3.292571898959999999e+01 3.053855938599999931e+01 -4.205132208927882531e-01 6.456263348462533136e-01 6.374443244765510830e-01
-2.057216689499999873e+01 3.338570245399999692e+01 3.052002376789999971e+01 -4.084891793834740659e-01 6.535043454032921639e-01 6.372351692002181656e-01
-1.987465422680000060e+01 3.383875283399999745e+01 3.049112016879999842e+01 -3.994153519039240763e-01 6.581819314538056576e-01 6.381723292114774848e-01
-1.917235075480000006e+01 3.428486811399999823e+01 3.045184557449999829e+01 -3.888048857243207590e-01 6.638908583989198142e-01 6.388111528231511516e-01
-1.846525508679999916e+01 3.472404627859999948e+01 3.040219697090000039e+01 -3.789170945942809121e-01 6.699760938944326893e-01 6.383994588298045336e-01
-1.775336583039999994e+01 3.515628531229999965e+01 3.034217134389999870e+01 -3.701562494928306579e-01 6.747540759781871511e-01 6.385070774174894659e-01
-2.822742120899999918e+01 2.837725118219999842e+01 2.950410790009999928e+01 -5.300632410456216359e-01 5.679781650857490538e-01 6.296298630767418469e-01
-2.758255434759999858e+01 2.890651088970000160e+01 2.958917044089999848e+01 -5.236687992337306641e-01 5.730230506486682085e-01 6.304090514375538801e-01
-2.693291199809999981e+01 2.942885766810000092e+01 2.966389514169999941e+01 -5.167735230509604705e-01 5.796890405641164090e-01 6.300045572242735092e-01
-2.627849276839999959e+01 2.994428950189999838e+01 2.972827898819999959e+01 -5.097558457600684934e-01 5.869723080764428502e-01 6.289773344603528660e-01
-2.561929526589999995e+01 3.045280437550000130e+01 2.978231896639999832e+01 -5.011842131465652495e-01 5.958466713478938193e-01 6.275198233811369875e-01
-2.495531809839999937e+01 3.095440027349999923e+01 2.982601206220000023e+01 -4.887615515144395073e-01 6.053033822986643164e-01 6.282674280423861113e-01
-2.428655987360000168e+01 3.144907518020000126e+01 2.985935526140000107e+01 -4.761921154956205160e-01 6.146322454360230170e-01 6.288626813622173461e-01
-2.361301919909999825e+01 3.193682708029999873e+01 2.988234555009999838e+01 -4.634844092358193501e-01 6.238255781426003121e-01 6.293042590435679040e-01
-2.293469468250000176e+01 3.241765395800000249e+01 2.989497991409999855e+01 -4.506472867862102438e-01 6.328759597196835784e-01 6.295911709364392372e-01
-2.225158493160000006e+01 3.289155379799999679e+01 2.989725533929999912e+01 -4.376252708346867193e-01 6.429857661747953035e-01 6.285327571602600250e-01
-2.156368855399999873e+01 3.335852458459999781e+01 2.988916881149999938e+01 -4.246283992080199243e-01 6.521918149736668502e-01 6.279622274208767063e-01
-2.087100415729999980e+01 3.381856430239999867e+01 2.987071731680000042e+01 -4.134455507515210071e-01 6.573438830562975399e-01 6.300490425135492067e-01
-2.017353034919999999e+01 3.427167093580000312e+01 2.984189784109999977e+01 -4.041812489665800867e-01 6.618755702577958644e-01 6.313146976585708448e-01
-1.947126573739999955e+01 3.471784246930000251e+01 2.980270737009999849e+01 -3.955353553630416852e-01 6.666783501201025697e-01 6.317370973268631174e-01
-1.876420892950000052e+01 3.515707688730000058e+01 2.975314288979999944e+01 -3.851490088258339162e-01 6.728209974080110456e-01 6.316424197656196338e-01
-2.852103986759999898e+01 2.880255865359999845e+01 2.884350436480000113e+01 -5.324675674406158521e-01 5.722237764874986699e-01 6.237292996535100942e-01
-2.787621186630000025e+01 2.933187461449999844e+01 2.892865102900000096e+01 -5.261431198101655937e-01 5.772713619963428799e-01 6.244447069959943031e-01
-2.722660837709999981e+01 2.985427764630000169e+01 2.900345985310000074e+01 -5.192824533506837925e-01 5.841625758690058845e-01 6.237786615428447812e-01
-2.657222800739999968e+01 3.036976573349999953e+01 2.906792782289999977e+01 -5.121368587803446504e-01 5.919227334626188108e-01 6.223691151469061822e-01
-2.591306936510000014e+01 3.087833686060000105e+01 2.912205192449999913e+01 -5.043239650766673243e-01 6.005423736536250612e-01 6.204886749134249646e-01
-2.524913105779999967e+01 3.137998901190000112e+01 2.916582914359999990e+01 -4.919294850160703114e-01 6.099855841633468057e-01 6.212269866037083421e-01
-2.458041169319999852e+01 3.187472017210000175e+01 2.919925646629999960e+01 -4.793880335735110632e-01 6.193003220821750032e-01 6.218152654409800917e-01
-2.390690987880000051e+01 3.236252832550000136e+01 2.922233087829999931e+01 -4.667080561678267903e-01 6.284789407749639123e-01 6.222522087629969167e-01
-2.322862422240000058e+01 3.284341145669999662e+01 2.923504936559999834e+01 -4.536111574407351577e-01 6.398615139624509451e-01 6.203339107246650386e-01
-2.254555333160000075e+01 3.331736755010000195e+01 2.923740891419999954e+01 -4.407062855190609918e-01 6.495496887187768298e-01 6.195669227689062364e-01
-2.185769581410000129e+01 3.378439459020000157e+01 2.922940650980000044e+01 -4.280159224157331632e-01 6.566766172475939634e-01 6.209494266998449863e-01
-2.116505027759999891e+01 3.424449056139999925e+01 2.921103913849999856e+01 -4.172927902218339091e-01 6.611845947570716975e-01 6.234594284192063185e-01
-2.046761532969999919e+01 3.469765344820000053e+01 2.918230378599999852e+01 -4.075595353654719588e-01 6.656386653308019596e-01 6.251562943371116177e-01
-1.976538957800000063e+01 3.514388123509999673e+01 2.914319743840000143e+01 -3.987247316610272874e-01 6.703557653183408460e-01 6.258128604193935463e-01
-1.905837163030000170e+01 3.558317190649999873e+01 2.909371708149999947e+01 -3.919049094074510409e-01 6.752933751075669289e-01 6.248114911860763732e-01
-2.880986585570000003e+01 2.922092832279999897e+01 2.817252579310000016e+01 -5.346275257762925781e-01 5.765384659824306368e-01 6.178808994660259790e-01
-2.816507671460000140e+01 2.975030053709999933e+01 2.825775658070000063e+01 -5.284575419165599142e-01 5.816011560558198568e-01 6.184437902235265794e-01
-2.751551208549999927e+01 3.027275982229999940e+01 2.833264952820000104e+01 -5.216003037896449479e-01 5.889796155538685740e-01 6.172812450970527332e-01
-2.686117057599999924e+01 3.078830416290000116e+01 2.839720162140000070e+01 -5.140782771567158349e-01 5.977392797756421183e-01 6.151676831310954885e-01
-2.620205079389999980e+01 3.129693154339999950e+01 2.845140984629999892e+01 -5.076845101996143583e-01 6.055909721166595761e-01 6.127936133758064008e-01
-2.553815134670000120e+01 3.179863994820000173e+01 2.849527118880000032e+01 -4.953214475028980268e-01 6.150187914217195573e-01 6.135214338894779962e-01
-2.486947084219999837e+01 3.229342736179999918e+01 2.852878263479999887e+01 -4.828112383719648237e-01 6.243174909357791513e-01 6.141017656817013837e-01
-2.419600788800000046e+01 3.278129176859999916e+01 2.855194117019999922e+01 -4.701622634415121293e-01 6.334794645688491821e-01 6.145333302638011919e-01
-2.351776109180000063e+01 3.326223115319999835e+01 2.856474378089999888e+01 -4.572666310457636496e-01 6.452117438515703185e-01 6.120531298245874829e-01
-2.283472906109999911e+01 3.373624350000000049e+01 2.856718745279999894e+01 -4.444457469001212857e-01 6.547707523807725360e-01 6.113454341770375722e-01
-2.214691040379999976e+01 3.420332679349999694e+01 2.855926917180000046e+01 -4.316162079671874707e-01 6.614319145599960592e-01 6.133638980422011500e-01
-2.145430372739999925e+01 3.466347901809999854e+01 2.854098592380000099e+01 -4.220696173359365644e-01 6.649023912735744224e-01 6.162483656778156016e-01
-2.075690763969999963e+01 3.511669815829999663e+01 2.851233469470000159e+01 -4.113016222904468111e-01 6.692672080322115136e-01 6.187991433042027145e-01
-2.005472074820000117e+01 3.556298219859999676e+01 2.847331247050000158e+01 -4.020411636099073260e-01 6.738426048885739483e-01 6.199185806218209249e-01
-1.934774166060000056e+01 3.600232912349999737e+01 2.842391623689999847e+01 -3.952561652668346026e-01 6.787018564320917990e-01 6.189800916783906315e-01
-2.104140575059999918e+01 3.552880285349999667e+01 2.783198725809999985e+01 -4.161665028392667054e-01 6.728763779286179858e-01 6.115904037345569755e-01
-2.033925771930000082e+01 3.597514314720000073e+01 2.779304915719999869e+01 -4.057700065521978594e-01 6.771798484575310972e-01 6.138225758520653441e-01
-4.432042315300000013e+01 -1.837746953610000133e+01 1.514864444680000055e+01 -8.550750306170231685e-01 -3.856350009114089539e-01 3.466011224554163550e-01
-4.330334532740000242e+01 -1.774590001290000174e+01 1.833331939239999997e+01 -8.461468990447629235e-01 -3.735617749825298484e-01 3.801144900011486083e-01
-4.347424848779999706e+01 -1.809220561260000082e+01 1.760680377539999952e+01 -8.469083865733771921e-01 -3.799509022043783824e-01 3.719993234748656397e-01
-4.363555551030000146e+01 -1.843092956910000169e+01 1.687451383180000164e+01 -8.475267540563632407e-01 -3.869152650894217005e-01 3.633111322261777798e-01
-4.378732449369999813e+01 -1.876211778469999913e+01 1.613648452170000169e+01 -8.488238020418427121e-01 -3.914971432739339785e-01 3.552859973255057535e-01
-4.392961353679999803e+01 -1.908581616169999862e+01 1.539275080510000038e+01 -8.508986757773242537e-01 -3.926822598983735202e-01 3.489585739332137226e-01
-4.233013265879999665e+01 -1.736026687629999898e+01 2.071503558050000038e+01 -8.271346894503703862e-01 -3.653457822971822311e-01 4.270487851118409117e-01
-4.253039441760000017e+01 -1.772976789260000174e+01 2.000618604290000135e+01 -8.314054264446224529e-01 -3.703644429246213399e-01 4.142405053776978541e-01
-4.272088574229999836e+01 -1.809154955920000063e+01 1.929145729880000104e+01 -8.350001148480687974e-01 -3.778368220588001480e-01 4.000176797345563195e-01
-4.290166473149999860e+01 -1.844565777809999929e+01 1.857088430800000012e+01 -8.408440897258780966e-01 -3.816364659539745463e-01 3.838421871384379847e-01
-4.307278948399999763e+01 -1.879213845159999963e+01 1.784450203060000106e+01 -8.421320442777291415e-01 -3.880710419753946594e-01 3.744522484653348693e-01
-4.323431809870000109e+01 -1.913103748199999998e+01 1.711234542660000102e+01 -8.431030825192313838e-01 -3.940172200898884314e-01 3.659612308963979821e-01
-4.338630867429999682e+01 -1.946240077139999869e+01 1.637444945609999891e+01 -8.445940203815005543e-01 -3.982522085956164415e-01 3.578492966103568595e-01
-4.352881930950000111e+01 -1.978627422219999943e+01 1.563084907910000076e+01 -8.464414082318787447e-01 -4.023286966992035696e-01 3.488102094875584758e-01
-4.125718326230000343e+01 -1.689583450929999842e+01 2.303673674550000072e+01 -8.045276018583629174e-01 -3.619407291495354562e-01 4.708866598564180328e-01
-4.148732650849999715e+01 -1.728894406239999881e+01 2.234586792769999875e+01 -8.093365759256125891e-01 -3.651200148414023849e-01 4.600670403660961361e-01
-4.170752502420000241e+01 -1.767419655899999853e+01 2.164901502320000048e+01 -8.164609365519071016e-01 -3.675281038206383299e-01 4.453253102921377327e-01
-4.191783690820000174e+01 -1.805163790130000123e+01 2.094621299199999953e+01 -8.216361130528924139e-01 -3.733582725624632892e-01 4.307176546608092460e-01
-4.211832025919999722e+01 -1.842131399149999993e+01 2.023749679410000013e+01 -8.261852249938791415e-01 -3.784921174897400986e-01 4.173268395394026387e-01
-4.230903317599999980e+01 -1.878327073190000007e+01 1.952290138949999942e+01 -8.301145703467857073e-01 -3.853390410591884807e-01 4.030181429334875887e-01
-4.249003375739999910e+01 -1.913755402459999999e+01 1.880246173829999989e+01 -8.339822662156916033e-01 -3.913290139026370795e-01 3.890182290275469579e-01
-4.266138010209999720e+01 -1.948420977199999982e+01 1.807621280060000046e+01 -8.375505584816733684e-01 -3.956048090675024498e-01 3.768366980930888399e-01
-4.282313030899999973e+01 -1.982328387620000143e+01 1.734418953630000004e+01 -8.387521864455782517e-01 -4.009828706936464648e-01 3.683849985314880948e-01
-4.297534247669999985e+01 -2.015482223949999963e+01 1.660642690539999933e+01 -8.403567005758709740e-01 -4.063765227137380309e-01 3.586903087404604840e-01
-4.311807470410000320e+01 -2.047887076410000162e+01 1.586295986810000080e+01 -8.423830895303090482e-01 -4.098535992387867810e-01 3.498724877214315354e-01
-4.325138508989999764e+01 -2.079547535229999866e+01 1.511382338429999983e+01 -8.446377811404356395e-01 -4.128281057518028985e-01 3.408224959880730154e-01
-4.034351032659999703e+01 -1.676852180819999916e+01 2.462492610789999858e+01 -7.891695678860496388e-01 -3.669173483348877607e-01 4.925272100234064920e-01
-4.059393892229999778e+01 -1.717765825489999898e+01 2.394626368340000155e+01 -7.943559898992654800e-01 -3.679721961517939954e-01 4.833166913840079570e-01
-4.083430658999999707e+01 -1.757884584070000145e+01 2.326154725199999973e+01 -7.992910802525519109e-01 -3.697497475845879511e-01 4.737287126508610280e-01
-4.106467142839999696e+01 -1.797213046770000133e+01 2.257081177390000093e+01 -8.040079006444602605e-01 -3.722794041337739723e-01 4.636586470228823420e-01
-4.128509153630000128e+01 -1.835755803809999875e+01 2.187409220900000051e+01 -8.088917531759810542e-01 -3.777004918867360450e-01 4.505956835927361070e-01
-4.149562501239999790e+01 -1.873517445419999916e+01 2.117142351749999918e+01 -8.148084832234383512e-01 -3.826418930258515538e-01 4.355138543935341833e-01
-4.169632995559999955e+01 -1.910502561830000090e+01 2.046284065920000117e+01 -8.198306573960414401e-01 -3.873626154503370111e-01 4.216964516628621817e-01
-4.188726446460000119e+01 -1.946715743249999875e+01 1.974837859430000009e+01 -8.241476568118647483e-01 -3.935763921717035929e-01 4.072815528557832132e-01
-4.206848663809999778e+01 -1.982161579910000171e+01 1.902807228269999840e+01 -8.282595007223964023e-01 -3.992145278288360966e-01 3.932098170614335975e-01
-4.224005457500000205e+01 -2.016844662029999924e+01 1.830195668460000036e+01 -8.315870660123234615e-01 -4.042408516065006951e-01 3.808573033741990965e-01
-4.240202637400000185e+01 -2.050769579840000034e+01 1.757006675990000133e+01 -8.344616454567799213e-01 -4.088175110087956532e-01 3.695159062261550997e-01
-4.255446013390000104e+01 -2.083940923549999980e+01 1.683243746870000024e+01 -8.361889847557552047e-01 -4.135550230361080826e-01 3.602224655608577408e-01
-4.269741395350000346e+01 -2.116363283389999950e+01 1.608910377100000133e+01 -8.379270965865976972e-01 -4.184148919142908207e-01 3.504385238958563908e-01
-4.283094593149999696e+01 -2.148041249590000135e+01 1.534010062689999998e+01 -8.401651229310173052e-01 -4.214854167273075491e-01 3.412808369898852057e-01
-3.964953934289999893e+01 -1.702606928240000173e+01 2.551596376639999875e+01 -7.817051273889497054e-01 -3.703496893788570388e-01 5.017750505862264010e-01
-3.991030855759999696e+01 -1.744337556629999852e+01 2.484352364840000149e+01 -7.845631871680320835e-01 -3.736072923118774480e-01 4.948516913905891546e-01
-4.016095874549999678e+01 -1.785268708690000139e+01 2.416499456340000052e+01 -7.872441098361568912e-01 -3.770697844419229616e-01 4.879191420606480145e-01
-4.040154800530000045e+01 -1.825404974650000156e+01 2.348041147169999832e+01 -7.925722438889708510e-01 -3.784990130807969755e-01 4.780875812167309502e-01
-4.063213443589999940e+01 -1.864750944729999915e+01 2.278980933320000091e+01 -7.974221380985114793e-01 -3.806195498199665961e-01 4.682378583212218337e-01
-4.085277613600000279e+01 -1.903311209159999962e+01 2.209322310800000011e+01 -8.026471888764569185e-01 -3.858181460456668876e-01 4.548646484071999230e-01
-4.106353120429999848e+01 -1.941090358150000128e+01 2.139068775610000017e+01 -8.074749562394206714e-01 -3.919148668932578294e-01 4.408933342138271483e-01
-4.126445773959999741e+01 -1.978092981940000072e+01 2.068223823740000000e+01 -8.131127392684782684e-01 -3.960559504995365687e-01 4.265997624392450227e-01
-4.145561384079999812e+01 -2.014323670750000161e+01 1.996790951219999855e+01 -8.178550279872761619e-01 -4.017125239999862485e-01 4.119953898498042721e-01
-4.163705760650000087e+01 -2.049787014789999873e+01 1.924773654030000003e+01 -8.222454647194370470e-01 -4.069993804413148952e-01 3.978239561272083336e-01
-4.180884713550000242e+01 -2.084487604299999930e+01 1.852175428179999983e+01 -8.261353722048910830e-01 -4.129048408701464501e-01 3.834187517296007708e-01
-4.197104052670000129e+01 -2.118430029490000166e+01 1.778999769669999864e+01 -8.286054025192813866e-01 -4.182814288931428481e-01 3.720937155596295565e-01
-4.212369587879999955e+01 -2.151618880579999882e+01 1.705250174520000073e+01 -8.298473333412157427e-01 -4.239090543473453265e-01 3.628422756361399659e-01
-4.226687129049999925e+01 -2.184058747810000156e+01 1.630930138709999966e+01 -8.311933944903094895e-01 -4.290667976886607948e-01 3.535805764983066535e-01
-4.240062486069999892e+01 -2.215754221399999935e+01 1.556043158259999970e+01 -8.327100755322215386e-01 -4.353553138132724709e-01 3.421398556755242959e-01
-3.920626830230000337e+01 -1.769296758750000009e+01 2.572850227949999891e+01 -7.750973365401462312e-01 -3.775941777460897208e-01 5.066031541755596779e-01
-3.946725910920000047e+01 -1.811044894520000170e+01 2.505619550100000126e+01 -7.783625161068908893e-01 -3.807563909705686811e-01 4.991756847592010438e-01
-3.971813088929999935e+01 -1.851993553959999872e+01 2.437779975569999991e+01 -7.812416403346679195e-01 -3.841979460784186173e-01 4.919892657734740160e-01
-3.995894174130000209e+01 -1.892147327309999838e+01 2.369335000370000088e+01 -7.851655499599258237e-01 -3.872835500304790957e-01 4.832458080851984583e-01
-4.018974976399999832e+01 -1.931510804770000078e+01 2.300288120480000131e+01 -7.904182679117133237e-01 -3.889937893434577409e-01 4.732048114756068347e-01
-4.041061305619999899e+01 -1.970088576590000073e+01 2.230642831919999836e+01 -7.960633648592302380e-01 -3.938111018681008657e-01 4.595605892310963281e-01
-4.062158971670000085e+01 -2.007885232969999834e+01 2.160402630689999981e+01 -8.011730148045623778e-01 -3.995639761500618947e-01 4.455002012481267815e-01
-4.082273784419999885e+01 -2.044905364139999904e+01 2.089571012789999926e+01 -8.057908302845925297e-01 -4.059470564015389971e-01 4.311706451373896187e-01
-4.101411553749999683e+01 -2.081153560330000118e+01 2.018151474229999920e+01 -8.102154170703936842e-01 -4.119444703009409459e-01 4.169565101181720856e-01
-4.119578089539999866e+01 -2.116634411760000134e+01 1.946147510999999852e+01 -8.140601377547942441e-01 -4.186291881049657992e-01 4.025614176560172730e-01
-4.136779201659999927e+01 -2.151352508649999962e+01 1.873562619120000150e+01 -8.176692118546112775e-01 -4.251639826035010228e-01 3.881399849046587303e-01
-4.153020699999999721e+01 -2.185312441219999968e+01 1.800400294579999994e+01 -8.204301806742108072e-01 -4.314094406693665951e-01 3.752068937802530701e-01
-4.168308394419999985e+01 -2.218518799699999988e+01 1.726664033380000163e+01 -8.215506563080730018e-01 -4.368901005314970165e-01 3.663080113474900257e-01
-4.182648094809999861e+01 -2.250976174319999856e+01 1.652357331540000018e+01 -8.228085878917328344e-01 -4.432359498803898901e-01 3.557076333525066580e-01
-4.196045611040000267e+01 -2.282689155290000116e+01 1.577483685049999984e+01 -8.241768902384922768e-01 -4.489421786023627403e-01 3.452294510446238807e-01
-4.208506753000000344e+01 -2.313662332830000068e+01 1.502046589919999953e+01 -8.254677521642971305e-01 -4.533616142630937373e-01 3.362532332180382388e-01
-3.875318381529999812e+01 -1.835211255990000012e+01 2.593513570380000033e+01 -7.688593597086390563e-01 -3.851428923951944472e-01 5.104118311970102795e-01
-3.901439621429999960e+01 -1.876976899139999944e+01 2.526296226499999875e+01 -7.727803268045465579e-01 -3.877803802833523217e-01 5.024310332485013575e-01
-3.926548958650000287e+01 -1.917943065969999950e+01 2.458469985940000058e+01 -7.759287952661455545e-01 -3.910106097561650285e-01 4.950204114326397509e-01
-3.950652203069999757e+01 -1.958114346700000041e+01 2.390038344699999939e+01 -7.787370954770991283e-01 -3.944773548049517187e-01 4.878074955081970754e-01
-3.973755164559999997e+01 -1.997495331549999875e+01 2.321004798770000122e+01 -7.829872231898690194e-01 -3.974165817150442370e-01 4.785301128448948282e-01
-3.995863652999999971e+01 -2.036090610749999996e+01 2.251372844180000143e+01 -7.881245238476020099e-01 -4.038772508150872964e-01 4.644813249034214775e-01
-4.016983478259999885e+01 -2.073904774509999882e+01 2.181145976910000073e+01 -7.926900917233470345e-01 -4.110289332920427086e-01 4.502195403138750107e-01
-4.037120450230000301e+01 -2.110942413069999901e+01 2.110327692979999981e+01 -7.970223218724796777e-01 -4.180389689670456765e-01 4.358885624353670551e-01
-4.056280378780000007e+01 -2.147208116639999886e+01 2.038921488380000113e+01 -8.011202328370987669e-01 -4.249028078901878058e-01 4.215020479025775590e-01
-4.074469073790000095e+01 -2.182706475450000028e+01 1.966930859109999830e+01 -8.049834728255211846e-01 -4.316163369091405855e-01 4.070736373076727643e-01
-4.091692345119999885e+01 -2.217442079730000160e+01 1.894359301189999911e+01 -8.086123077150253469e-01 -4.381758883407697036e-01 3.926168955719533393e-01
-4.107956002680000296e+01 -2.251419519690000115e+01 1.821210310620000072e+01 -8.116051836138185038e-01 -4.445687062122827271e-01 3.790193812826950226e-01
-4.123265856319999756e+01 -2.284643385549999905e+01 1.747487383389999849e+01 -8.136180746244661144e-01 -4.502624003817118914e-01 3.678170733487987620e-01
-4.137627715920000071e+01 -2.317118267549999899e+01 1.673194015509999844e+01 -8.148264997599027337e-01 -4.560500022747596138e-01 3.578773123770448428e-01
-4.151047391369999673e+01 -2.348848755910000108e+01 1.598333702979999948e+01 -8.162073449216709076e-01 -4.612841444607599928e-01 3.478828943265548923e-01
-4.163530692540000189e+01 -2.379839440840000009e+01 1.522909941810000056e+01 -8.177856982847441225e-01 -4.651533276366247582e-01 3.389084440811528376e-01
-3.829032011460000007e+01 -1.900353124609999966e+01 2.613588463869999856e+01 -7.626412764271707223e-01 -3.916744539979973849e-01 5.147517902590598160e-01
-3.855175410580000062e+01 -1.942136275140000023e+01 2.546384453949999838e+01 -7.655189573559837424e-01 -3.959186400632496161e-01 5.071776378933467999e-01
-3.880306907020000295e+01 -1.983119949359999978e+01 2.478571547350000159e+01 -7.682897470909396676e-01 -3.999431992766181443e-01 4.997762518040680391e-01
-3.904432310650000204e+01 -2.023308737469999841e+01 2.410153240069999825e+01 -7.709604091846233853e-01 -4.038161576768756200e-01 4.924962520354473350e-01
-3.927557431360000351e+01 -2.062707229700000156e+01 2.341133028120000148e+01 -7.739445815199169632e-01 -4.093053588573539736e-01 4.831965520847735784e-01
-3.949688079020000231e+01 -2.101320016289999870e+01 2.271514407480000131e+01 -7.787525119600592349e-01 -4.166369580312357379e-01 4.689969832721486709e-01
-3.970830063500000051e+01 -2.139151687440000060e+01 2.201300874180000022e+01 -7.833304589461467238e-01 -4.238279540058302319e-01 4.547122798984550296e-01
-3.990989194680000196e+01 -2.176206833379999850e+01 2.130495924210000069e+01 -7.876767335072134557e-01 -4.308733378905840739e-01 4.403561401711491019e-01
-4.010171282449999808e+01 -2.212490044340000139e+01 2.059103053569999986e+01 -7.917902829183032232e-01 -4.377685376956605978e-01 4.259423144980508114e-01
-4.028382136670000335e+01 -2.248005910530000051e+01 1.987125758270000020e+01 -7.956706835141280632e-01 -4.445094303920723022e-01 4.114845436813828750e-01
-4.045627567220000032e+01 -2.282759022189999953e+01 1.914567534320000064e+01 -7.993181291120595722e-01 -4.510923505135937539e-01 3.969964984491903826e-01
-4.061913383990000170e+01 -2.316753969530000035e+01 1.841431877699999831e+01 -8.027334153048710785e-01 -4.575140953037514224e-01 3.824917208925798784e-01
-4.077245396850000247e+01 -2.349995342780000129e+01 1.767722284439999925e+01 -8.046623809618380641e-01 -4.636262018095424486e-01 3.709032187248897938e-01
-4.091629415669999759e+01 -2.382487732170000072e+01 1.693442250520000059e+01 -8.057170785035948635e-01 -4.691476153315338737e-01 3.615529068288166892e-01
-4.105071250339999978e+01 -2.414235727899999873e+01 1.618595271959999948e+01 -8.068987741382793732e-01 -4.741988365093761648e-01 3.522070864524101119e-01
-4.117576710720000221e+01 -2.445243920220000078e+01 1.543184844750000018e+01 -8.082135558527320240e-01 -4.803467186469104755e-01 3.406726845830597150e-01
-3.781771143320000306e+01 -1.964725069249999834e+01 2.633076968319999978e+01 -7.533774735544276346e-01 -4.016871928010857240e-01 5.206436223371329053e-01
-3.807936701660000267e+01 -2.006525727169999840e+01 2.565886292360000098e+01 -7.563770061866550432e-01 -4.064338052787704325e-01 5.125479357472144670e-01
-3.833090357319999697e+01 -2.047526908769999920e+01 2.498086719730000027e+01 -7.592685483563292870e-01 -4.107341316509997564e-01 5.047858403063338883e-01
-3.857237920170000223e+01 -2.087733204270000087e+01 2.429681746409999832e+01 -7.617196054107681080e-01 -4.164605655596327338e-01 4.963303739109813373e-01
-3.880385200090000097e+01 -2.127149203880000172e+01 2.360674868419999939e+01 -7.648644745022563640e-01 -4.219929062368137918e-01 4.867281815656405164e-01
-3.902538006959999706e+01 -2.165779497850000013e+01 2.291069581749999884e+01 -7.691579157191009708e-01 -4.292976677204676239e-01 4.733916065757981517e-01
-3.923702150660000143e+01 -2.203628676379999973e+01 2.220869382409999915e+01 -7.737462319948592571e-01 -4.365262938197325138e-01 4.590877511737443406e-01
-3.943883441060000195e+01 -2.240701329710000067e+01 2.150077766400000101e+01 -7.781047446066307050e-01 -4.436054036145850588e-01 4.447103015498867218e-01
-3.963087688040000245e+01 -2.277002048050000127e+01 2.078698229729999980e+01 -7.822323313275402201e-01 -4.505304060987793680e-01 4.302730911948253190e-01
-3.981320701479999968e+01 -2.312535421629999988e+01 2.006734268390000153e+01 -7.861284974543815141e-01 -4.572971710934272127e-01 4.157899503355812487e-01
-3.998588291250000282e+01 -2.347306040679999839e+01 1.934189378399999981e+01 -7.897933646732850921e-01 -4.639020377589888611e-01 4.012746447024896912e-01
-4.014896267240000327e+01 -2.381318495400000046e+01 1.861067055750000065e+01 -7.932276557753156210e-01 -4.703418195433810012e-01 3.867408161829044566e-01
-4.030250439310000132e+01 -2.414577376040000090e+01 1.787370796449999943e+01 -7.958093322910874123e-01 -4.764786305621110385e-01 3.737052598720932428e-01
-4.044656617350000261e+01 -2.447087272810000158e+01 1.713104096489999861e+01 -7.967478477452288876e-01 -4.818460609445318066e-01 3.647152871289932041e-01
-4.058120611230000208e+01 -2.478852775929999908e+01 1.638270451889999890e+01 -7.977948948039497168e-01 -4.880523847555077732e-01 3.540171966998447162e-01
-4.070648230839999826e+01 -2.509878475629999883e+01 1.562873358649999922e+01 -7.989830222572394947e-01 -4.936198763759052643e-01 3.434611299569776954e-01
-4.082245286039999854e+01 -2.540168962130000097e+01 1.486916312770000026e+01 -8.001450298285821550e-01 -4.979211030141311722e-01 3.344286267857589090e-01
-3.733539200399999913e+01 -2.028329794569999933e+01 2.651981143629999949e+01 -7.455480671798809800e-01 -4.131161375197493490e-01 5.229657124947175717e-01
-3.759726917959999781e+01 -2.070147959870000065e+01 2.584803801640000032e+01 -7.481146274185996869e-01 -4.182126331825727905e-01 5.151919037493007947e-01
-3.784902732829999650e+01 -2.111166648849999916e+01 2.517017562970000100e+01 -7.508463565688723307e-01 -4.226807453336864917e-01 5.075142720667166207e-01
-3.809072454900000082e+01 -2.151390451729999853e+01 2.448625923619999867e+01 -7.532603851916912507e-01 -4.285209443416996278e-01 4.989675263595447774e-01
-3.832241894039999863e+01 -2.190823958740000066e+01 2.379632379590000113e+01 -7.553714965835343076e-01 -4.346944049958208489e-01 4.903617811519174752e-01
-3.854416860130000089e+01 -2.229471760090000032e+01 2.310040426879999842e+01 -7.593481761098441751e-01 -4.418485266151652713e-01 4.776612052141773201e-01
-3.875603163040000254e+01 -2.267338446009999942e+01 2.239853561509999835e+01 -7.639448315664653100e-01 -4.491130295037397135e-01 4.633419698806247600e-01
-3.895806612660000212e+01 -2.304428606720000161e+01 2.169075279460000161e+01 -7.683137514046285421e-01 -4.562241824813569324e-01 4.489470734081735248e-01
-3.915033018860000169e+01 -2.340746832439999991e+01 2.097709076749999824e+01 -7.724537458653605304e-01 -4.631773786739531995e-01 4.344904215092646460e-01
-3.933288191510000331e+01 -2.376297713410000156e+01 2.025758449379999959e+01 -7.763642502684016122e-01 -4.699684835479138179e-01 4.199859228317741056e-01
-3.950577940499999841e+01 -2.411085839829999955e+01 1.953226893349999926e+01 -7.800453143310582815e-01 -4.765938433141873043e-01 4.054474270545719294e-01
-3.966908075709999792e+01 -2.445115801949999934e+01 1.880117904669999973e+01 -7.834975873170791916e-01 -4.830502896802579271e-01 3.908886648498966498e-01
-3.982284407000000215e+01 -2.478392189970000103e+01 1.806434979329999990e+01 -7.863110911616418841e-01 -4.893245565192003155e-01 3.771953688786173209e-01
-3.996712744250000071e+01 -2.510919594119999942e+01 1.732181613339999871e+01 -7.881529383412946288e-01 -4.948955222169944546e-01 3.659144269819813444e-01
-4.010198897349999925e+01 -2.542702604620000173e+01 1.657361302700000039e+01 -7.891737855264688850e-01 -5.005443844306859402e-01 3.558933203260895017e-01
-4.022748676169999982e+01 -2.573745811710000098e+01 1.581977543420000032e+01 -7.903943629529787129e-01 -5.056427160181246050e-01 3.458355024429525804e-01
-4.034367890589999917e+01 -2.604053805590000081e+01 1.506033831509999921e+01 -7.918707757190948104e-01 -5.094030047711072262e-01 3.368222874042137716e-01
-3.710549482769999941e+01 -2.133005677890000129e+01 2.603139041709999901e+01 -7.386449239871599737e-01 -4.302578623529433322e-01 5.189237402080182360e-01
-3.735747456859999716e+01 -2.174041874259999929e+01 2.535366137000000109e+01 -7.414501755410890516e-01 -4.348898097433891996e-01 5.110014584827000661e-01
-3.759939338139999876e+01 -2.214283184519999992e+01 2.466987831610000015e+01 -7.439965158527533928e-01 -4.408810903804291637e-01 5.020886859349925624e-01
-3.783130936500000274e+01 -2.253734198909999975e+01 2.398007621540000045e+01 -7.462150720651122837e-01 -4.472402196685842379e-01 4.930915251083269335e-01
-3.805328061809999696e+01 -2.292399507649999890e+01 2.328429002800000092e+01 -7.493312915295633481e-01 -4.542789375766663751e-01 4.818020988007958860e-01
-3.826536523939999768e+01 -2.330283700949999925e+01 2.258255471389999869e+01 -7.539342427758434217e-01 -4.615774977325994843e-01 4.674712516903339887e-01
-3.846762132770000164e+01 -2.367391369039999915e+01 2.187490523310000157e+01 -7.583117207026420781e-01 -4.687189542839866885e-01 4.530627728471235405e-01
-3.866010698190000028e+01 -2.403727102150000050e+01 2.116137654559999959e+01 -7.624624702014586308e-01 -4.756986877408480585e-01 4.385906291930151135e-01
-3.884288030060000096e+01 -2.439295490499999985e+01 2.044200361149999878e+01 -7.663858578851209247e-01 -4.825125620723488273e-01 4.240687966310005552e-01
-3.901599938270000223e+01 -2.474101124310000088e+01 1.971682139090000163e+01 -7.700818618819038619e-01 -4.891569329764816065e-01 4.095111975533052839e-01
-3.917952232679999724e+01 -2.508148593809999838e+01 1.898586484369999994e+01 -7.735510574381986304e-01 -4.956286524477458433e-01 3.949316401721648107e-01
-3.933350723190000053e+01 -2.541442489210000133e+01 1.824916892990000150e+01 -7.767945986481201714e-01 -5.019250696644672605e-01 3.803437602398984652e-01
-3.947801219659999816e+01 -2.573987400749999921e+01 1.750676860969999993e+01 -7.785365652720999119e-01 -5.078970256774757441e-01 3.686752335624065569e-01
-3.961309531980000287e+01 -2.605787918640000100e+01 1.675869884289999945e+01 -7.794135141245723819e-01 -5.132760060643352107e-01 3.592524399341353036e-01
-3.973881470020000251e+01 -2.636848633110000151e+01 1.600499458979999901e+01 -7.804396949487059088e-01 -5.181885447744686291e-01 3.498492741351469926e-01
-3.985522843649999913e+01 -2.667174134380000083e+01 1.524569081019999928e+01 -7.815645983683956466e-01 -5.241570118350754592e-01 3.382546459716009313e-01
-3.660407819379999950e+01 -2.195101585880000172e+01 2.620894072469999969e+01 -7.282260473391823918e-01 -4.422937858252530274e-01 5.235102969351373980e-01
-3.685627952690000342e+01 -2.236155289630000098e+01 2.553134501719999960e+01 -7.313232348667478844e-01 -4.471545188992102626e-01 5.149943323688636054e-01
-3.709841993189999698e+01 -2.276414107280000110e+01 2.484769530299999829e+01 -7.341328177283177325e-01 -4.533989075795086809e-01 5.054487476886148078e-01
-3.733055750759999825e+01 -2.315882629049999863e+01 2.415802654189999998e+01 -7.365207834334974724e-01 -4.600815462212370366e-01 4.958448410512937832e-01
-3.755275035289999863e+01 -2.354565445169999904e+01 2.346237369420000007e+01 -7.396453265256313081e-01 -4.666517286076122817e-01 4.849339698725175229e-01
-3.776505656629999663e+01 -2.392467145859999889e+01 2.276077171969999924e+01 -7.437229828251453734e-01 -4.739093402785156117e-01 4.714722282536382147e-01
-3.796753424690000145e+01 -2.429592321339999828e+01 2.205325557849999996e+01 -7.481071576767349685e-01 -4.810793078136985645e-01 4.570540233127036722e-01
-3.816024149319999736e+01 -2.465945561830000088e+01 2.133986023070000115e+01 -7.522669918278774848e-01 -4.880838782155409450e-01 4.425703343337789586e-01
-3.834323640409999712e+01 -2.501531457569999972e+01 2.062062063620000174e+01 -7.562017846712062452e-01 -4.949189168486105572e-01 4.280351931856546388e-01
-3.851657707830000277e+01 -2.536354598759999845e+01 1.989557175519999888e+01 -7.599114433370565136e-01 -5.015807913604667378e-01 4.134625835835682994e-01
-3.868032161459999685e+01 -2.570419575640000076e+01 1.916474854759999857e+01 -7.633964687932819349e-01 -5.080663760165833320e-01 3.988663798759220502e-01
-3.883452811189999920e+01 -2.603730978429999965e+01 1.842818597349999976e+01 -7.666579380374510810e-01 -5.143730523207076244e-01 3.842602882037673973e-01
-3.897925466880000300e+01 -2.636293397349999879e+01 1.768591899289999958e+01 -7.690658711527965652e-01 -5.203640607890395176e-01 3.711589013712734975e-01
-3.911455938409999789e+01 -2.668111422619999828e+01 1.693798256579999872e+01 -7.698330366574986927e-01 -5.255834498842589797e-01 3.621037598236932498e-01
-3.924050035660000191e+01 -2.699189644479999828e+01 1.618441165229999967e+01 -7.706822632471828083e-01 -5.316104674871077185e-01 3.513390954254007603e-01
-3.935713568509999760e+01 -2.729532653129999886e+01 1.542524121239999957e+01 -7.717023587728010225e-01 -5.370048891660239576e-01 3.407362887575694499e-01
-3.946452346840000303e+01 -2.759145038810000017e+01 1.466050620610000088e+01 -7.727451924323210930e-01 -5.411626002332283747e-01 3.316744000997755015e-01
-3.609305351089999903e+01 -2.256438388480000157e+01 2.638070953829999965e+01 -7.172935360220319412e-01 -4.542494386416013330e-01 5.283440457455731432e-01
-3.634547643610000023e+01 -2.297509599620000031e+01 2.570324717049999919e+01 -7.207840211776269657e-01 -4.594534120267377286e-01 5.190115191322820509e-01
