2.616700271928732136e+01 1.530391557167131644e+01 4.460217141237488647e+01
2.606921489632340538e+01 1.551547195341070307e+01 4.493589202259289550e+01
2.596970975844286755e+01 1.572476217612799587e+01 4.527045284164930194e+01
2.586865198960514789e+01 1.593199242328165433e+01 4.560577672269925387e+01
2.576626273300097481e+01 1.613727540593103171e+01 4.594164678474229646e+01
2.566267146486634232e+01 1.634090643074335958e+01 4.627814752113731345e+01
2.555793488577994665e+01 1.654317276290676375e+01 4.661523110464560204e+01
2.545224350212000886e+01 1.674425289234572745e+01 4.695279435612867047e+01
2.534576458928281184e+01 1.694433706431630426e+01 4.729072598928480176e+01
2.523866589556887163e+01 1.714365432188477811e+01 4.762901092568895933e+01
2.513111075976489772e+01 1.734247012546187960e+01 4.796771847574743219e+01
2.502325688914390867e+01 1.754090090497775734e+01 4.830653997510925279e+01
2.491525792179197651e+01 1.773915789190835923e+01 4.864539365723778985e+01
2.650864465339181564e+01 1.517286185149699307e+01 4.478576554074080462e+01
2.641110967358670436e+01 1.538474511907818965e+01 4.511937468009775642e+01
2.631185667590335697e+01 1.559436113279241276e+01 4.545382029895719000e+01
2.621105017333420406e+01 1.580191640112834861e+01 4.578902578600688145e+01
2.610892285126292123e+01 1.600751448800317078e+01 4.612477073404271977e+01
2.600558555016630180e+01 1.621146898880175513e+01 4.646115470747086107e+01
2.590110138597224321e+01 1.641406013341731907e+01 4.679812146496843184e+01
2.579565850794143600e+01 1.661546688361393009e+01 4.713556566949250737e+01
2.568942422456969155e+01 1.681587900675600267e+01 4.747337497642556770e+01
2.558256651601444531e+01 1.701552274005320342e+01 4.781152807501150193e+01
2.547524501650925544e+01 1.721467409662027137e+01 4.815011511714894965e+01
2.536762489241882079e+01 1.741344101314878756e+01 4.848881773515239502e+01
2.525985961777081101e+01 1.761203494874691344e+01 4.882755442114670785e+01
2.684816731522100852e+01 1.503902208984742295e+01 4.497043399445054490e+01
2.675088339591659548e+01 1.525123309114023407e+01 4.530393098968526289e+01
2.665188106999301354e+01 1.546117572391844952e+01 4.563826118115459707e+01
2.655132465948079457e+01 1.566905679738574619e+01 4.597334839691874464e+01
2.644945603772796616e+01 1.587497443795049534e+01 4.630897436965626923e+01
2.634637156432850702e+01 1.607925378812709738e+01 4.664524336993237341e+01
2.624213856162646508e+01 1.628217102677199435e+01 4.698209465630799997e+01
2.613694328991653748e+01 1.648390552941926757e+01 4.731942126249563785e+01
2.603095310167847742e+01 1.668464669956889068e+01 4.765711007874412530e+01
2.592433609761715729e+01 1.688461950006636769e+01 4.799513715950836712e+01
2.581725017986511261e+01 1.708410524278178499e+01 4.833360365295318672e+01
2.570986569154842982e+01 1.728320714787539103e+01 4.867218730321044262e+01
2.560233597769540026e+01 1.748213688119103537e+01 4.901080686514364970e+01
2.718559291240437403e+01 1.490242880120080393e+01 4.515616967771590851e+01
2.708855867502118286e+01 1.511496808667771496e+01 4.548955373535689972e+01
2.698980587501776895e+01 1.532523788996984493e+01 4.582376807795785112e+01
2.688949863573362720e+01 1.553344529813916353e+01 4.615873690131835616e+01
2.678788659924692794e+01 1.573968542063249743e+01 4.649424801968715570e+01
2.668505395324893215e+01 1.594429061892071964e+01 4.683040310050136412e+01
2.658107108205296143e+01 1.614753489845058354e+01 4.716713975769818035e+01
2.647612271795010130e+01 1.634959797013717164e+01 4.750434972822105095e+01
2.637037627390848016e+01 1.655066892927914779e+01 4.784191929537785626e+01
2.626399956310445205e+01 1.675097264269942343e+01 4.817982413730282332e+01
2.615715086285566215e+01 1.695079179388490331e+01 4.851817007493218625e+01
2.605000359970123824e+01 1.715022771914273392e+01 4.885663469818764781e+01
2.594271101710901561e+01 1.734949227313353148e+01 4.919513702363556007e+01
2.752105857356377783e+01 1.476299996995612673e+01 4.534287630529976099e+01
2.742426358403039188e+01 1.497588095806314890e+01 4.567616178566755281e+01
2.732575153588779315e+01 1.518648901766542814e+01 4.601027206549795068e+01
2.722568588094980413e+01 1.539503214152363419e+01 4.634513234879072741e+01
2.712423828812906734e+01 1.560167761487701554e+01 4.668058123546211391e+01
2.702165658180720342e+01 1.580660941312374668e+01 4.701662298771451987e+01
2.691792298848772091e+01 1.601018144680545419e+01 4.735324552919539087e+01
2.681322099196133024e+01 1.621257368295905721e+01 4.769033951192017184e+01
2.670771808313421758e+01 1.641397493187410106e+01 4.802779069659913347e+01
2.660160723118037041e+01 1.661462768976993942e+01 4.836566080278107194e+01
2.649499548518206282e+01 1.681478230770791527e+01 4.870389120883719158e+01
2.638808537768673546e+01 1.701455519062841759e+01 4.904224443727661509e+01
2.628103000385338817e+01 1.721415874706534765e+01 4.938064066614848002e+01
2.785443494867686809e+01 1.462090631936261786e+01 4.553063643749103306e+01
2.775788082012744695e+01 1.483412694211476435e+01 4.586382087901709781e+01
2.765961091013846129e+01 1.504507155217836356e+01 4.619782516814727558e+01
2.755978812535679268e+01 1.525394894182876726e+01 4.653257544609716945e+01
2.745853452254385374e+01 1.546098120827995182e+01 4.686796309548739714e+01
2.735620296887599778e+01 1.566624018562608356e+01 4.720389181490548935e+01
2.725271794195451136e+01 1.587014051886903765e+01 4.754040053780931174e+01
2.714826189511384769e+01 1.607286235597825907e+01 4.787737896827064077e+01
2.704300241475688438e+01 1.627459422871768879e+01 4.821471238641568391e+01
2.693714204816063784e+01 1.647559733988691022e+01 4.855252655084179736e+01
2.683076869387197405e+01 1.667608601363884091e+01 4.889064004104528038e+01
2.672409692342088050e+01 1.687619436152170849e+01 4.922887987953574651e+01
2.661727965702817755e+01 1.707613529919833795e+01 4.956716725253600231e+01
2.818587119619230918e+01 1.447606694762295021e+01 4.571937877902968950e+01
2.808954934012458793e+01 1.468963654943207509e+01 4.605246924486384330e+01
2.799151450177245337e+01 1.490092548227805302e+01 4.638637369444328584e+01
2.789192865624379891e+01 1.511014370736205770e+01 4.672101935378834270e+01
2.779088825365882798e+01 1.531754560958459166e+01 4.705633345634216624e+01
2.768871642200868166e+01 1.552321300146588889e+01 4.739219817350880959e+01
2.758547936576581350e+01 1.572744205470539747e+01 4.772859322924313119e+01
2.748126894478671289e+01 1.593049381314259350e+01 4.806545639507995560e+01
2.737627826715370816e+01 1.613257258237367964e+01 4.840275576142526148e+01
2.727066196731004055e+01 1.633392044482551597e+01 4.874049002258658447e+01
2.716452892864815993e+01 1.653474424796576159e+01 4.907849281277618303e+01
2.705809783462760976e+01 1.673518965568887751e+01 4.941662762050693658e+01
2.695152157657300407e+01 1.693547021629683513e+01 4.975481726420919415e+01
2.851536489176469047e+01 1.432853691640010751e+01 4.590911436594760886e+01
2.841926873418803368e+01 1.454246144485838954e+01 4.624211271519352806e+01
2.832146359769800270e+01 1.475409982482371163e+01 4.657591958571830304e+01
2.822211026470306905e+01 1.496366329166604991e+01 4.691046300331338870e+01
2.812129078848073149e+01 1.517142611464364066e+01 4.724569340188450894e+01
2.801930950561068911e+01 1.537747669042379073e+01 4.758148078893679411e+01
2.791623053054369308e+01 1.558211605473801242e+01 4.791781197104104706e+01
2.781229035332691879e+01 1.578551427955030384e+01 4.825464348979328122e+01
2.770755643427381898e+01 1.598793466526341689e+01 4.859187653166772947e+01
2.760218430844051696e+01 1.618962255906237502e+01 4.892951978003036828e+01
2.749629458785719294e+01 1.639078163067843974e+01 4.926741766425942615e+01
2.739010778558011339e+01 1.659156434416502535e+01 4.960545471553397334e+01
2.728377707833095300e+01 1.679218473316520033e+01 4.994355560736904920e+01
2.884292682483948056e+01 1.417836099453944243e+01 4.609985024189594327e+01
2.874705062836306269e+01 1.439264413825917188e+01 4.643275396555551993e+01
2.864947050997933786e+01 1.460463545697636434e+01 4.676646242598285141e+01
2.855034586793745177e+01 1.481454730974529888e+01 4.710090368070231648e+01
2.844975030920748083e+01 1.502266585325348203e+01 4.743604113294522051e+01
2.834797462342404373e+01 1.522908578019505832e+01 4.777174028073516610e+01
2.824510837763465076e+01 1.543412744923057822e+01 4.810807855459542992e+01
2.814133756906942452e+01 1.563794874581955163e+01 4.844489763524892822e+01
2.803685699298121747e+01 1.584070611383157434e+01 4.878204781294626002e+01
2.793173209384730526e+01 1.604272955005356849e+01 4.911959447450416150e+01
2.782608972566304928e+01 1.624422309035073297e+01 4.945739283606368275e+01
2.772015221566925902e+01 1.644534190144430141e+01 4.979533833909543006e+01
2.761407358693574210e+01 1.664630000464034154e+01 5.013335725840862978e+01
2.916866344076054318e+01 1.402553536680494517e+01 4.629163996209406662e+01
2.907299576260571072e+01 1.424017569429443775e+01 4.662442400084451322e+01
2.897563103068417689e+01 1.445252146707795760e+01 4.695801930510921096e+01
2.887672704717436645e+01 1.466278445095435501e+01 4.729234960645888464e+01
2.877638523116884528e+01 1.487126837802978052e+01 4.762746774350554091e+01
2.867485129064802862e+01 1.507805379158148895e+01 4.796312997534065659e+01
2.857220851565686459e+01 1.528346462852180743e+01 4.829940997313916995e+01
2.846864232307016351e+01 1.548766495886353312e+01 4.863616450342463082e+01
2.836433833777612179e+01 1.569082156087036495e+01 4.897325451001011487e+01
2.825937660497513804e+01 1.589325602915070768e+01 4.931074940380060667e+01
2.815399568145204512e+01 1.609507730815557380e+01 4.964845659140787149e+01
2.804832618524529053e+01 1.629652148453996929e+01 4.998631684235927963e+01
2.794252566370831659e+01 1.649779949760513986e+01 5.032425462438727948e+01
2.949271658158217235e+01 1.387020354373448683e+01 4.648495678519358876e+01
2.939729746135382271e+01 1.408516704448225809e+01 4.681761084638792880e+01
2.930018110116845520e+01 1.429783625666291158e+01 4.715107664039509672e+01
2.920152532480295449e+01 1.450842289944241159e+01 4.748527784149496256e+01
2.910143262752568560e+01 1.471722905405697190e+01 4.782026411120484966e+01
2.900014755529798194e+01 1.492433670489651654e+01 4.815579492012135177e+01
2.889775391107102820e+01 1.513006955894059402e+01 4.849194281753079849e+01
2.879443685188415714e+01 1.533459194748215815e+01 4.882856523812588989e+01
2.869038173362168465e+01 1.553807089133812447e+01 4.916552379970644182e+01
2.858566914266565462e+01 1.574082779751302397e+01 4.950288677154375705e+01
2.848053641149013870e+01 1.594297296378765516e+01 4.984046477049540869e+01
2.837511522562136790e+01 1.614474079290824093e+01 5.017819541028359964e+01
2.826956315187456070e+01 1.634634219448851056e+01 5.051600309485986884e+01
2.981483595644558449e+01 1.371236170559014411e+01 4.667924985223906731e+01
2.971966542183600168e+01 1.392764832790998497e+01 4.701177390984230442e+01
2.962279746027031635e+01 1.414064093186113702e+01 4.734511017190906301e+01
2.952438991688131509e+01 1.435155119027764492e+01 4.767918225525407649e+01
2.942454636696776760e+01 1.456067951693595575e+01 4.801403663887013806e+01
2.932351018619046101e+01 1.476810935877600706e+01 4.834943601014990833e+01
2.922136569962927766e+01 1.497416417698502933e+01 4.868545178946756380e+01
2.911829780135581558e+01 1.517900857046889485e+01 4.902194208272921827e+01
2.901449157551108371e+01 1.538280980866051095e+01 4.935876918421774917e+01
2.891002815939324222e+01 1.558588909504766562e+01 4.969600021508762211e+01
2.880514365308707525e+01 1.578835810347197821e+01 5.003344900534681017e+01
2.869997081027042185e+01 1.599044953920801504e+01 5.037105001390305858e+01
2.859466721742348128e+01 1.619237428182209015e+01 5.070872758079764253e+01
3.013504447015124299e+01 1.355204042363788020e+01 4.687450711863942132e+01
3.004012254688052508e+01 1.376765011662442895e+01 4.720690114847336361e+01
2.994350300906069506e+01 1.398096606591995972e+01 4.754010785863078326e+01
2.984534372283410875e+01 1.419219989705377927e+01 4.787405080790923506e+01
2.974574934690971517e+01 1.440165034142083123e+01 4.820877328871877410e+01
2.964496207876485201e+01 1.460940232869504385e+01 4.854404120921091703e+01
2.954306677434080441e+01 1.481577905926376992e+01 4.887992485476856075e+01
2.944024806253993987e+01 1.502094540553679991e+01 4.921628300479628138e+01
2.933669075256277381e+01 1.522506889149786424e+01 4.955297863260768310e+01
2.923247654193011513e+01 1.542847050144207799e+01 4.989007770568805711e+01
2.912784029112899020e+01 1.563126330720742985e+01 5.022739726889457756e+01
2.902291582223418942e+01 1.583367830399165932e+01 5.056486862782018932e+01
2.891786074148121344e+01 1.603592634086378865e+01 5.090241605829447025e+01
3.045336504699099578e+01 1.338927026180943258e+01 4.707071654848455466e+01
3.035869175913093798e+01 1.360520297568017156e+01 4.740298052788733685e+01
3.026232066844492152e+01 1.381884222443841281e+01 4.773605766744426404e+01
3.016440966193663797e+01 1.403039958646042962e+01 4.806987146780510045e+01
3.006506448434750212e+01 1.424017209510477677e+01 4.840446203077717513e+01
2.996452614816991300e+01 1.444824618330178723e+01 4.873959848914199711e+01
2.986288004855486022e+01 1.465494477559745690e+01 4.907534998694160322e+01
2.976031054655937069e+01 1.486043302335322203e+01 4.941157597991328032e+01
2.965700217388813442e+01 1.506487871120405231e+01 4.974814012230794447e+01
2.955303719686904529e+01 1.526860258902849665e+01 5.008510722250369440e+01
2.944864923063271078e+01 1.547171914798907544e+01 5.042229754153577659e+01
2.934397316469653916e+01 1.567445766095853976e+01 5.075963923405986833e+01
2.923916662522870880e+01 1.587702894606828607e+01 5.109705651121777237e+01
3.076982063037739579e+01 1.322408177603391621e+01 4.726786611406679128e+01
3.067539600007680889e+01 1.344033746216888936e+01 4.760000002215092252e+01
3.057927337819767999e+01 1.365429996549267955e+01 4.793294757405672613e+01
3.048161067225326093e+01 1.386618081700465410e+01 4.826663221167434159e+01
3.038251471519989977e+01 1.407627533783844598e+01 4.860109084379659095e+01
3.028222532850782756e+01 1.428467148343265691e+01 4.893609583004786856e+01
3.018082845420777360e+01 1.449169188773093531e+01 4.927171516809683993e+01
3.007850818325897890e+01 1.469750198694609367e+01 4.960780899180407744e+01
2.997544876764916211e+01 1.490226983172907538e+01 4.994424163842999320e+01
2.987173305018478331e+01 1.510631592288338432e+01 5.028107675270715049e+01
2.976759339571081497e+01 1.530975619160486012e+01 5.061813781194222628e+01
2.966316575985272408e+01 1.551281817634846760e+01 5.095534982267806612e+01
2.955860778927445764e+01 1.571571266417862489e+01 5.129263693101810873e+01
3.108443418175270168e+01 1.305650551401760850e+01 4.746594379627084237e+01
3.099025822936746621e+01 1.327308412469463406e+01 4.779794761398073177e+01
3.089438409617884673e+01 1.348736983870803385e+01 4.813076556238549841e+01
3.079696971035714625e+01 1.369957413918038291e+01 4.846432102472666514e+01
3.069812299393279531e+01 1.390999062109407802e+01 4.879864771463972062e+01
3.059808257236184303e+01 1.411870878167368737e+01 4.913352122038848080e+01
3.049693494185439491e+01 1.432605094949085256e+01 4.946900838833492031e+01
3.039486392113797208e+01 1.453218285105944574e+01 4.980497003241676879e+01
3.029205348039473122e+01 1.473727280907079695e+01 5.014127117465128691e+01
3.018858704607494303e+01 1.494164105987501046e+01 5.047797429157125748e+01
3.008469572891610255e+01 1.514540499528042439e+01 5.081490607684614247e+01
2.998051654865695070e+01 1.534879040828397656e+01 5.115198839174676948e+01
2.987620717230829115e+01 1.555200805416320620e+01 5.148914531751206880e+01
3.139722867988714228e+01 1.288657201446888045e+01 4.766493758503728628e+01
3.130330142401177795e+01 1.310347350319585580e+01 4.799681129450495121e+01
3.120767579793735180e+01 1.331808238477756312e+01 4.832949962502105024e+01
3.111050974983543682e+01 1.353061009448378371e+01 4.866292590080791314e+01
3.101191229206709465e+01 1.374134848777842777e+01 4.899712063874190449e+01
3.091212084980735497e+01 1.395038862176924255e+01 4.933186265713860053e+01
3.081122247948240656e+01 1.415805250579008678e+01 4.966721764620481139e+01
3.070940072616878425e+01 1.436450616185371842e+01 5.000304710208263970e+01
3.060683927628170409e+01 1.456991819007271438e+01 5.033921673257432872e+01
3.050362214668469463e+01 1.477460854815695868e+01 5.067578784252643231e+01
3.039997919037016416e+01 1.497869610826930575e+01 5.101259034089705580e+01
3.029604848945493245e+01 1.518240490655710673e+01 5.134954294751019432e+01
3.019198773113392420e+01 1.538594566660236929e+01 5.168656967823868342e+01
3.170822712006516753e+01 1.271431180657094728e+01 4.786483547839928576e+01
3.161454857756842074e+01 1.293153612801360275e+01 4.819657906359947930e+01
3.151917147530189212e+01 1.314646813522791291e+01 4.852913776326067818e+01
3.142225378128422264e+01 1.335931921537572542e+01 4.886243484213589738e+01
3.132390559817736175e+01 1.357037947129012778e+01 4.919649762014505967e+01
3.122436314731210061e+01 1.377974153837695503e+01 4.953110814552185559e+01
3.112371405191552753e+01 1.398772709247967150e+01 4.986633094863968552e+01
3.102214158110318820e+01 1.419450245645327868e+01 5.020202820924997411e+01
3.091982913638367592e+01 1.440023651296812623e+01 5.053806632216002015e+01
3.081686133071966438e+01 1.460524892690852283e+01 5.087450541729585751e+01
3.071346675747885513e+01 1.480966007019051744e+01 5.121117861699568863e+01
3.060978455760207240e+01 1.501369221166432055e+01 5.154800150411833215e+01
3.050597243919419910e+01 1.521755604291703712e+01 5.188489802889164793e+01
3.201745251336641473e+01 1.253975541019908135e+01 4.806562548369369381e+01
3.192402269942808246e+01 1.275730252020597000e+01 4.839723892979809960e+01
3.182889413606826423e+01 1.297255761192879753e+01 4.872966798681930811e+01
3.173222481089629099e+01 1.318573202438933301e+01 4.906283585971008421e+01
3.163412591638177673e+01 1.339711409582391966e+01 4.939676667120754416e+01
3.153483246772929505e+01 1.360679805656810615e+01 4.973124569932097927e+01
3.143443265970850931e+01 1.381510523594510786e+01 5.006633631106461735e+01
3.133310948476971447e+01 1.402220226214030596e+01 5.040190137079442678e+01
3.123104605759178654e+01 1.422825830616994480e+01 5.073780796173785745e+01
3.112832759314870046e+01 1.443359272582080344e+01 5.107411503570374833e+01
3.102518142313852323e+01 1.463832741171117213e+01 5.141065892630203393e+01
3.092174774457379627e+01 1.484268285508527008e+01 5.174735208393494901e+01
3.081818428618104377e+01 1.504686971524717443e+01 5.208411839332775628e+01
3.232492788564391617e+01 1.236293333488138124e+01 4.826729561634660826e+01
3.223174681369446404e+01 1.258080319050533724e+01 4.859877891047854348e+01
3.213686680278002683e+01 1.279638132674890727e+01 4.893107831421515641e+01
3.204044585974535408e+01 1.300987903448132599e+01 4.926411697289590563e+01
3.194259626612836556e+01 1.322158287531882870e+01 4.959791581288936158e+01
3.184355182848509358e+01 1.343158869147306689e+01 4.993226334086290308e+01
3.174340131873802662e+01 1.364021745234834526e+01 5.026722175718443708e+01
3.164232745106704670e+01 1.384763609669174045e+01 5.060265461210364890e+01
3.154051305210947120e+01 1.405401408830565302e+01 5.093842967779219322e+01
3.143804394410222258e+01 1.425967046482741907e+01 5.127460472566261984e+01
3.133514619613657359e+01 1.446472865327502966e+01 5.161101929802358512e+01
3.123196105736717598e+01 1.466940735820906738e+01 5.194758271752447598e+01
3.112864627724312427e+01 1.487391720597208256e+01 5.228421880335291405e+01
3.263067627670144333e+01 1.218387607980445431e+01 4.846983390103799394e+01
3.253774395886300397e+01 1.240206863942027482e+01 4.880118703122495560e+01
3.244311251241017402e+01 1.261796978125365776e+01 4.913335677233155963e+01
3.234693996326863896e+01 1.283179074792828622e+01 4.946626620978837963e+01
3.224933968068099688e+01 1.304381631344947756e+01 4.979993307481546339e+01
3.215054426156657996e+01 1.325414394796961837e+01 5.013414910078314790e+01
3.205064305909142774e+01 1.346309424791301090e+01 5.046897531894700251e+01
3.194981850825493552e+01 1.367083446726219265e+01 5.080427596634427800e+01
3.184825314674592178e+01 1.387753436779568972e+01 5.113991950492724925e+01
3.174603340806856266e+01 1.408351265337880420e+01 5.147596252343878831e+01
3.164338409925030149e+01 1.428889430557295981e+01 5.181224776937887810e+01
3.154044751710364025e+01 1.449389623230110224e+01 5.214868144341689060e+01
3.143738143198814328e+01 1.469872902737700571e+01 5.248518729868881394e+01
3.293472073987491910e+01 1.200261413375985065e+01 4.867322837054414464e+01
3.284203718630444513e+01 1.222112935677896495e+01 4.900445132647173807e+01
3.274765431484687639e+01 1.243735346644469253e+01 4.933649139675991080e+01
3.265173017025429658e+01 1.265149765676315674e+01 4.966927160685479237e+01
3.255437920700740762e+01 1.286384490366008571e+01 5.000280649461924298e+01
3.245583281231109396e+01 1.307449432031377867e+01 5.033689101806906763e+01
3.235618092435888826e+01 1.328376611825095388e+01 5.067158503678693648e+01
3.225560569814754786e+01 1.349182787080684243e+01 5.100675347550419758e+01
3.215428938161038985e+01 1.369884964247443193e+01 5.134226548611151486e+01
3.205231902348924677e+01 1.390514979066033163e+01 5.167817647319708385e+01
3.194991816934506801e+01 1.411085486835803771e+01 5.201433238584362329e+01
3.184723015892855713e+01 1.431617997851553348e+01 5.235063630805350243e+01
3.174441278388650289e+01 1.452133568126009067e+01 5.268701192721609772e+01
3.323708434061997252e+01 1.181917797463040465e+01 4.887746706655925522e+01
3.314464956025321385e+01 1.203801582181270291e+01 4.920855983892484886e+01
3.305051527288205904e+01 1.225456286244227577e+01 4.954047023152299545e+01
3.295483954173214158e+01 1.246903024205343868e+01 4.987312120885641775e+01
3.285773790467169420e+01 1.268169912813913669e+01 5.020652411856511321e+01
3.275944053870001937e+01 1.289267029221135274e+01 5.054047713998262736e+01
3.266003797082753835e+01 1.310226354813179483e+01 5.087503895935000742e+01
3.255971207530983946e+01 1.331064679344712864e+01 5.121007518931785540e+01
3.245864480971052757e+01 1.351799039965250238e+01 5.154545567230357506e+01
3.235692384136019939e+01 1.372461236524993033e+01 5.188123462742687053e+01
3.225477145577620064e+01 1.393064083130090403e+01 5.221726120077599376e+01
3.215233203091547409e+01 1.413628908684731122e+01 5.255343536611234612e+01
3.204976337907722694e+01 1.434176765898244099e+01 5.288968074460242974e+01
3.353739484818896699e+01 1.163398551623761357e+01 4.908263606220520359e+01
3.344518825376471938e+01 1.185314740055350136e+01 4.941356108942209602e+01
3.335128871670114137e+01 1.207001448621164919e+01 4.974530750038561422e+01
3.325585157383886781e+01 1.228480053254499360e+01 5.007779896573787681e+01
3.315907047669303154e+01 1.249770322629848174e+01 5.041100494754712003e+01
3.306107675174788341e+01 1.270892711097885019e+01 5.074477070610845431e+01
3.296195408507532676e+01 1.291879492014391317e+01 5.107914690891557541e+01
3.286189374644855832e+01 1.312746357741727365e+01 5.141399206152892276e+01
3.276107990501935774e+01 1.333509808865375668e+01 5.174916738452539988e+01
3.265960668785896814e+01 1.354201332070856978e+01 5.208473175318623305e+01
3.255772291695843279e+01 1.374834433549295021e+01 5.242061711613845887e+01
3.245555770352501668e+01 1.395429113892893902e+01 5.275665149489351080e+01
3.235326968168045880e+01 1.416006484242553576e+01 5.309276198173492389e+01
3.383600236945609652e+01 1.144671689556796501e+01 4.928854829629150913e+01
3.374404154142068535e+01 1.166618847220728306e+01 4.961930729863845357e+01
3.365038873636722627e+01 1.188336728395186626e+01 4.995089440129423508e+01
3.355519863266027869e+01 1.209846703501561116e+01 5.028323187738975975e+01
3.345866402600295686e+01 1.231168208781807394e+01 5.061627943151358977e+01
3.336091249277888693e+01 1.252321862894254245e+01 5.094987715347810564e+01
3.326210566267784685e+01 1.273331423590517808e+01 5.128402805960804756e+01
3.316232589660179997e+01 1.294223935366562372e+01 5.161864037824484797e+01
3.306179168091068021e+01 1.315015737233037640e+01 5.195365254327725069e+01
3.296058350205385779e+01 1.335737033623078496e+01 5.228905604261796469e+01
3.285895859007298014e+01 1.356400898410158362e+01 5.262479299213941886e+01
3.275705671287408904e+01 1.377025852278519302e+01 5.296067552053153804e+01
3.265503756181421124e+01 1.397632916181808405e+01 5.329663049157100119e+01
3.413299475903010460e+01 1.125736083279348421e+01 4.949522872375600002e+01
3.404128376705255477e+01 1.147714092719400725e+01 4.982582720174294622e+01
3.394788051492851366e+01 1.169463106639404515e+01 5.015725986112046542e+01
3.385293944091027640e+01 1.191004452838944694e+01 5.048944751711460555e+01
3.375665327046859687e+01 1.212356933994927921e+01 5.082233374031686424e+01
3.365914247672250781e+01 1.233541653770315527e+01 5.115575397157643778e+01
3.356056933750976867e+01 1.254582129187999229e+01 5.148970671185426795e+01
3.346111332413916273e+01 1.275498313588576771e+01 5.182413616909772713e+01
3.336087175888440726e+01 1.296316968233069211e+01 5.215897713411613523e+01
3.325993073654086629e+01 1.317067557490566898e+01 5.249421301054774602e+01
3.315855991965423755e+01 1.337762562358106244e+01 5.282980160665644576e+01
3.305691577485274024e+01 1.358418215140449270e+01 5.316553199402324026e+01
3.295515890389754077e+01 1.379055434041541162e+01 5.350133018337623270e+01
3.442839892113263289e+01 1.106594089621089871e+01 4.970265589396845485e+01
3.433694040049665119e+01 1.128603018318406903e+01 5.003310109073277090e+01
3.424378858286553395e+01 1.150383247024042177e+01 5.036438538107915974e+01
3.414909790379218180e+01 1.171956050097187507e+01 5.069642832752643358e+01
3.405306064017467804e+01 1.193339286197060645e+01 5.102914794479674043e+01
3.395578479615100065e+01 1.214554962764945856e+01 5.136237330027137915e+01
3.385746041731887601e+01 1.235627298156554943e+01 5.169618819349662431e+01
3.375825092066614985e+01 1.256575466205634406e+01 5.203047835875536720e+01
3.365833082733175985e+01 1.277417961899729271e+01 5.236513719912156972e+01
3.355766486717151764e+01 1.298196812879247908e+01 5.270019764659333816e+01
3.345654385396163377e+01 1.318923349550317781e+01 5.303563924643069782e+01
3.335515219628656780e+01 1.339610178797176054e+01 5.337121918133694720e+01
3.325365117105774715e+01 1.360278127283667615e+01 5.370686243905285551e+01
3.472223744419307678e+01 1.087248120505483762e+01 4.991079978511446313e+01
3.463103316180804825e+01 1.109288212427126297e+01 5.024110171151236415e+01
3.453813414284217487e+01 1.131099862750813045e+01 5.057224592510834782e+01
3.444369494971593326e+01 1.152704299688859990e+01 5.090415116492765435e+01
3.434790410415066475e+01 1.174118123356728915e+01 5.123669326746407648e+01
3.425087827053942391e+01 1.195365660965337540e+01 5.156978327700911535e+01
3.415280219128167971e+01 1.216469921679714083e+01 5.190346098549119347e+01
3.405383866824217876e+01 1.237450147014529200e+01 5.223761248377044097e+01
3.395416228280544146e+01 1.258324855004161336e+01 5.257213216406690748e+01
3.385379236003431913e+01 1.279129669154268889e+01 5.290700668325048639e+01
3.375291742169920184e+01 1.299888141064023372e+01 5.324230422348538383e+01
3.365177337259354573e+01 1.320606678058121553e+01 5.357773757294438610e+01
3.355052183448587044e+01 1.341306048740998769e+01 5.391323090436246446e+01
3.501456119747507501e+01 1.067702183205377153e+01 5.011973954748579274e+01
3.492361099887069287e+01 1.089773385951399476e+01 5.044989653962593934e+01
3.483096453106465873e+01 1.111616425130546126e+01 5.078089928466268077e+01
3.473677645240491074e+01 1.133252481920454358e+01 5.111266559912040464e+01
3.464122279554198514e+01 1.154697242976749649e+01 5.144501696529776069e+01
3.454444641678424688e+01 1.175976716879165984e+01 5.177797236257286784e+01
3.444661808807604331e+01 1.197112981723684833e+01 5.211151368181800336e+01
3.434789990756095790e+01 1.218125352125388439e+01 5.244552728603941461e+01
3.424846656915134702e+01 1.239032365813415026e+01 5.277990859741702678e+01
3.414841550319766128e+01 1.259861241249911501e+01 5.311460222164682676e+01
3.404778587517335353e+01 1.280651649251460000e+01 5.344975369017952005e+01
3.394688901235731038e+01 1.301401861662156634e+01 5.378503842627502252e+01
3.384588694125211106e+01 1.322132582496064757e+01 5.412037976828949581e+01
3.530536794131475631e+01 1.047957267281192983e+01 5.032935013574891769e+01
3.521467231106304752e+01 1.070060066915814367e+01 5.065937568873086150e+01
3.512227894876671996e+01 1.091934883473058449e+01 5.099024827344073429e+01
3.502834262165030310e+01 1.113602875951417204e+01 5.132188539604636901e+01
3.493304062843660773e+01 1.135079573398043351e+01 5.165410744266186782e+01
3.483651299378947641e+01 1.156391080020197748e+01 5.198692913215072764e+01
3.473893175074103823e+01 1.177559446044350189e+01 5.232033504820368108e+01
3.464045816705718295e+01 1.198604068406728551e+01 5.265421174702642304e+01
3.454126710730226080e+01 1.219543502345457853e+01 5.298845576761060983e+01
3.444145481072366977e+01 1.240405240823913857e+01 5.332301539283854197e+01
3.434106866256527013e+01 1.261227892327892697e+01 5.365802571571455104e+01
3.424041589415107723e+01 1.282010251092288655e+01 5.399316827467193747e+01
3.413965856887669048e+01 1.302773007029583674e+01 5.432836613920738955e+01
3.559469759473238781e+01 1.028018289173566480e+01 5.053970977701933975e+01
3.550425720635669791e+01 1.050152654866210433e+01 5.086960483427247937e+01
3.541211740821874088e+01 1.072059237090343764e+01 5.120034816351558504e+01
3.531843309605654468e+01 1.093759169922633312e+01 5.153185693919753874e+01
3.522338194808727252e+01 1.115268004672722491e+01 5.186395319280890703e+01
3.512710213627960343e+01 1.136611670302684196e+01 5.219664233952170918e+01
3.502976715996076962e+01 1.157812259900691743e+01 5.252991412076649880e+01
3.493153727333020697e+01 1.178889267943281638e+01 5.286365522281561624e+01
3.483258757172472286e+01 1.199861267394086184e+01 5.319776346523329380e+01
3.473301200774034214e+01 1.220756221293505561e+01 5.353219344145264813e+01
3.463286829927315580e+01 1.241611159593696989e+01 5.386706115512317439e+01
3.453245863371009250e+01 1.262425704056857967e+01 5.420206009871323261e+01
3.443194509951226223e+01 1.283220530724548958e+01 5.453711304970244811e+01
3.588257492851010255e+01 1.007888002622565082e+01 5.075080443976180078e+01
3.579239057357988685e+01 1.030053905581171492e+01 5.108057029794023407e+01
3.570050485970288889e+01 1.051992248494847360e+01 5.141118561228820028e+01
3.560707284113534854e+01 1.073724136708054999e+01 5.174256720004975563e+01
3.551227177112681943e+01 1.095265366698461307e+01 5.207454283589341060e+01
3.541623858160622262e+01 1.116641360268122796e+01 5.240710102701643791e+01
3.531914884691669698e+01 1.137874331814950857e+01 5.274024037490596584e+01
3.522116153826590335e+01 1.158983898338968999e+01 5.307384767530894720e+01
3.512245203138414240e+01 1.179988656282454151e+01 5.340782231869521013e+01
3.502310984554006978e+01 1.200917357677929509e+01 5.374212858506209045e+01
3.492320736483043930e+01 1.221804631499804827e+01 5.407685191404890901e+01
3.482303964025786058e+01 1.242651406516372070e+01 5.441170549822640368e+01
3.472276876724092887e+01 1.263478345416674742e+01 5.474661179256265342e+01
