10.3 -8.05 -19.048
10.6 -8.05 -19.468
10.9 -8.05 -19.972
11.2 -8.05 -20.437
11.5 -8.05 -20.944
11.8 -8.05 -21.379
12.1 -8.05 -21.889
12.4 -8.05 -22.357
12.7 -8.05 -22.858
13.0 -8.05 -23.383
13.3 -8.05 -23.839
13.6 -8.05 -24.358
13.9 -8.05 -24.895
14.2 -8.05 -25.396
14.5 -8.05 -25.933
14.8 -8.05 -26.398
15.1 -8.05 -26.944
15.4 -8.05 -27.442
15.7 -8.05 -28.003
16.0 -8.05 -28.522
16.3 -8.05 -29.113
16.6 -8.05 -29.641
16.9 -8.05 -30.22
17.2 -8.05 -30.703
17.5 -8.05 -31.36
17.8 -8.05 -31.834
18.1 -8.05 -32.431
18.4 -8.05 -32.935
18.7 -8.05 -33.601
19.0 -8.05 -34.183
19.3 -8.05 -34.798
19.6 -8.05 -35.335
19.9 -8.05 -35.962
20.2 -8.05 -36.559
20.5 -8.05 -37.114
20.8 -8.05 -37.807
21.1 -8.05 -38.344
21.4 -8.05 -38.863
21.7 -8.05 -39.658
22.0 -8.05 -40.282
22.3 -8.05 -40.885
22.6 -8.05 -41.572
22.9 -8.05 -42.199
23.2 -8.05 -42.856
23.5 -8.05 -43.465
23.8 -8.05 -44.32
24.4 -8.05 -45.751
-38.3 -8.35 1.289
-38.0 -8.35 2.327
-37.7 -8.35 3.239
-37.4 -8.35 3.974
-37.1 -8.35 4.628
-36.8 -8.35 5.282
-36.5 -8.35 5.819
-36.2 -8.35 6.323
-35.9 -8.35 6.752
-35.6 -8.35 7.19
-35.3 -8.35 7.583
-35.0 -8.35 7.847
-34.7 -8.35 8.294
-33.8 -8.35 10.526
-33.5 -8.35 10.889
-33.2 -8.35 11.084
-32.9 -8.35 11.282
-32.6 -8.35 11.441
-32.3 -8.35 11.615
-32.0 -8.35 11.759
-31.7 -8.35 11.948
-31.4 -8.35 12.107
-31.1 -8.35 12.233
-30.8 -8.35 12.29
-30.5 -8.35 12.146
-30.2 -8.35 11.867
-29.9 -8.35 11.564
-29.6 -8.35 11.516
-29.3 -8.35 11.567
-29.0 -8.35 11.636
-28.7 -8.35 11.705
-28.4 -8.35 11.774
-28.1 -8.35 11.834
-27.8 -8.35 11.819
-27.5 -8.35 11.921
-27.2 -8.35 11.942
-26.9 -8.35 11.981
-26.6 -8.35 12.029
-26.3 -8.35 12.002
-26.0 -8.35 12.062
-25.7 -8.35 12.02
-25.4 -8.35 12.026
-25.1 -8.35 11.975
-24.8 -8.35 11.969
-24.5 -8.35 11.957
-24.2 -8.35 11.939
-23.9 -8.35 11.9
-23.6 -8.35 11.84
-23.3 -8.35 11.795
-23.0 -8.35 11.726
-22.7 -8.35 11.678
-22.4 -8.35 11.612
-22.1 -8.35 11.555
-21.8 -8.35 11.462
-21.5 -8.35 11.393
-21.2 -8.35 11.303
-20.9 -8.35 11.213
-20.6 -8.35 11.15
-20.3 -8.35 11.006
-20.0 -8.35 10.907
-19.7 -8.35 10.823
-19.4 -8.35 10.676
-19.1 -8.35 10.604
-18.8 -8.35 10.472
-18.5 -8.35 10.355
-18.2 -8.35 10.229
-17.9 -8.35 10.052
-17.6 -8.35 9.923
-17.3 -8.35 9.788
-17.0 -8.35 9.656
-16.7 -8.35 9.506
-16.4 -8.35 9.32
-16.1 -8.35 9.173
-15.8 -8.35 9.026
-15.5 -8.35 8.822
-15.2 -8.35 8.654
-14.9 -8.35 8.501
-14.6 -8.35 8.315
-14.3 -8.35 8.144
-14.0 -8.35 7.931
-13.7 -8.35 7.706
-13.4 -8.35 7.568
-13.1 -8.35 7.361
-12.8 -8.35 7.187
-12.5 -8.35 6.953
-12.2 -8.35 6.719
-11.9 -8.35 6.506
-11.6 -8.35 6.302
-11.3 -8.35 6.083
-11.0 -8.35 5.849
-10.7 -8.35 5.621
-10.4 -8.35 5.405
-10.1 -8.35 5.162
-9.8 -8.35 4.895
-9.5 -8.35 4.658
-9.2 -8.35 4.421
-8.9 -8.35 4.136
-8.6 -8.35 3.926
-8.3 -8.35 3.641
-8.0 -8.35 3.362
-7.7 -8.35 3.098
-7.4 -8.35 2.84
-7.1 -8.35 2.591
-6.8 -8.35 2.318
-6.5 -8.35 2.039
-6.2 -8.35 1.748
-5.9 -8.35 1.448
-5.6 -8.35 1.16
-5.3 -8.35 0.902
-5.0 -8.35 0.599
-4.7 -8.35 0.29
-4.4 -8.35 0.014
-4.1 -8.35 -0.346
-3.8 -8.35 -0.625
-3.5 -8.35 -0.949
-3.2 -8.35 -1.258
-2.9 -8.35 -1.552
-2.6 -8.35 -1.891
-2.3 -8.35 -2.203
-2.0 -8.35 -2.545
-1.7 -8.35 -2.878
-1.4 -8.35 -3.214
-1.1 -8.35 -3.556
-0.8 -8.35 -3.856
-0.5 -8.35 -4.279
-0.2 -8.35 -4.621
0.1 -8.35 -4.987
0.4 -8.35 -5.317
0.7 -8.35 -5.659
1.0 -8.35 -6.016
1.3 -8.35 -6.409
1.6 -8.35 -6.778
1.9 -8.35 -7.147
2.2 -8.35 -7.537
2.5 -8.35 -7.939
2.8 -8.35 -8.317
3.1 -8.35 -8.671
3.4 -8.35 -9.073
3.7 -8.35 -9.496
4.0 -8.35 -9.865
4.3 -8.35 -10.285
4.6 -8.35 -10.681
4.9 -8.35 -11.08
5.2 -8.35 -11.497
5.5 -8.35 -11.929
5.8 -8.35 -12.337
6.1 -8.35 -12.742
6.4 -8.35 -13.138
6.7 -8.35 -13.597
7.0 -8.35 -14.017
7.3 -8.35 -14.425
7.6 -8.35 -14.881
7.9 -8.35 -15.304
8.2 -8.35 -15.742
8.5 -8.35 -16.204
8.8 -8.35 -16.642
9.1 -8.35 -17.092
9.4 -8.35 -17.482
9.7 -8.35 -17.989
10.0 -8.35 -18.466
10.3 -8.35 -18.934
10.6 -8.35 -19.381
10.9 -8.35 -19.843
11.2 -8.35 -20.302
11.5 -8.35 -20.767
11.8 -8.35 -21.256
12.1 -8.35 -21.757
12.4 -8.35 -22.255
12.7 -8.35 -22.714
13.0 -8.35 -23.227
13.3 -8.35 -23.692
13.6 -8.35 -24.205
13.9 -8.35 -24.721
14.2 -8.35 -25.225
14.5 -8.35 -25.81
14.8 -8.35 -26.302
15.1 -8.35 -26.824
15.4 -8.35 -27.346
15.7 -8.35 -27.91
16.0 -8.35 -28.36
16.3 -8.35 -28.999
16.6 -8.35 -29.518
16.9 -8.35 -30.022
17.2 -8.35 -30.622
17.5 -8.35 -31.147
17.8 -8.35 -31.726
18.1 -8.35 -32.29
18.4 -8.35 -32.638
18.7 -8.35 -33.244
19.0 -8.35 -33.994
19.3 -8.35 -34.552
19.6 -8.35 -35.143
19.9 -8.35 -35.719
20.2 -8.35 -36.367
20.5 -8.35 -36.946
20.8 -8.35 -37.624
21.1 -8.35 -38.29
21.4 -8.35 -38.824
21.7 -8.35 -39.385
22.0 -8.35 -39.91
22.3 -8.35 -40.699
22.6 -8.35 -41.353
22.9 -8.35 -42.064
23.2 -8.35 -42.769
23.5 -8.35 -43.348
23.8 -8.35 -44.083
24.1 -8.35 -44.68
24.4 -8.35 -45.601
25.0 -8.35 -46.789
-38.3 -8.65 1.622
-38.0 -8.65 2.66
-37.7 -8.65 3.527
-37.4 -8.65 4.262
-37.1 -8.65 4.91
-36.8 -8.65 5.513
-36.5 -8.65 6.035
-36.2 -8.65 6.533
-35.9 -8.65 6.977
-35.6 -8.65 7.361
-35.3 -8.65 7.73
-35.0 -8.65 8.063
-34.7 -8.65 8.411
-34.4 -8.65 8.708
-34.1 -8.65 9.014
-33.8 -8.65 9.761
-33.5 -8.65 10.19
-33.2 -8.65 10.4
-32.9 -8.65 10.589
-32.6 -8.65 10.757
-32.3 -8.65 10.949
-32.0 -8.65 11.141
-31.7 -8.65 11.297
-31.4 -8.65 11.462
-31.1 -8.65 11.612
-30.8 -8.65 11.756
-30.5 -8.65 11.816
-30.2 -8.65 11.699
-29.9 -8.65 11.606
-29.6 -8.65 11.603
-29.3 -8.65 11.675
-29.0 -8.65 11.771
-28.7 -8.65 11.843
-28.4 -8.65 11.906
-28.1 -8.65 11.96
-27.8 -8.65 11.996
-27.5 -8.65 12.026
-27.2 -8.65 12.065
-26.9 -8.65 12.083
-26.6 -8.65 12.125
-26.3 -8.65 12.128
-26.0 -8.65 12.131
-25.7 -8.65 12.119
-25.4 -8.65 12.119
-25.1 -8.65 12.113
-24.8 -8.65 12.095
-24.5 -8.65 12.065
-24.2 -8.65 12.026
-23.9 -8.65 11.978
-23.6 -8.65 11.966
-23.3 -8.65 11.936
-23.0 -8.65 11.873
-22.7 -8.65 11.765
-22.4 -8.65 11.723
-22.1 -8.65 11.663
-21.8 -8.65 11.594
-21.5 -8.65 11.483
-21.2 -8.65 11.384
-20.9 -8.65 11.336
-20.6 -8.65 11.237
-20.3 -8.65 11.138
-20.0 -8.65 11.015
-19.7 -8.65 10.931
-19.4 -8.65 10.805
-19.1 -8.65 10.691
-18.8 -8.65 10.571
-18.5 -8.65 10.43
-18.2 -8.65 10.331
-17.9 -8.65 10.175
-17.6 -8.65 10.034
-17.3 -8.65 9.893
-17.0 -8.65 9.728
-16.7 -8.65 9.596
-16.4 -8.65 9.458
-16.1 -8.65 9.245
-15.8 -8.65 9.098
-15.5 -8.65 8.945
-15.2 -8.65 8.756
-14.9 -8.65 8.603
-14.6 -8.65 8.432
-14.3 -8.65 8.249
-14.0 -8.65 8.042
-13.7 -8.65 7.85
-13.4 -8.65 7.646
-13.1 -8.65 7.46
-12.8 -8.65 7.253
-12.5 -8.65 7.082
-12.2 -8.65 6.845
-11.9 -8.65 6.605
-11.6 -8.65 6.413
-11.3 -8.65 6.185
-11.0 -8.65 5.951
-10.7 -8.65 5.738
-10.4 -8.65 5.504
-10.1 -8.65 5.282
-9.8 -8.65 5.03
-9.5 -8.65 4.784
-9.2 -8.65 4.538
-8.9 -8.65 4.277
-8.6 -8.65 4.01
-8.3 -8.65 3.77
-8.0 -8.65 3.497
-7.7 -8.65 3.227
-7.4 -8.65 2.99
-7.1 -8.65 2.717
-6.8 -8.65 2.435
-6.5 -8.65 2.135
-6.2 -8.65 1.877
-5.9 -8.65 1.568
-5.6 -8.65 1.289
-5.3 -8.65 1.01
-5.0 -8.65 0.698
-4.7 -8.65 0.404
-4.4 -8.65 0.116
-4.1 -8.65 -0.226
-3.8 -8.65 -0.508
-3.5 -8.65 -0.847
-3.2 -8.65 -1.123
-2.9 -8.65 -1.432
-2.6 -8.65 -1.753
-2.3 -8.65 -2.122
-2.0 -8.65 -2.476
-1.7 -8.65 -2.812
-1.4 -8.65 -3.085
-1.1 -8.65 -3.472
-0.8 -8.65 -3.793
-0.5 -8.65 -4.156
-0.2 -8.65 -4.48
0.1 -8.65 -4.858
0.4 -8.65 -5.206
0.7 -8.65 -5.569
1.0 -8.65 -5.932
1.3 -8.65 -6.283
1.6 -8.65 -6.679
1.9 -8.65 -7.024
2.2 -8.65 -7.405
2.5 -8.65 -7.807
2.8 -8.65 -8.173
3.1 -8.65 -8.542
3.4 -8.65 -8.959
3.7 -8.65 -9.358
4.0 -8.65 -9.754
4.3 -8.65 -10.156
4.6 -8.65 -10.543
4.9 -8.65 -10.954
5.2 -8.65 -11.359
5.5 -8.65 -11.791
5.8 -8.65 -12.19
6.1 -8.65 -12.604
6.4 -8.65 -13.027
6.7 -8.65 -13.465
7.0 -8.65 -13.93
7.3 -8.65 -14.308
7.6 -8.65 -14.767
7.9 -8.65 -15.217
8.2 -8.65 -15.664
8.5 -8.65 -16.063
8.8 -8.65 -16.504
9.1 -8.65 -16.933
9.4 -8.65 -17.443
9.7 -8.65 -17.917
10.0 -8.65 -18.343
10.3 -8.65 -18.811
10.6 -8.65 -19.264
10.9 -8.65 -19.753
11.2 -8.65 -20.182
11.5 -8.65 -20.68
11.8 -8.65 -21.13
12.1 -8.65 -21.658
12.4 -8.65 -22.096
12.7 -8.65 -22.609
13.0 -8.65 -23.122
13.3 -8.65 -23.605
13.6 -8.65 -24.076
13.9 -8.65 -24.622
14.2 -8.65 -25.123
14.5 -8.65 -25.609
14.8 -8.65 -26.095
15.1 -8.65 -26.659
15.4 -8.65 -27.229
15.7 -8.65 -27.736
16.0 -8.65 -28.213
16.3 -8.65 -28.765
16.6 -8.65 -29.359
16.9 -8.65 -29.884
17.2 -8.65 -30.496
17.5 -8.65 -31.021
17.8 -8.65 -31.561
18.1 -8.65 -32.221
18.4 -8.65 -32.95
18.7 -8.65 -33.388
19.0 -8.65 -33.85
19.3 -8.65 -34.453
19.6 -8.65 -35.047
19.9 -8.65 -35.62
20.2 -8.65 -36.259
20.5 -8.65 -36.844
20.8 -8.65 -37.504
21.1 -8.65 -38.104
21.4 -8.65 -38.668
21.7 -8.65 -39.262
22.0 -8.65 -39.916
22.3 -8.65 -40.549
22.6 -8.65 -41.185
22.9 -8.65 -41.842
23.2 -8.65 -42.514
23.5 -8.65 -43.165
23.8 -8.65 -43.78
24.1 -8.65 -44.494
24.7 -8.65 -45.844
-38.3 -8.95 1.811
-38.0 -8.95 2.939
-37.7 -8.95 3.788
-37.4 -8.95 4.484
-37.1 -8.95 5.144
-36.8 -8.95 5.711
-36.5 -8.95 6.236
-36.2 -8.95 6.686
-35.9 -8.95 7.121
-35.6 -8.95 7.529
-35.3 -8.95 7.892
-35.0 -8.95 8.222
-34.7 -8.95 8.555
-34.4 -8.95 8.843
-34.1 -8.95 9.116
-33.8 -8.95 9.461
-33.5 -8.95 9.827
-33.2 -8.95 10.07
-32.9 -8.95 10.253
-32.6 -8.95 10.478
-32.3 -8.95 10.634
-32.0 -8.95 10.829
-31.7 -8.95 10.967
-31.4 -8.95 11.123
-31.1 -8.95 11.285
-30.8 -8.95 11.453
-30.5 -8.95 11.588
-30.2 -8.95 11.633
-29.9 -8.95 11.672
-29.6 -8.95 11.702
-29.3 -8.95 11.783
-29.0 -8.95 11.852
-28.7 -8.95 11.93
-28.4 -8.95 11.978
-28.1 -8.95 12.059
-27.8 -8.95 12.068
-27.5 -8.95 12.158
-27.2 -8.95 12.179
-26.9 -8.95 12.185
-26.6 -8.95 12.221
-26.3 -8.95 12.281
-26.0 -8.95 12.23
-25.7 -8.95 12.227
-25.4 -8.95 12.236
-25.1 -8.95 12.218
-24.8 -8.95 12.191
-24.5 -8.95 12.152
-24.2 -8.95 12.08
-23.9 -8.95 12.104
-23.6 -8.95 12.041
-23.3 -8.95 11.978
-23.0 -8.95 11.894
-22.7 -8.95 11.828
-22.4 -8.95 11.804
-22.1 -8.95 11.741
-21.8 -8.95 11.669
-21.5 -8.95 11.585
-21.2 -8.95 11.486
-20.9 -8.95 11.405
-20.6 -8.95 11.336
-20.3 -8.95 11.252
-20.0 -8.95 11.138
-19.7 -8.95 11.024
-19.4 -8.95 10.892
-19.1 -8.95 10.793
-18.8 -8.95 10.661
-18.5 -8.95 10.535
-18.2 -8.95 10.394
-17.9 -8.95 10.262
-17.6 -8.95 10.148
-17.3 -8.95 9.989
-17.0 -8.95 9.842
-16.7 -8.95 9.674
-16.4 -8.95 9.533
-16.1 -8.95 9.383
-15.8 -8.95 9.203
-15.5 -8.95 9.041
-15.2 -8.95 8.882
-14.9 -8.95 8.711
-14.6 -8.95 8.492
-14.3 -8.95 8.321
-14.0 -8.95 8.135
-13.7 -8.95 7.931
-13.4 -8.95 7.763
-13.1 -8.95 7.565
-12.8 -8.95 7.364
-12.5 -8.95 7.151
-12.2 -8.95 6.926
-11.9 -8.95 6.704
-11.6 -8.95 6.5
-11.3 -8.95 6.278
-11.0 -8.95 6.053
-10.7 -8.95 5.81
-10.4 -8.95 5.588
-10.1 -8.95 5.342
-9.8 -8.95 5.117
-9.5 -8.95 4.877
-9.2 -8.95 4.613
-8.9 -8.95 4.37
-8.6 -8.95 4.106
-8.3 -8.95 3.86
-8.0 -8.95 3.626
-7.7 -8.95 3.347
-7.4 -8.95 3.08
-7.1 -8.95 2.798
-6.8 -8.95 2.558
-6.5 -8.95 2.255
-6.2 -8.95 1.973
-5.9 -8.95 1.673
-5.6 -8.95 1.409
-5.3 -8.95 1.082
-5.0 -8.95 0.818
-4.7 -8.95 0.509
-4.4 -8.95 0.212
-4.1 -8.95 -0.076
-3.8 -8.95 -0.382
-3.5 -8.95 -0.694
-3.2 -8.95 -1.03
-2.9 -8.95 -1.363
-2.6 -8.95 -1.669
-2.3 -8.95 -1.993
-2.0 -8.95 -2.329
-1.7 -8.95 -2.662
-1.4 -8.95 -2.989
-1.1 -8.95 -3.328
-0.8 -8.95 -3.67
-0.5 -8.95 -3.982
-0.2 -8.95 -4.387
0.1 -8.95 -4.711
0.4 -8.95 -5.08
0.7 -8.95 -5.434
1.0 -8.95 -5.809
1.3 -8.95 -6.148
1.6 -8.95 -6.526
1.9 -8.95 -6.919
2.2 -8.95 -7.273
2.5 -8.95 -7.642
2.8 -8.95 -8.017
3.1 -8.95 -8.413
3.4 -8.95 -8.779
3.7 -8.95 -9.193
4.0 -8.95 -9.565
4.3 -8.95 -10.012
4.6 -8.95 -10.435
4.9 -8.95 -10.84
5.2 -8.95 -11.254
5.5 -8.95 -11.647
5.8 -8.95 -12.082
6.1 -8.95 -12.472
6.4 -8.95 -12.922
6.7 -8.95 -13.345
7.0 -8.95 -13.741
7.3 -8.95 -14.176
7.6 -8.95 -14.611
7.9 -8.95 -15.037
8.2 -8.95 -15.502
8.5 -8.95 -15.928
8.8 -8.95 -16.387
9.1 -8.95 -16.822
9.4 -8.95 -17.287
9.7 -8.95 -17.743
10.0 -8.95 -18.241
10.3 -8.95 -18.691
10.6 -8.95 -19.099
10.9 -8.95 -19.513
11.2 -8.95 -20.05
11.5 -8.95 -20.518
11.8 -8.95 -21.019
12.1 -8.95 -21.514
12.4 -8.95 -21.982
12.7 -8.95 -22.435
13.0 -8.95 -22.954
13.3 -8.95 -23.449
13.6 -8.95 -23.959
13.9 -8.95 -24.451
14.2 -8.95 -24.964
14.5 -8.95 -25.522
14.8 -8.95 -26.062
15.1 -8.95 -26.605
15.4 -8.95 -27.061
15.7 -8.95 -27.613
16.0 -8.95 -28.186
16.3 -8.95 -28.675
16.6 -8.95 -29.221
16.9 -8.95 -29.794
17.2 -8.95 -30.313
17.5 -8.95 -30.853
17.8 -8.95 -31.492
18.1 -8.95 -32.044
18.4 -8.95 -32.587
18.7 -8.95 -33.115
19.0 -8.95 -33.697
19.3 -8.95 -34.306
19.6 -8.95 -34.882
19.9 -8.95 -35.431
20.2 -8.95 -36.028
20.5 -8.95 -36.667
20.8 -8.95 -37.258
21.1 -8.95 -37.942
21.4 -8.95 -38.548
21.7 -8.95 -39.211
22.0 -8.95 -39.781
22.3 -8.95 -40.438
22.6 -8.95 -41.056
22.9 -8.95 -41.641
23.2 -8.95 -42.427
23.5 -8.95 -43.033
-38.3 -9.25 2.318
-38.0 -9.25 3.233
-37.7 -9.25 4.037
-37.4 -9.25 4.745
-37.1 -9.25 5.357
-36.8 -9.25 5.915
-36.5 -9.25 6.404
-36.2 -9.25 6.878
-35.9 -9.25 7.307
-35.6 -9.25 7.673
-35.3 -9.25 8.051
-35.0 -9.25 8.378
-34.7 -9.25 8.69
-34.4 -9.25 8.999
-34.1 -9.25 9.233
-33.8 -9.25 9.518
-33.5 -9.25 9.773
-33.2 -9.25 10.037
-32.9 -9.25 10.253
-32.6 -9.25 10.436
-32.3 -9.25 10.61
-32.0 -9.25 10.781
-31.7 -9.25 10.955
-31.4 -9.25 11.111
-31.1 -9.25 11.276
-30.8 -9.25 11.423
-30.5 -9.25 11.591
-30.2 -9.25 11.624
-29.9 -9.25 11.699
-29.6 -9.25 11.822
-29.3 -9.25 11.885
-29.0 -9.25 11.975
-28.7 -9.25 12.038
-28.4 -9.25 12.095
-28.1 -9.25 12.158
-27.8 -9.25 12.206
-27.5 -9.25 12.26
-27.2 -9.25 12.29
-26.9 -9.25 12.299
-26.6 -9.25 12.32
-26.3 -9.25 12.326
-26.0 -9.25 12.317
-25.7 -9.25 12.305
-25.4 -9.25 12.326
-25.1 -9.25 12.263
-24.8 -9.25 12.263
-24.5 -9.25 12.257
-24.2 -9.25 12.176
-23.9 -9.25 12.158
-23.6 -9.25 12.146
-23.3 -9.25 12.098
-23.0 -9.25 12.035
-22.7 -9.25 11.939
-22.4 -9.25 11.867
-22.1 -9.25 11.822
-21.8 -9.25 11.741
-21.5 -9.25 11.669
-21.2 -9.25 11.615
-20.9 -9.25 11.522
-20.6 -9.25 11.417
-20.3 -9.25 11.3
-20.0 -9.25 11.189
-19.7 -9.25 11.102
-19.4 -9.25 11.003
-19.1 -9.25 10.862
-18.8 -9.25 10.742
-18.5 -9.25 10.628
-18.2 -9.25 10.496
-17.9 -9.25 10.364
-17.6 -9.25 10.217
-17.3 -9.25 10.07
-17.0 -9.25 9.935
-16.7 -9.25 9.8
-16.4 -9.25 9.623
-16.1 -9.25 9.482
-15.8 -9.25 9.368
-15.5 -9.25 9.14
-15.2 -9.25 8.966
-14.9 -9.25 8.78
-14.6 -9.25 8.615
-14.3 -9.25 8.438
-14.0 -9.25 8.24
-13.7 -9.25 8.036
-13.4 -9.25 7.841
-13.1 -9.25 7.634
-12.8 -9.25 7.442
-12.5 -9.25 7.226
-12.2 -9.25 7.019
-11.9 -9.25 6.791
-11.6 -9.25 6.572
-11.3 -9.25 6.362
-11.0 -9.25 6.146
-10.7 -9.25 5.912
-10.4 -9.25 5.648
-10.1 -9.25 5.432
-9.8 -9.25 5.198
-9.5 -9.25 4.925
-9.2 -9.25 4.712
-8.9 -9.25 4.472
-8.6 -9.25 4.205
-8.3 -9.25 3.953
-8.0 -9.25 3.683
-7.7 -9.25 3.428
-7.4 -9.25 3.155
-7.1 -9.25 2.906
-6.8 -9.25 2.606
-6.5 -9.25 2.345
-6.2 -9.25 2.078
-5.9 -9.25 1.76
-5.6 -9.25 1.511
-5.3 -9.25 1.19
-5.0 -9.25 0.917
-4.7 -9.25 0.617
-4.4 -9.25 0.314
-4.1 -9.25 -0.013
-3.8 -9.25 -0.316
-3.5 -9.25 -0.607
-3.2 -9.25 -0.931
-2.9 -9.25 -1.237
-2.6 -9.25 -1.567
-2.3 -9.25 -1.873
-2.0 -9.25 -2.218
-1.7 -9.25 -2.56
-1.4 -9.25 -2.875
-1.1 -9.25 -3.232
-0.8 -9.25 -3.571
-0.5 -9.25 -3.895
-0.2 -9.25 -4.249
0.1 -9.25 -4.6
0.4 -9.25 -4.948
0.7 -9.25 -5.335
1.0 -9.25 -5.68
1.3 -9.25 -6.034
1.6 -9.25 -6.415
1.9 -9.25 -6.79
2.2 -9.25 -7.144
2.5 -9.25 -7.528
2.8 -9.25 -7.921
3.1 -9.25 -8.302
3.4 -9.25 -8.674
3.7 -9.25 -9.091
4.0 -9.25 -9.49
4.3 -9.25 -9.865
4.6 -9.25 -10.282
4.9 -9.25 -10.69
5.2 -9.25 -11.113
5.5 -9.25 -11.515
5.8 -9.25 -11.929
6.1 -9.25 -12.361
6.4 -9.25 -12.769
6.7 -9.25 -13.192
7.0 -9.25 -13.591
7.3 -9.25 -14.074
7.6 -9.25 -14.488
7.9 -9.25 -14.911
8.2 -9.25 -15.346
8.5 -9.25 -15.811
8.8 -9.25 -16.237
9.1 -9.25 -16.654
9.4 -9.25 -17.125
9.7 -9.25 -17.59
10.0 -9.25 -18.07
10.3 -9.25 -18.535
10.6 -9.25 -18.952
10.9 -9.25 -19.459
11.2 -9.25 -19.918
11.5 -9.25 -20.365
11.8 -9.25 -20.869
12.1 -9.25 -21.349
12.4 -9.25 -21.769
12.7 -9.25 -22.33
13.0 -9.25 -22.795
13.3 -9.25 -23.317
13.6 -9.25 -23.803
13.9 -9.25 -24.34
14.2 -9.25 -24.835
14.5 -9.25 -25.348
14.8 -9.25 -25.879
15.1 -9.25 -26.353
15.4 -9.25 -26.905
15.7 -9.25 -27.394
16.0 -9.25 -27.952
16.3 -9.25 -28.531
16.6 -9.25 -29.08
16.9 -9.25 -29.653
17.2 -9.25 -30.211
17.5 -9.25 -30.796
17.8 -9.25 -31.342
18.1 -9.25 -31.876
18.4 -9.25 -32.455
18.7 -9.25 -33.037
19.0 -9.25 -33.541
19.3 -9.25 -34.201
19.6 -9.25 -34.735
19.9 -9.25 -35.377
20.2 -9.25 -35.896
20.5 -9.25 -36.553
20.8 -9.25 -37.144
21.1 -9.25 -37.714
21.4 -9.25 -38.386
21.7 -9.25 -38.932
22.0 -9.25 -39.556
22.3 -9.25 -40.237
22.6 -9.25 -40.864
22.9 -9.25 -41.524
23.2 -9.25 -42.154
23.5 -9.25 -42.811
23.8 -9.25 -43.408
24.1 -9.25 -44.188
24.4 -9.25 -44.932
24.7 -9.25 -45.613
-38.6 -9.55 1.634
-38.3 -9.55 2.624
-38.0 -9.55 3.539
-37.7 -9.55 4.295
-37.4 -9.55 4.979
-37.1 -9.55 5.579
-36.8 -9.55 6.14
-36.5 -9.55 6.611
-36.2 -9.55 7.076
-35.9 -9.55 7.445
-35.6 -9.55 7.883
-35.3 -9.55 8.21
-35.0 -9.55 8.555
-34.7 -9.55 8.867
-34.4 -9.55 9.17
-34.1 -9.55 9.44
-33.8 -9.55 9.68
-33.5 -9.55 9.887
-33.2 -9.55 10.109
-32.9 -9.55 10.406
-32.6 -9.55 10.535
-32.3 -9.55 10.709
-32.0 -9.55 10.922
-31.7 -9.55 11.084
-31.4 -9.55 11.237
-31.1 -9.55 11.393
-30.8 -9.55 11.534
-30.5 -9.55 11.645
-30.2 -9.55 11.768
-29.9 -9.55 11.852
-29.6 -9.55 11.894
-29.3 -9.55 12.026
-29.0 -9.55 12.095
-28.7 -9.55 12.173
-28.4 -9.55 12.23
-28.1 -9.55 12.275
-27.8 -9.55 12.344
-27.5 -9.55 12.365
-27.2 -9.55 12.383
-26.9 -9.55 12.392
-26.6 -9.55 12.407
-26.3 -9.55 12.422
-26.0 -9.55 12.425
-25.7 -9.55 12.44
-25.4 -9.55 12.452
-25.1 -9.55 12.389
-24.8 -9.55 12.368
-24.5 -9.55 12.368
-24.2 -9.55 12.323
-23.9 -9.55 12.29
-23.6 -9.55 12.254
-23.3 -9.55 12.182
-23.0 -9.55 12.137
-22.7 -9.55 12.092
-22.4 -9.55 11.978
-22.1 -9.55 11.927
-21.8 -9.55 11.867
-21.5 -9.55 11.777
-21.2 -9.55 11.675
-20.9 -9.55 11.57
-20.6 -9.55 11.516
-20.3 -9.55 11.426
-20.0 -9.55 11.294
-19.7 -9.55 11.18
-19.4 -9.55 11.096
-19.1 -9.55 11.009
-18.8 -9.55 10.844
-18.5 -9.55 10.703
-18.2 -9.55 10.583
-17.9 -9.55 10.448
-17.6 -9.55 10.322
-17.3 -9.55 10.127
-17.0 -9.55 10.025
-16.7 -9.55 9.869
-16.4 -9.55 9.737
-16.1 -9.55 9.512
-15.8 -9.55 9.368
-15.5 -9.55 9.236
-15.2 -9.55 9.053
-14.9 -9.55 8.891
-14.6 -9.55 8.714
-14.3 -9.55 8.552
-14.0 -9.55 8.36
-13.7 -9.55 8.171
-13.4 -9.55 7.94
-13.1 -9.55 7.784
-12.8 -9.55 7.553
-12.5 -9.55 7.355
-12.2 -9.55 7.133
-11.9 -9.55 6.899
-11.6 -9.55 6.692
-11.3 -9.55 6.494
-11.0 -9.55 6.254
-10.7 -9.55 6.017
-10.4 -9.55 5.789
-10.1 -9.55 5.552
-9.8 -9.55 5.315
-9.5 -9.55 5.057
-9.2 -9.55 4.847
-8.9 -9.55 4.604
-8.6 -9.55 4.331
-8.3 -9.55 4.055
-8.0 -9.55 3.803
-7.7 -9.55 3.521
-7.4 -9.55 3.248
-7.1 -9.55 3.008
-6.8 -9.55 2.729
-6.5 -9.55 2.417
-6.2 -9.55 2.177
-5.9 -9.55 1.901
-5.6 -9.55 1.574
-5.3 -9.55 1.304
-5.0 -9.55 1.028
-4.7 -9.55 0.698
-4.4 -9.55 0.422
-4.1 -9.55 0.098
-3.8 -9.55 -0.205
-3.5 -9.55 -0.517
-3.2 -9.55 -0.808
-2.9 -9.55 -1.132
-2.6 -9.55 -1.465
-2.3 -9.55 -1.783
-2.0 -9.55 -2.08
-1.7 -9.55 -2.461
-1.4 -9.55 -2.794
-1.1 -9.55 -3.118
-0.8 -9.55 -3.445
-0.5 -9.55 -3.805
-0.2 -9.55 -4.15
0.1 -9.55 -4.498
0.4 -9.55 -4.861
0.7 -9.55 -5.191
1.0 -9.55 -5.575
1.3 -9.55 -5.944
1.6 -9.55 -6.304
1.9 -9.55 -6.703
2.2 -9.55 -7.09
2.5 -9.55 -7.459
2.8 -9.55 -7.816
3.1 -9.55 -8.215
3.4 -9.55 -8.563
3.7 -9.55 -8.965
4.0 -9.55 -9.37
4.3 -9.55 -9.769
4.6 -9.55 -10.174
4.9 -9.55 -10.57
5.2 -9.55 -10.966
5.5 -9.55 -11.416
5.8 -9.55 -11.791
6.1 -9.55 -12.277
6.4 -9.55 -12.67
6.7 -9.55 -13.072
7.0 -9.55 -13.504
7.3 -9.55 -13.936
7.6 -9.55 -14.362
7.9 -9.55 -14.812
8.2 -9.55 -15.241
8.5 -9.55 -15.67
8.8 -9.55 -16.162
9.1 -9.55 -16.603
9.4 -9.55 -17.035
9.7 -9.55 -17.461
10.0 -9.55 -17.929
10.3 -9.55 -18.382
10.6 -9.55 -18.838
10.9 -9.55 -19.315
11.2 -9.55 -19.786
11.5 -9.55 -20.227
11.8 -9.55 -20.698
12.1 -9.55 -21.181
12.4 -9.55 -21.688
12.7 -9.55 -22.177
13.0 -9.55 -22.669
13.3 -9.55 -23.17
13.6 -9.55 -23.659
13.9 -9.55 -24.166
14.2 -9.55 -24.685
14.5 -9.55 -25.195
14.8 -9.55 -25.696
15.1 -9.55 -26.227
15.4 -9.55 -26.722
15.7 -9.55 -27.274
16.0 -9.55 -27.838
16.3 -9.55 -28.372
16.6 -9.55 -28.882
16.9 -9.55 -29.479
17.2 -9.55 -30.016
17.5 -9.55 -30.58
17.8 -9.55 -31.072
18.1 -9.55 -31.681
18.4 -9.55 -32.26
18.7 -9.55 -32.812
19.0 -9.55 -33.415
19.3 -9.55 -34.0
19.6 -9.55 -34.564
19.9 -9.55 -35.116
20.2 -9.55 -35.746
20.5 -9.55 -36.364
20.8 -9.55 -36.994
21.1 -9.55 -37.57
21.4 -9.55 -38.095
21.7 -9.55 -38.71
22.0 -9.55 -39.289
22.3 -9.55 -39.895
22.6 -9.55 -40.6
22.9 -9.55 -41.287
23.2 -9.55 -42.043
23.5 -9.55 -42.727
23.8 -9.55 -43.414
24.1 -9.55 -44.017
24.4 -9.55 -44.728
25.0 -9.55 -46.153
25.3 -9.55 -46.867
25.6 -9.55 -47.569
-38.6 -9.85 1.991
-38.3 -9.85 2.963
-38.0 -9.85 3.794
-37.7 -9.85 4.565
-37.4 -9.85 5.213
-37.1 -9.85 5.792
-36.8 -9.85 6.332
-36.5 -9.85 6.788
-36.2 -9.85 7.247
-35.9 -9.85 7.658
-35.6 -9.85 8.033
-35.3 -9.85 8.396
-35.0 -9.85 8.72
-34.7 -9.85 9.029
-34.4 -9.85 9.311
-34.1 -9.85 9.569
-33.8 -9.85 9.806
-33.5 -9.85 10.055
-33.2 -9.85 10.259
-32.9 -9.85 10.472
-32.6 -9.85 10.67
-32.3 -9.85 10.844
-32.0 -9.85 11.018
-31.7 -9.85 11.18
-31.4 -9.85 11.357
-31.1 -9.85 11.522
-30.8 -9.85 11.636
-30.5 -9.85 11.747
-30.2 -9.85 11.846
-29.9 -9.85 11.954
-29.6 -9.85 12.032
-29.3 -9.85 12.146
-29.0 -9.85 12.203
-28.7 -9.85 12.233
-28.4 -9.85 12.326
-28.1 -9.85 12.389
-27.8 -9.85 12.398
-27.5 -9.85 12.461
-27.2 -9.85 12.473
-26.9 -9.85 12.506
-26.6 -9.85 12.488
-26.3 -9.85 12.545
-26.0 -9.85 12.56
-25.7 -9.85 12.584
-25.4 -9.85 12.524
-25.1 -9.85 12.527
-24.8 -9.85 12.494
-24.5 -9.85 12.473
-24.2 -9.85 12.422
-23.9 -9.85 12.392
-23.6 -9.85 12.353
-23.3 -9.85 12.278
-23.0 -9.85 12.233
-22.7 -9.85 12.161
-22.4 -9.85 12.125
-22.1 -9.85 12.044
-21.8 -9.85 11.957
-21.5 -9.85 11.888
-21.2 -9.85 11.792
-20.9 -9.85 11.66
-20.6 -9.85 11.591
-20.3 -9.85 11.516
-20.0 -9.85 11.399
-19.7 -9.85 11.312
-19.4 -9.85 11.192
-19.1 -9.85 11.036
-18.8 -9.85 10.928
-18.5 -9.85 10.811
-18.2 -9.85 10.688
-17.9 -9.85 10.571
-17.6 -9.85 10.415
-17.3 -9.85 10.304
-17.0 -9.85 10.133
-16.7 -9.85 9.995
-16.4 -9.85 9.827
-16.1 -9.85 9.671
-15.8 -9.85 9.467
-15.5 -9.85 9.329
-15.2 -9.85 9.17
-14.9 -9.85 9.002
-14.6 -9.85 8.819
-14.3 -9.85 8.66
-14.0 -9.85 8.417
-13.7 -9.85 8.243
-13.4 -9.85 8.06
-13.1 -9.85 7.841
-12.8 -9.85 7.64
-12.5 -9.85 7.439
-12.2 -9.85 7.232
-11.9 -9.85 7.016
-11.6 -9.85 6.806
-11.3 -9.85 6.596
-11.0 -9.85 6.368
-10.7 -9.85 6.119
-10.4 -9.85 5.9
-10.1 -9.85 5.663
-9.8 -9.85 5.432
-9.5 -9.85 5.183
-9.2 -9.85 4.958
-8.9 -9.85 4.691
-8.6 -9.85 4.439
-8.3 -9.85 4.166
-8.0 -9.85 3.947
-7.7 -9.85 3.653
-7.4 -9.85 3.392
-7.1 -9.85 3.068
-6.8 -9.85 2.81
-6.5 -9.85 2.555
-6.2 -9.85 2.267
-5.9 -9.85 2.009
-5.6 -9.85 1.7
-5.3 -9.85 1.436
-5.0 -9.85 1.112
-4.7 -9.85 0.833
-4.4 -9.85 0.548
-4.1 -9.85 0.236
-3.8 -9.85 -0.076
-3.5 -9.85 -0.379
-3.2 -9.85 -0.691
-2.9 -9.85 -1.033
-2.6 -9.85 -1.339
-2.3 -9.85 -1.675
-2.0 -9.85 -1.975
-1.7 -9.85 -2.32
-1.4 -9.85 -2.641
-1.1 -9.85 -3.007
-0.8 -9.85 -3.325
-0.5 -9.85 -3.673
-0.2 -9.85 -4.033
0.1 -9.85 -4.39
0.4 -9.85 -4.732
0.7 -9.85 -5.128
1.0 -9.85 -5.455
1.3 -9.85 -5.842
1.6 -9.85 -6.19
1.9 -9.85 -6.565
2.2 -9.85 -6.958
2.5 -9.85 -7.306
2.8 -9.85 -7.693
3.1 -9.85 -8.092
3.4 -9.85 -8.461
3.7 -9.85 -8.878
4.0 -9.85 -9.241
4.3 -9.85 -9.619
4.6 -9.85 -10.039
4.9 -9.85 -10.468
5.2 -9.85 -10.894
5.5 -9.85 -11.284
5.8 -9.85 -11.662
6.1 -9.85 -12.151
6.4 -9.85 -12.547
6.7 -9.85 -12.976
7.0 -9.85 -13.444
7.3 -9.85 -13.81
7.6 -9.85 -14.257
7.9 -9.85 -14.677
8.2 -9.85 -15.154
8.5 -9.85 -15.565
8.8 -9.85 -16.06
9.1 -9.85 -16.459
9.4 -9.85 -16.918
9.7 -9.85 -17.371
10.0 -9.85 -17.806
10.3 -9.85 -18.286
10.6 -9.85 -18.766
10.9 -9.85 -19.201
11.2 -9.85 -19.639
11.5 -9.85 -20.113
11.8 -9.85 -20.629
12.1 -9.85 -21.07
12.4 -9.85 -21.535
12.7 -9.85 -22.042
13.0 -9.85 -22.507
13.3 -9.85 -23.035
13.6 -9.85 -23.539
13.9 -9.85 -24.037
14.2 -9.85 -24.541
14.5 -9.85 -25.036
14.8 -9.85 -25.567
15.1 -9.85 -26.047
15.4 -9.85 -26.62
15.7 -9.85 -27.106
16.0 -9.85 -27.673
16.3 -9.85 -28.192
16.6 -9.85 -28.756
16.9 -9.85 -29.299
17.2 -9.85 -29.878
17.5 -9.85 -30.361
17.8 -9.85 -30.964
18.1 -9.85 -31.501
18.4 -9.85 -32.074
18.7 -9.85 -32.671
19.0 -9.85 -33.154
19.3 -9.85 -33.817
19.6 -9.85 -34.372
19.9 -9.85 -34.939
20.2 -9.85 -35.521
20.5 -9.85 -36.217
20.8 -9.85 -36.817
21.1 -9.85 -37.459
21.4 -9.85 -38.125
21.7 -9.85 -38.674
22.0 -9.85 -39.22
22.3 -9.85 -39.886
22.6 -9.85 -40.504
22.9 -9.85 -41.206
23.2 -9.85 -41.815
23.5 -9.85 -42.46
23.8 -9.85 -43.207
24.1 -9.85 -43.972
24.4 -9.85 -44.548
24.7 -9.85 -45.232
25.3 -9.85 -46.519
25.6 -9.85 -47.296
25.9 -9.85 -48.052
26.5 -9.85 -49.471
-38.6 -10.15 2.309
-38.3 -10.15 3.236
-38.0 -10.15 4.07
-37.7 -10.15 4.793
-37.4 -10.15 5.432
-37.1 -10.15 6.002
-36.8 -10.15 6.506
-36.5 -10.15 6.983
-36.2 -10.15 7.43
-35.9 -10.15 7.844
-35.6 -10.15 8.198
-35.3 -10.15 8.555
-35.0 -10.15 8.882
-34.7 -10.15 9.152
-34.4 -10.15 9.431
-34.1 -10.15 9.695
-33.8 -10.15 9.95
-33.5 -10.15 10.154
-33.2 -10.15 10.394
-32.9 -10.15 10.571
-32.6 -10.15 10.802
-32.3 -10.15 10.97
-32.0 -10.15 11.135
-31.7 -10.15 11.312
-31.4 -10.15 11.453
-31.1 -10.15 11.594
-30.8 -10.15 11.753
-30.5 -10.15 11.855
-30.2 -10.15 11.975
-29.9 -10.15 12.059
-29.6 -10.15 12.149
-29.3 -10.15 12.212
-29.0 -10.15 12.341
-28.7 -10.15 12.404
-28.4 -10.15 12.41
-28.1 -10.15 12.47
-27.8 -10.15 12.512
-27.5 -10.15 12.572
-27.2 -10.15 12.56
-26.9 -10.15 12.587
-26.6 -10.15 12.602
-26.3 -10.15 12.602
-26.0 -10.15 12.65
-25.7 -10.15 12.623
-25.4 -10.15 12.632
-25.1 -10.15 12.608
-24.8 -10.15 12.602
-24.5 -10.15 12.527
-24.2 -10.15 12.491
-23.9 -10.15 12.482
-23.6 -10.15 12.464
-23.3 -10.15 12.377
-23.0 -10.15 12.347
-22.7 -10.15 12.296
-22.4 -10.15 12.203
-22.1 -10.15 12.11
-21.8 -10.15 12.035
-21.5 -10.15 11.984
-21.2 -10.15 11.906
-20.9 -10.15 11.801
-20.6 -10.15 11.723
-20.3 -10.15 11.6
-20.0 -10.15 11.507
-19.7 -10.15 11.387
-19.4 -10.15 11.339
-19.1 -10.15 11.186
-18.8 -10.15 11.051
-18.5 -10.15 10.898
-18.2 -10.15 10.802
-17.9 -10.15 10.655
-17.6 -10.15 10.517
-17.3 -10.15 10.331
-17.0 -10.15 10.217
-16.7 -10.15 10.085
-16.4 -10.15 9.905
-16.1 -10.15 9.731
-15.8 -10.15 9.605
-15.5 -10.15 9.425
-15.2 -10.15 9.272
-14.9 -10.15 9.065
-14.6 -10.15 8.903
-14.3 -10.15 8.711
-14.0 -10.15 8.522
-13.7 -10.15 8.336
-13.4 -10.15 8.141
-13.1 -10.15 7.958
-12.8 -10.15 7.748
-12.5 -10.15 7.544
-12.2 -10.15 7.316
-11.9 -10.15 7.112
-11.6 -10.15 6.884
-11.3 -10.15 6.674
-11.0 -10.15 6.452
-10.7 -10.15 6.224
-10.4 -10.15 6.008
-10.1 -10.15 5.783
-9.8 -10.15 5.546
-9.5 -10.15 5.297
-9.2 -10.15 5.045
-8.9 -10.15 4.793
-8.6 -10.15 4.547
-8.3 -10.15 4.262
-8.0 -10.15 4.007
-7.7 -10.15 3.734
-7.4 -10.15 3.497
-7.1 -10.15 3.23
-6.8 -10.15 2.966
-6.5 -10.15 2.654
-6.2 -10.15 2.396
-5.9 -10.15 2.099
-5.6 -10.15 1.811
-5.3 -10.15 1.538
-5.0 -10.15 1.22
-4.7 -10.15 0.953
-4.4 -10.15 0.629
-4.1 -10.15 0.341
-3.8 -10.15 0.02
-3.5 -10.15 -0.286
-3.2 -10.15 -0.595
-2.9 -10.15 -0.901
-2.6 -10.15 -1.228
-2.3 -10.15 -1.543
-2.0 -10.15 -1.882
-1.7 -10.15 -2.203
-1.4 -10.15 -2.533
-1.1 -10.15 -2.893
-0.8 -10.15 -3.229
-0.5 -10.15 -3.562
-0.2 -10.15 -3.907
0.1 -10.15 -4.252
0.4 -10.15 -4.612
0.7 -10.15 -4.939
1.0 -10.15 -5.308
1.3 -10.15 -5.68
1.6 -10.15 -6.073
1.9 -10.15 -6.4
2.2 -10.15 -6.826
2.5 -10.15 -7.186
2.8 -10.15 -7.558
3.1 -10.15 -7.96
3.4 -10.15 -8.353
3.7 -10.15 -8.728
4.0 -10.15 -9.112
4.3 -10.15 -9.535
4.6 -10.15 -9.955
4.9 -10.15 -10.315
5.2 -10.15 -10.75
5.5 -10.15 -11.155
5.8 -10.15 -11.584
6.1 -10.15 -11.992
6.4 -10.15 -12.367
6.7 -10.15 -12.859
7.0 -10.15 -13.261
7.3 -10.15 -13.699
7.6 -10.15 -14.164
7.9 -10.15 -14.563
8.2 -10.15 -14.992
8.5 -10.15 -15.439
8.8 -10.15 -15.889
9.1 -10.15 -16.333
9.4 -10.15 -16.792
9.7 -10.15 -17.206
10.0 -10.15 -17.647
10.3 -10.15 -18.145
10.6 -10.15 -18.637
10.9 -10.15 -19.12
11.2 -10.15 -19.516
11.5 -10.15 -20.02
11.8 -10.15 -20.509
12.1 -10.15 -20.932
12.4 -10.15 -21.442
12.7 -10.15 -21.907
13.0 -10.15 -22.399
13.3 -10.15 -22.855
13.6 -10.15 -23.389
13.9 -10.15 -23.911
14.2 -10.15 -24.409
14.5 -10.15 -24.925
14.8 -10.15 -25.456
15.1 -10.15 -25.939
15.4 -10.15 -26.509
15.7 -10.15 -26.983
16.0 -10.15 -27.526
16.3 -10.15 -28.048
16.6 -10.15 -28.549
16.9 -10.15 -29.176
17.2 -10.15 -29.734
17.5 -10.15 -30.325
17.8 -10.15 -30.826
18.1 -10.15 -31.402
18.4 -10.15 -32.02
18.7 -10.15 -32.593
19.0 -10.15 -33.085
19.3 -10.15 -33.679
19.6 -10.15 -34.234
19.9 -10.15 -34.897
20.2 -10.15 -35.452
20.5 -10.15 -35.995
20.8 -10.15 -36.619
21.1 -10.15 -37.273
21.4 -10.15 -37.891
21.7 -10.15 -38.479
22.0 -10.15 -39.151
22.3 -10.15 -39.748
22.6 -10.15 -40.327
22.9 -10.15 -40.897
23.2 -10.15 -41.59
23.5 -10.15 -42.292
23.8 -10.15 -43.006
24.1 -10.15 -43.666
24.4 -10.15 -44.476
-38.6 -10.45 2.549
-38.3 -10.45 3.563
-38.0 -10.45 4.319
-37.7 -10.45 5.018
-37.4 -10.45 5.648
-37.1 -10.45 6.179
-36.8 -10.45 6.704
-36.5 -10.45 7.166
-36.2 -10.45 7.592
-35.9 -10.45 7.988
-35.6 -10.45 8.348
-35.3 -10.45 8.699
-35.0 -10.45 8.984
-34.7 -10.45 9.293
-34.4 -10.45 9.557
-34.1 -10.45 9.812
-33.8 -10.45 10.064
-33.5 -10.45 10.301
-33.2 -10.45 10.544
-32.9 -10.45 10.697
-32.6 -10.45 10.856
-32.3 -10.45 11.078
-32.0 -10.45 11.24
-31.7 -10.45 11.429
-31.4 -10.45 11.594
-31.1 -10.45 11.729
-30.8 -10.45 11.849
-30.5 -10.45 11.987
-30.2 -10.45 12.074
-29.9 -10.45 12.158
-29.6 -10.45 12.266
-29.3 -10.45 12.32
-29.0 -10.45 12.41
-28.7 -10.45 12.467
-28.4 -10.45 12.539
-28.1 -10.45 12.593
-27.8 -10.45 12.611
-27.5 -10.45 12.68
-27.2 -10.45 12.668
-26.9 -10.45 12.707
-26.6 -10.45 12.707
-26.3 -10.45 12.74
-26.0 -10.45 12.713
-25.7 -10.45 12.701
-25.4 -10.45 12.737
-25.1 -10.45 12.698
-24.8 -10.45 12.674
-24.5 -10.45 12.692
-24.2 -10.45 12.608
-23.9 -10.45 12.554
-23.6 -10.45 12.503
-23.3 -10.45 12.425
-23.0 -10.45 12.44
-22.7 -10.45 12.371
-22.4 -10.45 12.311
-22.1 -10.45 12.227
-21.8 -10.45 12.215
-21.5 -10.45 12.074
-21.2 -10.45 11.972
-20.9 -10.45 11.921
-20.6 -10.45 11.795
-20.3 -10.45 11.717
-20.0 -10.45 11.591
-19.7 -10.45 11.462
-19.4 -10.45 11.345
-19.1 -10.45 11.264
-18.8 -10.45 11.147
-18.5 -10.45 10.997
-18.2 -10.45 10.877
-17.9 -10.45 10.73
-17.6 -10.45 10.613
-17.3 -10.45 10.457
-17.0 -10.45 10.337
-16.7 -10.45 10.166
-16.4 -10.45 10.01
-16.1 -10.45 9.839
-15.8 -10.45 9.68
-15.5 -10.45 9.521
-15.2 -10.45 9.362
-14.9 -10.45 9.17
-14.6 -10.45 9.014
-14.3 -10.45 8.801
-14.0 -10.45 8.624
-13.7 -10.45 8.441
-13.4 -10.45 8.237
-13.1 -10.45 8.033
-12.8 -10.45 7.844
-12.5 -10.45 7.634
-12.2 -10.45 7.427
-11.9 -10.45 7.202
-11.6 -10.45 6.986
-11.3 -10.45 6.761
-11.0 -10.45 6.548
-10.7 -10.45 6.311
-10.4 -10.45 6.089
-10.1 -10.45 5.843
-9.8 -10.45 5.621
-9.5 -10.45 5.366
-9.2 -10.45 5.105
-8.9 -10.45 4.868
-8.6 -10.45 4.631
-8.3 -10.45 4.364
-8.0 -10.45 4.094
-7.7 -10.45 3.827
-7.4 -10.45 3.596
-7.1 -10.45 3.329
-6.8 -10.45 3.035
-6.5 -10.45 2.768
-6.2 -10.45 2.504
-5.9 -10.45 2.183
-5.6 -10.45 1.916
-5.3 -10.45 1.634
-5.0 -10.45 1.361
-4.7 -10.45 1.025
-4.4 -10.45 0.758
-4.1 -10.45 0.419
-3.8 -10.45 0.146
-3.5 -10.45 -0.169
-3.2 -10.45 -0.475
-2.9 -10.45 -0.829
-2.6 -10.45 -1.099
-2.3 -10.45 -1.444
-2.0 -10.45 -1.771
-1.7 -10.45 -2.089
-1.4 -10.45 -2.428
-1.1 -10.45 -2.77
-0.8 -10.45 -3.112
-0.5 -10.45 -3.46
-0.2 -10.45 -3.811
0.1 -10.45 -4.144
0.4 -10.45 -4.483
0.7 -10.45 -4.843
1.0 -10.45 -5.257
1.3 -10.45 -5.578
1.6 -10.45 -5.938
1.9 -10.45 -6.304
2.2 -10.45 -6.712
2.5 -10.45 -7.075
2.8 -10.45 -7.444
3.1 -10.45 -7.822
3.4 -10.45 -8.263
3.7 -10.45 -8.608
4.0 -10.45 -8.992
4.3 -10.45 -9.403
4.6 -10.45 -9.805
4.9 -10.45 -10.207
5.2 -10.45 -10.582
5.5 -10.45 -11.029
5.8 -10.45 -11.443
6.1 -10.45 -11.857
6.4 -10.45 -12.289
6.7 -10.45 -12.721
7.0 -10.45 -13.132
7.3 -10.45 -13.549
7.6 -10.45 -13.978
7.9 -10.45 -14.416
8.2 -10.45 -14.887
8.5 -10.45 -15.283
8.8 -10.45 -15.769
9.1 -10.45 -16.189
9.4 -10.45 -16.633
9.7 -10.45 -17.101
10.0 -10.45 -17.512
10.3 -10.45 -17.977
10.6 -10.45 -18.427
10.9 -10.45 -18.907
11.2 -10.45 -19.396
11.5 -10.45 -19.813
11.8 -10.45 -20.29
12.1 -10.45 -20.806
12.4 -10.45 -21.319
12.7 -10.45 -21.733
13.0 -10.45 -22.255
13.3 -10.45 -22.726
13.6 -10.45 -23.194
13.9 -10.45 -23.758
14.2 -10.45 -24.283
14.5 -10.45 -24.799
14.8 -10.45 -25.273
15.1 -10.45 -25.774
15.4 -10.45 -26.323
15.7 -10.45 -26.839
16.0 -10.45 -27.361
16.3 -10.45 -27.889
16.6 -10.45 -28.45
16.9 -10.45 -29.008
17.2 -10.45 -29.623
17.5 -10.45 -30.124
17.8 -10.45 -30.697
18.1 -10.45 -31.285
18.4 -10.45 -31.828
18.7 -10.45 -32.353
19.0 -10.45 -32.872
19.3 -10.45 -33.535
19.6 -10.45 -34.135
19.9 -10.45 -34.687
20.2 -10.45 -35.32
20.5 -10.45 -35.899
20.8 -10.45 -36.493
21.1 -10.45 -37.096
21.4 -10.45 -37.741
21.7 -10.45 -38.38
22.0 -10.45 -38.977
22.3 -10.45 -39.571
22.6 -10.45 -40.228
22.9 -10.45 -40.855
23.2 -10.45 -41.545
23.5 -10.45 -42.127
23.8 -10.45 -42.847
24.1 -10.45 -43.459
24.4 -10.45 -44.14
24.7 -10.45 -44.752
25.0 -10.45 -45.682
-38.9 -10.75 1.832
-38.6 -10.75 2.891
-38.3 -10.75 3.818
-38.0 -10.75 4.565
-37.7 -10.75 5.258
-37.4 -10.75 5.849
-37.1 -10.75 6.377
-36.8 -10.75 6.899
-36.5 -10.75 7.355
-36.2 -10.75 7.763
-35.9 -10.75 8.153
-35.6 -10.75 8.504
-35.3 -10.75 8.846
-35.0 -10.75 9.161
-34.7 -10.75 9.428
-34.4 -10.75 9.713
-34.1 -10.75 9.971
-33.8 -10.75 10.223
-33.5 -10.75 10.439
-33.2 -10.75 10.643
-32.9 -10.75 10.871
-32.6 -10.75 10.994
-32.3 -10.75 11.21
-32.0 -10.75 11.369
-31.7 -10.75 11.558
-31.4 -10.75 11.696
-31.1 -10.75 11.834
-30.8 -10.75 11.972
-30.5 -10.75 12.095
-30.2 -10.75 12.188
-29.9 -10.75 12.314
-29.6 -10.75 12.401
-29.3 -10.75 12.446
-29.0 -10.75 12.494
-28.7 -10.75 12.584
-28.4 -10.75 12.644
-28.1 -10.75 12.68
-27.8 -10.75 12.749
-27.5 -10.75 12.752
-27.2 -10.75 12.803
-26.9 -10.75 12.806
-26.6 -10.75 12.842
-26.3 -10.75 12.857
-26.0 -10.75 12.839
-25.7 -10.75 12.839
-25.4 -10.75 12.821
-25.1 -10.75 12.773
-24.8 -10.75 12.773
-24.5 -10.75 12.716
-24.2 -10.75 12.704
-23.9 -10.75 12.662
-23.6 -10.75 12.629
-23.3 -10.75 12.587
-23.0 -10.75 12.533
-22.7 -10.75 12.461
-22.4 -10.75 12.38
-22.1 -10.75 12.287
-21.8 -10.75 12.239
-21.5 -10.75 12.137
-21.2 -10.75 12.068
-20.9 -10.75 12.053
-20.6 -10.75 11.909
-20.3 -10.75 11.765
-20.0 -10.75 11.657
-19.7 -10.75 11.54
-19.4 -10.75 11.444
-19.1 -10.75 11.36
-18.8 -10.75 11.24
-18.5 -10.75 11.093
-18.2 -10.75 10.982
-17.9 -10.75 10.805
-17.6 -10.75 10.715
-17.3 -10.75 10.574
-17.0 -10.75 10.382
-16.7 -10.75 10.259
-16.4 -10.75 10.103
-16.1 -10.75 9.965
-15.8 -10.75 9.803
-15.5 -10.75 9.644
-15.2 -10.75 9.467
-14.9 -10.75 9.248
-14.6 -10.75 9.065
-14.3 -10.75 8.897
-14.0 -10.75 8.735
-13.7 -10.75 8.543
-13.4 -10.75 8.321
-13.1 -10.75 8.129
-12.8 -10.75 7.946
-12.5 -10.75 7.745
-12.2 -10.75 7.535
-11.9 -10.75 7.331
-11.6 -10.75 7.064
-11.3 -10.75 6.854
-11.0 -10.75 6.605
-10.7 -10.75 6.419
-10.4 -10.75 6.17
-10.1 -10.75 5.918
-9.8 -10.75 5.687
-9.5 -10.75 5.471
-9.2 -10.75 5.198
-8.9 -10.75 4.952
-8.6 -10.75 4.733
-8.3 -10.75 4.46
-8.0 -10.75 4.184
-7.7 -10.75 3.947
-7.4 -10.75 3.674
-7.1 -10.75 3.416
-6.8 -10.75 3.158
-6.5 -10.75 2.867
-6.2 -10.75 2.609
-5.9 -10.75 2.303
-5.6 -10.75 2.009
-5.3 -10.75 1.754
-5.0 -10.75 1.427
-4.7 -10.75 1.118
-4.4 -10.75 0.833
-4.1 -10.75 0.536
-3.8 -10.75 0.236
-3.5 -10.75 -0.088
-3.2 -10.75 -0.379
-2.9 -10.75 -0.694
-2.6 -10.75 -1.009
-2.3 -10.75 -1.333
-2.0 -10.75 -1.639
-1.7 -10.75 -1.999
-1.4 -10.75 -2.353
-1.1 -10.75 -2.674
-0.8 -10.75 -3.007
-0.5 -10.75 -3.355
-0.2 -10.75 -3.661
0.1 -10.75 -4.039
0.4 -10.75 -4.372
0.7 -10.75 -4.756
1.0 -10.75 -5.128
1.3 -10.75 -5.467
1.6 -10.75 -5.833
1.9 -10.75 -6.205
2.2 -10.75 -6.574
2.5 -10.75 -6.97
2.8 -10.75 -7.318
3.1 -10.75 -7.714
3.4 -10.75 -8.086
3.7 -10.75 -8.515
4.0 -10.75 -8.875
4.3 -10.75 -9.265
4.6 -10.75 -9.712
4.9 -10.75 -10.111
5.2 -10.75 -10.525
5.5 -10.75 -10.918
5.8 -10.75 -11.32
6.1 -10.75 -11.761
6.4 -10.75 -12.145
6.7 -10.75 -12.61
7.0 -10.75 -13.012
7.3 -10.75 -13.429
7.6 -10.75 -13.852
7.9 -10.75 -14.302
8.2 -10.75 -14.725
8.5 -10.75 -15.19
8.8 -10.75 -15.583
9.1 -10.75 -16.057
9.4 -10.75 -16.519
9.7 -10.75 -16.963
10.0 -10.75 -17.371
10.3 -10.75 -17.857
10.6 -10.75 -18.343
10.9 -10.75 -18.766
11.2 -10.75 -19.231
11.5 -10.75 -19.687
11.8 -10.75 -20.188
12.1 -10.75 -20.671
12.4 -10.75 -21.127
12.7 -10.75 -21.607
13.0 -10.75 -22.078
13.3 -10.75 -22.609
13.6 -10.75 -23.11
13.9 -10.75 -23.638
14.2 -10.75 -24.121
14.5 -10.75 -24.49
14.8 -10.75 -25.126
15.1 -10.75 -25.651
15.4 -10.75 -26.173
15.7 -10.75 -26.701
16.0 -10.75 -27.226
16.3 -10.75 -27.799
16.6 -10.75 -28.336
16.9 -10.75 -28.9
17.2 -10.75 -29.434
17.5 -10.75 -29.935
17.8 -10.75 -30.562
18.1 -10.75 -31.108
18.4 -10.75 -31.636
18.7 -10.75 -32.221
19.0 -10.75 -32.758
19.3 -10.75 -33.376
19.6 -10.75 -33.961
19.9 -10.75 -34.54
20.2 -10.75 -35.071
20.5 -10.75 -35.746
20.8 -10.75 -36.265
21.1 -10.75 -36.937
21.4 -10.75 -37.537
21.7 -10.75 -38.152
22.0 -10.75 -38.815
22.3 -10.75 -39.442
22.6 -10.75 -40.069
22.9 -10.75 -40.654
23.2 -10.75 -41.311
23.5 -10.75 -42.031
23.8 -10.75 -42.649
24.1 -10.75 -43.291
24.4 -10.75 -44.092
25.0 -10.75 -45.331
25.9 -10.75 -47.389
-38.9 -11.05 2.24
-38.6 -11.05 3.212
-38.3 -11.05 4.1
-38.0 -11.05 4.814
-37.7 -11.05 5.459
-37.4 -11.05 6.035
-37.1 -11.05 6.599
-36.8 -11.05 7.079
-36.5 -11.05 7.532
-36.2 -11.05 7.952
-35.9 -11.05 8.306
-35.6 -11.05 8.678
-35.3 -11.05 8.978
-35.0 -11.05 9.332
-34.7 -11.05 9.575
-34.4 -11.05 9.863
-34.1 -11.05 10.124
-33.8 -11.05 10.349
-33.5 -11.05 10.601
-33.2 -11.05 10.793
-32.9 -11.05 10.958
-32.6 -11.05 11.162
-32.3 -11.05 11.369
-32.0 -11.05 11.513
-31.7 -11.05 11.675
-31.4 -11.05 11.84
-31.1 -11.05 11.966
-30.8 -11.05 12.068
-30.5 -11.05 12.191
-30.2 -11.05 12.299
-29.9 -11.05 12.41
-29.6 -11.05 12.494
-29.3 -11.05 12.587
-29.0 -11.05 12.635
-28.7 -11.05 12.695
-28.4 -11.05 12.758
-28.1 -11.05 12.803
-27.8 -11.05 12.827
-27.5 -11.05 12.881
-27.2 -11.05 12.923
-26.9 -11.05 12.944
-26.6 -11.05 12.908
-26.3 -11.05 12.929
-26.0 -11.05 12.935
-25.7 -11.05 12.938
-25.4 -11.05 12.959
-25.1 -11.05 12.908
-24.8 -11.05 12.878
-24.5 -11.05 12.848
-24.2 -11.05 12.818
-23.9 -11.05 12.797
-23.6 -11.05 12.746
-23.3 -11.05 12.674
-23.0 -11.05 12.617
-22.7 -11.05 12.572
-22.4 -11.05 12.509
-22.1 -11.05 12.422
-21.8 -11.05 12.305
-21.5 -11.05 12.245
-21.2 -11.05 12.173
-20.9 -11.05 12.074
-20.6 -11.05 11.99
-20.3 -11.05 11.897
-20.0 -11.05 11.771
-19.7 -11.05 11.684
-19.4 -11.05 11.564
-19.1 -11.05 11.459
-18.8 -11.05 11.336
-18.5 -11.05 11.213
-18.2 -11.05 11.069
-17.9 -11.05 10.919
-17.6 -11.05 10.784
-17.3 -11.05 10.655
-17.0 -11.05 10.475
-16.7 -11.05 10.337
-16.4 -11.05 10.196
-16.1 -11.05 10.076
-15.8 -11.05 9.896
-15.5 -11.05 9.701
-15.2 -11.05 9.554
-14.9 -11.05 9.332
-14.6 -11.05 9.206
-14.3 -11.05 9.014
-14.0 -11.05 8.813
-13.7 -11.05 8.642
-13.4 -11.05 8.438
-13.1 -11.05 8.252
-12.8 -11.05 8.045
-12.5 -11.05 7.85
-12.2 -11.05 7.631
-11.9 -11.05 7.433
-11.6 -11.05 7.214
-11.3 -11.05 6.959
-11.0 -11.05 6.731
-10.7 -11.05 6.527
-10.4 -11.05 6.302
-10.1 -11.05 6.068
-9.8 -11.05 5.828
-9.5 -11.05 5.597
-9.2 -11.05 5.321
-8.9 -11.05 5.078
-8.6 -11.05 4.829
-8.3 -11.05 4.559
-8.0 -11.05 4.316
-7.7 -11.05 4.055
-7.4 -11.05 3.77
-7.1 -11.05 3.506
-6.8 -11.05 3.239
-6.5 -11.05 2.963
-6.2 -11.05 2.696
-5.9 -11.05 2.414
-5.6 -11.05 2.132
-5.3 -11.05 1.868
-5.0 -11.05 1.532
-4.7 -11.05 1.256
-4.4 -11.05 0.956
-4.1 -11.05 0.68
-3.8 -11.05 0.35
-3.5 -11.05 0.032
-3.2 -11.05 -0.244
-2.9 -11.05 -0.574
-2.6 -11.05 -0.871
-2.3 -11.05 -1.204
-2.0 -11.05 -1.564
-1.7 -11.05 -1.882
-1.4 -11.05 -2.161
-1.1 -11.05 -2.569
-0.8 -11.05 -2.902
-0.5 -11.05 -3.247
-0.2 -11.05 -3.568
0.1 -11.05 -3.895
0.4 -11.05 -4.255
0.7 -11.05 -4.639
1.0 -11.05 -4.99
1.3 -11.05 -5.365
1.6 -11.05 -5.722
1.9 -11.05 -6.112
2.2 -11.05 -6.472
2.5 -11.05 -6.862
2.8 -11.05 -7.213
3.1 -11.05 -7.597
3.4 -11.05 -8.005
3.7 -11.05 -8.401
4.0 -11.05 -8.791
4.3 -11.05 -9.178
4.6 -11.05 -9.568
4.9 -11.05 -9.949
5.2 -11.05 -10.387
5.5 -11.05 -10.798
5.8 -11.05 -11.212
6.1 -11.05 -11.674
6.4 -11.05 -12.097
6.7 -11.05 -12.508
7.0 -11.05 -12.895
7.3 -11.05 -13.321
7.6 -11.05 -13.756
7.9 -11.05 -14.173
8.2 -11.05 -14.617
8.5 -11.05 -15.037
8.8 -11.05 -15.49
9.1 -11.05 -15.937
9.4 -11.05 -16.381
9.7 -11.05 -16.84
10.0 -11.05 -17.302
10.3 -11.05 -17.779
10.6 -11.05 -18.19
10.9 -11.05 -18.667
11.2 -11.05 -19.135
11.5 -11.05 -19.585
11.8 -11.05 -20.011
12.1 -11.05 -20.533
12.4 -11.05 -20.998
12.7 -11.05 -21.49
13.0 -11.05 -21.928
13.3 -11.05 -22.453
13.6 -11.05 -23.008
13.9 -11.05 -23.47
14.2 -11.05 -23.968
14.5 -11.05 -24.52
14.8 -11.05 -24.997
15.1 -11.05 -25.477
15.4 -11.05 -26.014
15.7 -11.05 -26.536
16.0 -11.05 -27.061
16.3 -11.05 -27.595
16.6 -11.05 -28.174
16.9 -11.05 -28.699
17.2 -11.05 -29.23
17.5 -11.05 -29.773
17.8 -11.05 -30.313
18.1 -11.05 -30.85
18.4 -11.05 -31.423
18.7 -11.05 -32.059
19.0 -11.05 -32.587
19.3 -11.05 -33.163
19.6 -11.05 -33.727
19.9 -11.05 -34.348
20.2 -11.05 -34.918
20.5 -11.05 -35.563
20.8 -11.05 -36.112
21.1 -11.05 -36.751
21.4 -11.05 -37.33
21.7 -11.05 -37.981
22.0 -11.05 -38.617
22.3 -11.05 -39.268
22.6 -11.05 -39.865
22.9 -11.05 -40.483
23.2 -11.05 -41.113
23.5 -11.05 -41.818
23.8 -11.05 -42.55
24.1 -11.05 -43.141
24.4 -11.05 -43.831
24.7 -11.05 -44.479
27.1 -11.05 -50.269
29.2 -11.05 -55.516
29.5 -11.05 -56.701
-38.9 -11.35 2.558
-38.6 -11.35 3.518
-38.3 -11.35 4.334
-38.0 -11.35 5.057
-37.7 -11.35 5.69
-37.4 -11.35 6.248
-37.1 -11.35 6.746
-36.8 -11.35 7.25
-36.5 -11.35 7.706
-36.2 -11.35 8.126
-35.9 -11.35 8.495
-35.6 -11.35 8.825
-35.3 -11.35 9.131
-35.0 -11.35 9.44
-34.7 -11.35 9.731
-34.4 -11.35 9.986
-34.1 -11.35 10.244
-33.8 -11.35 10.481
-33.5 -11.35 10.7
-33.2 -11.35 10.916
-32.9 -11.35 11.12
-32.6 -11.35 11.294
-32.3 -11.35 11.441
-32.0 -11.35 11.648
-31.7 -11.35 11.81
-31.4 -11.35 11.915
-31.1 -11.35 12.044
-30.8 -11.35 12.155
-30.5 -11.35 12.296
-30.2 -11.35 12.395
-29.9 -11.35 12.503
-29.6 -11.35 12.578
-29.3 -11.35 12.689
-29.0 -11.35 12.734
-28.7 -11.35 12.773
-28.4 -11.35 12.845
-28.1 -11.35 12.896
-27.8 -11.35 12.938
-27.5 -11.35 12.959
-27.2 -11.35 13.031
-26.9 -11.35 13.01
-26.6 -11.35 13.019
-26.3 -11.35 13.028
-26.0 -11.35 13.085
-25.7 -11.35 13.034
-25.4 -11.35 12.992
-25.1 -11.35 13.013
-24.8 -11.35 12.962
-24.5 -11.35 12.953
-24.2 -11.35 12.902
-23.9 -11.35 12.866
-23.6 -11.35 12.827
-23.3 -11.35 12.752
-23.0 -11.35 12.686
-22.7 -11.35 12.644
-22.4 -11.35 12.596
-22.1 -11.35 12.497
-21.8 -11.35 12.443
-21.5 -11.35 12.365
-21.2 -11.35 12.26
-20.9 -11.35 12.182
-20.6 -11.35 12.065
-20.3 -11.35 11.975
-20.0 -11.35 11.873
-19.7 -11.35 11.765
-19.4 -11.35 11.663
-19.1 -11.35 11.525
-18.8 -11.35 11.399
-18.5 -11.35 11.264
-18.2 -11.35 11.168
-17.9 -11.35 11.018
-17.6 -11.35 10.889
-17.3 -11.35 10.721
-17.0 -11.35 10.589
-16.7 -11.35 10.439
-16.4 -11.35 10.286
-16.1 -11.35 10.142
-15.8 -11.35 9.965
-15.5 -11.35 9.797
-15.2 -11.35 9.635
-14.9 -11.35 9.473
-14.6 -11.35 9.26
-14.3 -11.35 9.113
-14.0 -11.35 8.927
-13.7 -11.35 8.741
-13.4 -11.35 8.537
-13.1 -11.35 8.3
-12.8 -11.35 8.141
-12.5 -11.35 7.928
-12.2 -11.35 7.703
-11.9 -11.35 7.517
-11.6 -11.35 7.292
-11.3 -11.35 7.073
-11.0 -11.35 6.851
-10.7 -11.35 6.608
-10.4 -11.35 6.41
-10.1 -11.35 6.164
-9.8 -11.35 5.939
-9.5 -11.35 5.708
-9.2 -11.35 5.45
-8.9 -11.35 5.186
-8.6 -11.35 4.955
-8.3 -11.35 4.658
-8.0 -11.35 4.445
-7.7 -11.35 4.169
-7.4 -11.35 3.89
-7.1 -11.35 3.623
-6.8 -11.35 3.35
-6.5 -11.35 3.083
-6.2 -11.35 2.81
-5.9 -11.35 2.501
-5.6 -11.35 2.24
-5.3 -11.35 1.94
-5.0 -11.35 1.661
-4.7 -11.35 1.388
-4.4 -11.35 1.067
-4.1 -11.35 0.764
-3.8 -11.35 0.464
-3.5 -11.35 0.176
-3.2 -11.35 -0.16
-2.9 -11.35 -0.472
-2.6 -11.35 -0.757
-2.3 -11.35 -1.102
-2.0 -11.35 -1.423
-1.7 -11.35 -1.747
-1.4 -11.35 -2.119
-1.1 -11.35 -2.431
-0.8 -11.35 -2.752
-0.5 -11.35 -3.121
-0.2 -11.35 -3.433
0.1 -11.35 -3.823
0.4 -11.35 -4.153
0.7 -11.35 -4.51
1.0 -11.35 -4.876
1.3 -11.35 -5.218
1.6 -11.35 -5.611
1.9 -11.35 -5.98
2.2 -11.35 -6.34
2.5 -11.35 -6.691
2.8 -11.35 -7.102
3.1 -11.35 -7.489
3.4 -11.35 -7.867
3.7 -11.35 -8.263
4.0 -11.35 -8.671
4.3 -11.35 -9.058
4.6 -11.35 -9.481
4.9 -11.35 -9.88
5.2 -11.35 -10.285
5.5 -11.35 -10.651
5.8 -11.35 -11.107
6.1 -11.35 -11.548
6.4 -11.35 -11.968
6.7 -11.35 -12.337
7.0 -11.35 -12.763
7.3 -11.35 -13.183
7.6 -11.35 -13.636
7.9 -11.35 -14.074
8.2 -11.35 -14.476
8.5 -11.35 -14.941
8.8 -11.35 -15.361
9.1 -11.35 -15.832
9.4 -11.35 -16.288
9.7 -11.35 -16.738
10.0 -11.35 -17.206
10.3 -11.35 -17.599
10.6 -11.35 -18.082
10.9 -11.35 -18.55
11.2 -11.35 -18.994
11.5 -11.35 -19.444
11.8 -11.35 -19.939
12.1 -11.35 -20.419
12.4 -11.35 -20.932
12.7 -11.35 -21.373
13.0 -11.35 -21.853
13.3 -11.35 -22.345
13.6 -11.35 -22.822
13.9 -11.35 -23.338
14.2 -11.35 -23.836
14.5 -11.35 -24.346
14.8 -11.35 -24.832
15.1 -11.35 -25.369
15.4 -11.35 -25.873
15.7 -11.35 -26.437
16.0 -11.35 -26.959
16.3 -11.35 -27.481
16.6 -11.35 -27.973
16.9 -11.35 -28.606
17.2 -11.35 -29.101
17.5 -11.35 -29.656
17.8 -11.35 -30.199
18.1 -11.35 -30.775
18.4 -11.35 -31.345
18.7 -11.35 -31.876
19.0 -11.35 -32.428
19.3 -11.35 -33.013
19.6 -11.35 -33.571
19.9 -11.35 -34.156
20.2 -11.35 -34.765
20.5 -11.35 -35.407
20.8 -11.35 -35.959
21.1 -11.35 -36.574
21.4 -11.35 -37.207
21.7 -11.35 -37.81
22.0 -11.35 -38.407
22.3 -11.35 -39.163
22.6 -11.35 -39.823
22.9 -11.35 -40.369
23.2 -11.35 -40.954
23.5 -11.35 -41.647
23.8 -11.35 -42.241
24.1 -11.35 -42.94
24.4 -11.35 -43.711
25.0 -11.35 -45.001
25.3 -11.35 -45.706
27.4 -11.35 -50.98
-39.2 -11.65 1.541
-38.9 -11.65 2.873
-38.6 -11.65 3.782
-38.3 -11.65 4.586
-38.0 -11.65 5.3
-37.7 -11.65 5.882
-37.4 -11.65 6.419
-37.1 -11.65 6.941
-36.8 -11.65 7.43
-36.5 -11.65 7.877
-36.2 -11.65 8.273
-35.9 -11.65 8.666
-35.6 -11.65 8.984
-35.3 -11.65 9.308
-35.0 -11.65 9.584
-34.7 -11.65 9.86
-34.4 -11.65 10.121
-34.1 -11.65 10.376
-33.8 -11.65 10.58
-33.5 -11.65 10.805
-33.2 -11.65 11.021
-32.9 -11.65 11.213
-32.6 -11.65 11.399
-32.3 -11.65 11.576
-32.0 -11.65 11.708
-31.7 -11.65 11.771
-31.4 -11.65 12.023
-31.1 -11.65 12.182
-30.8 -11.65 12.293
-30.5 -11.65 12.392
-30.2 -11.65 12.515
-29.9 -11.65 12.599
-29.6 -11.65 12.692
-29.3 -11.65 12.758
-29.0 -11.65 12.833
-28.7 -11.65 12.89
-28.4 -11.65 12.914
-28.1 -11.65 13.001
-27.8 -11.65 13.028
-27.5 -11.65 13.094
-27.2 -11.65 13.076
-26.9 -11.65 13.109
-26.6 -11.65 13.103
-26.3 -11.65 13.139
-26.0 -11.65 13.118
-25.7 -11.65 13.106
-25.4 -11.65 13.091
-25.1 -11.65 13.07
-24.8 -11.65 12.989
-24.5 -11.65 13.037
-24.2 -11.65 12.959
