22.0 -14.95 12.464
22.3 -14.95 12.284
22.6 -14.95 12.158
22.9 -14.95 11.972
23.2 -14.95 11.795
23.5 -14.95 11.591
23.8 -14.95 11.387
24.1 -14.95 11.141
24.4 -14.95 10.904
24.7 -14.95 10.655
25.0 -14.95 10.388
25.3 -14.95 10.058
25.6 -14.95 9.737
25.9 -14.95 9.377
26.2 -14.95 9.023
26.5 -14.95 8.627
26.8 -14.95 8.192
27.1 -14.95 7.712
27.4 -14.95 7.202
27.7 -14.95 6.647
28.0 -14.95 6.017
28.3 -14.95 5.324
28.6 -14.95 4.523
28.9 -14.95 3.599
29.2 -14.95 2.576
-39.5 -15.25 -48.358
-38.6 -15.25 -46.093
-37.7 -15.25 -44.083
-37.4 -15.25 -43.429
-37.1 -15.25 -42.718
-36.8 -15.25 -42.097
-36.5 -15.25 -41.467
-36.2 -15.25 -40.885
-35.9 -15.25 -40.204
-35.6 -15.25 -39.631
-35.3 -15.25 -39.052
-35.0 -15.25 -38.422
-34.7 -15.25 -37.762
-34.4 -15.25 -37.243
-34.1 -15.25 -36.658
-33.8 -15.25 -36.043
-33.5 -15.25 -35.506
-33.2 -15.25 -34.948
-32.9 -15.25 -34.387
-32.6 -15.25 -33.811
-32.3 -15.25 -33.283
-32.0 -15.25 -32.659
-31.7 -15.25 -32.155
-31.4 -15.25 -31.603
-31.1 -15.25 -31.039
-30.8 -15.25 -30.511
-30.5 -15.25 -30.001
-30.2 -15.25 -29.446
-29.9 -15.25 -28.891
-29.6 -15.25 -28.369
-29.3 -15.25 -27.772
-29.0 -15.25 -27.331
-28.7 -15.25 -26.83
-28.4 -15.25 -26.353
-28.1 -15.25 -25.831
-27.8 -15.25 -25.336
-27.5 -15.25 -24.811
-27.2 -15.25 -24.274
-26.9 -15.25 -23.794
-26.6 -15.25 -23.392
-26.3 -15.25 -22.903
-26.0 -15.25 -22.405
-25.7 -15.25 -21.922
-25.4 -15.25 -21.457
-25.1 -15.25 -20.971
-24.8 -15.25 -20.518
-24.5 -15.25 -20.038
-24.2 -15.25 -19.57
-23.9 -15.25 -19.096
-23.6 -15.25 -18.637
-23.3 -15.25 -18.19
-23.0 -15.25 -17.758
-22.7 -15.25 -17.314
-22.4 -15.25 -16.855
-22.1 -15.25 -16.366
-21.8 -15.25 -16.0
-21.5 -15.25 -15.541
-21.2 -15.25 -15.124
-20.9 -15.25 -14.677
-20.6 -15.25 -14.266
-20.3 -15.25 -13.828
-20.0 -15.25 -13.387
-19.7 -15.25 -13.003
-19.4 -15.25 -12.577
-19.1 -15.25 -12.139
-18.8 -15.25 -11.725
-18.5 -15.25 -11.362
-18.2 -15.25 -10.891
-17.9 -15.25 -10.567
-17.6 -15.25 -10.159
-17.3 -15.25 -9.775
-17.0 -15.25 -9.376
-16.7 -15.25 -8.992
-16.4 -15.25 -8.602
-16.1 -15.25 -8.203
-15.8 -15.25 -7.846
-15.5 -15.25 -7.444
-15.2 -15.25 -7.06
-14.9 -15.25 -6.688
-14.6 -15.25 -6.316
-14.3 -15.25 -5.95
-14.0 -15.25 -5.557
-13.7 -15.25 -5.245
-13.4 -15.25 -4.849
-13.1 -15.25 -4.498
-12.8 -15.25 -4.126
-12.5 -15.25 -3.781
-12.2 -15.25 -3.445
-11.9 -15.25 -3.097
-11.6 -15.25 -2.755
-11.3 -15.25 -2.428
-11.0 -15.25 -2.08
-10.7 -15.25 -1.759
-10.4 -15.25 -1.441
-10.1 -15.25 -1.096
-9.8 -15.25 -0.784
-9.5 -15.25 -0.508
-9.2 -15.25 -0.136
-8.9 -15.25 0.128
-8.6 -15.25 0.455
-8.3 -15.25 0.734
-8.0 -15.25 1.058
-7.7 -15.25 1.355
-7.4 -15.25 1.64
-7.1 -15.25 1.955
-6.8 -15.25 2.222
-6.5 -15.25 2.492
-6.2 -15.25 2.786
-5.9 -15.25 3.047
-5.6 -15.25 3.341
-5.3 -15.25 3.638
-5.0 -15.25 3.914
-4.7 -15.25 4.163
-4.4 -15.25 4.421
-4.1 -15.25 4.661
-3.8 -15.25 4.928
-3.5 -15.25 5.216
-3.2 -15.25 5.444
-2.9 -15.25 5.702
-2.6 -15.25 5.93
-2.3 -15.25 6.17
-2.0 -15.25 6.416
-1.7 -15.25 6.635
-1.4 -15.25 6.854
-1.1 -15.25 7.124
-0.8 -15.25 7.325
-0.5 -15.25 7.55
-0.2 -15.25 7.76
0.1 -15.25 7.991
0.4 -15.25 8.198
0.7 -15.25 8.399
1.0 -15.25 8.606
1.3 -15.25 8.837
1.6 -15.25 9.047
1.9 -15.25 9.236
2.2 -15.25 9.407
2.5 -15.25 9.596
2.8 -15.25 9.779
3.1 -15.25 9.974
3.4 -15.25 10.166
3.7 -15.25 10.322
4.0 -15.25 10.493
4.3 -15.25 10.691
4.6 -15.25 10.859
4.9 -15.25 11.033
5.2 -15.25 11.201
5.5 -15.25 11.342
5.8 -15.25 11.486
6.1 -15.25 11.63
6.4 -15.25 11.786
6.7 -15.25 11.906
7.0 -15.25 12.053
7.3 -15.25 12.161
7.6 -15.25 12.299
7.9 -15.25 12.422
8.2 -15.25 12.512
8.5 -15.25 12.665
8.8 -15.25 12.782
9.1 -15.25 12.878
9.4 -15.25 13.016
9.7 -15.25 13.037
10.0 -15.25 13.166
10.3 -15.25 13.259
10.6 -15.25 13.316
10.9 -15.25 13.454
11.2 -15.25 13.493
11.5 -15.25 13.592
11.8 -15.25 13.631
12.1 -15.25 13.739
12.4 -15.25 13.739
12.7 -15.25 13.796
13.0 -15.25 13.91
13.3 -15.25 13.91
13.6 -15.25 13.97
13.9 -15.25 13.997
14.2 -15.25 14.03
14.5 -15.25 14.042
14.8 -15.25 14.066
15.1 -15.25 14.069
15.4 -15.25 14.123
15.7 -15.25 14.069
16.0 -15.25 14.081
16.3 -15.25 14.099
16.6 -15.25 14.066
16.9 -15.25 13.994
17.2 -15.25 14.0
17.5 -15.25 13.97
17.8 -15.25 13.934
18.1 -15.25 13.877
18.4 -15.25 13.859
18.7 -15.25 13.76
19.0 -15.25 13.685
19.3 -15.25 13.646
19.6 -15.25 13.565
19.9 -15.25 13.496
20.2 -15.25 13.361
20.5 -15.25 13.232
20.8 -15.25 13.127
21.1 -15.25 12.986
21.4 -15.25 12.881
21.7 -15.25 12.71
22.0 -15.25 12.59
22.3 -15.25 12.431
22.6 -15.25 12.263
22.9 -15.25 12.092
23.2 -15.25 11.879
23.5 -15.25 11.726
23.8 -15.25 11.495
24.1 -15.25 11.267
24.4 -15.25 11.024
24.7 -15.25 10.769
25.0 -15.25 10.496
25.3 -15.25 10.205
25.6 -15.25 9.869
25.9 -15.25 9.56
26.2 -15.25 9.17
26.5 -15.25 8.801
26.8 -15.25 8.351
27.1 -15.25 7.877
27.4 -15.25 7.385
27.7 -15.25 6.836
28.0 -15.25 6.218
28.3 -15.25 5.57
28.6 -15.25 4.802
28.9 -15.25 3.92
29.2 -15.25 2.876
29.5 -15.25 1.757
-39.8 -15.55 -48.775
-39.5 -15.55 -48.001
-39.2 -15.55 -47.239
-38.9 -15.55 -46.549
-38.6 -15.55 -45.919
-38.3 -15.55 -45.208
-38.0 -15.55 -44.563
-37.7 -15.55 -43.933
-37.4 -15.55 -43.27
-37.1 -15.55 -42.661
-36.8 -15.55 -41.968
-36.5 -15.55 -41.296
-36.2 -15.55 -40.66
-35.9 -15.55 -40.111
-35.6 -15.55 -39.481
-35.3 -15.55 -38.86
-35.0 -15.55 -38.26
-34.7 -15.55 -37.705
-34.4 -15.55 -37.063
-34.1 -15.55 -36.496
-33.8 -15.55 -35.917
-33.5 -15.55 -35.329
-33.2 -15.55 -34.741
-32.9 -15.55 -34.246
-32.6 -15.55 -33.628
-32.3 -15.55 -33.142
-32.0 -15.55 -32.533
-31.7 -15.55 -32.008
-31.4 -15.55 -31.435
-31.1 -15.55 -30.901
-30.8 -15.55 -30.346
-30.5 -15.55 -29.812
-30.2 -15.55 -29.257
-29.9 -15.55 -28.75
-29.6 -15.55 -28.264
-29.3 -15.55 -27.7
-29.0 -15.55 -27.217
-28.7 -15.55 -26.692
-28.4 -15.55 -26.191
-28.1 -15.55 -25.729
-27.8 -15.55 -25.204
-27.5 -15.55 -24.679
-27.2 -15.55 -24.223
-26.9 -15.55 -23.719
-26.6 -15.55 -23.221
-26.3 -15.55 -22.747
-26.0 -15.55 -22.294
-25.7 -15.55 -21.799
-25.4 -15.55 -21.307
-25.1 -15.55 -20.848
-24.8 -15.55 -20.377
-24.5 -15.55 -19.915
-24.2 -15.55 -19.447
-23.9 -15.55 -19.018
-23.6 -15.55 -18.547
-23.3 -15.55 -18.073
-23.0 -15.55 -17.626
-22.7 -15.55 -17.179
-22.4 -15.55 -16.756
-22.1 -15.55 -16.312
-21.8 -15.55 -15.841
-21.5 -15.55 -15.388
-21.2 -15.55 -14.962
-20.9 -15.55 -14.536
-20.6 -15.55 -14.125
-20.3 -15.55 -13.708
-20.0 -15.55 -13.252
-19.7 -15.55 -12.859
-19.4 -15.55 -12.436
-19.1 -15.55 -12.025
-18.8 -15.55 -11.644
-18.5 -15.55 -11.236
-18.2 -15.55 -10.825
-17.9 -15.55 -10.438
-17.6 -15.55 -10.006
-17.3 -15.55 -9.643
-17.0 -15.55 -9.238
-16.7 -15.55 -8.854
-16.4 -15.55 -8.467
-16.1 -15.55 -8.098
-15.8 -15.55 -7.738
-15.5 -15.55 -7.339
-15.2 -15.55 -6.919
-14.9 -15.55 -6.583
-14.6 -15.55 -6.217
-14.3 -15.55 -5.827
-14.0 -15.55 -5.458
-13.7 -15.55 -5.089
-13.4 -15.55 -4.735
-13.1 -15.55 -4.396
-12.8 -15.55 -4.057
-12.5 -15.55 -3.685
-12.2 -15.55 -3.367
-11.9 -15.55 -2.986
-11.6 -15.55 -2.653
-11.3 -15.55 -2.332
-11.0 -15.55 -1.966
-10.7 -15.55 -1.648
-10.4 -15.55 -1.339
-10.1 -15.55 -1.003
-9.8 -15.55 -0.712
-9.5 -15.55 -0.409
-9.2 -15.55 -0.046
-8.9 -15.55 0.224
-8.6 -15.55 0.542
-8.3 -15.55 0.848
-8.0 -15.55 1.172
-7.7 -15.55 1.448
-7.4 -15.55 1.754
-7.1 -15.55 2.048
-6.8 -15.55 2.321
-6.5 -15.55 2.615
-6.2 -15.55 2.864
-5.9 -15.55 3.182
-5.6 -15.55 3.395
-5.3 -15.55 3.722
-5.0 -15.55 3.962
-4.7 -15.55 4.265
-4.4 -15.55 4.505
-4.1 -15.55 4.778
-3.8 -15.55 5.012
-3.5 -15.55 5.297
-3.2 -15.55 5.519
-2.9 -15.55 5.792
-2.6 -15.55 5.993
-2.3 -15.55 6.254
-2.0 -15.55 6.485
-1.7 -15.55 6.698
-1.4 -15.55 6.938
-1.1 -15.55 7.178
-0.8 -15.55 7.415
-0.5 -15.55 7.619
-0.2 -15.55 7.874
0.1 -15.55 8.108
0.4 -15.55 8.306
0.7 -15.55 8.528
1.0 -15.55 8.702
1.3 -15.55 8.915
1.6 -15.55 9.143
1.9 -15.55 9.305
2.2 -15.55 9.518
2.5 -15.55 9.713
2.8 -15.55 9.902
3.1 -15.55 10.085
3.4 -15.55 10.274
3.7 -15.55 10.439
4.0 -15.55 10.622
4.3 -15.55 10.73
4.6 -15.55 10.922
4.9 -15.55 11.099
5.2 -15.55 11.267
5.5 -15.55 11.396
5.8 -15.55 11.558
6.1 -15.55 11.672
6.4 -15.55 11.849
6.7 -15.55 11.993
7.0 -15.55 12.128
7.3 -15.55 12.254
7.6 -15.55 12.389
7.9 -15.55 12.488
8.2 -15.55 12.62
8.5 -15.55 12.722
8.8 -15.55 12.845
9.1 -15.55 12.962
9.4 -15.55 13.052
9.7 -15.55 13.136
10.0 -15.55 13.22
10.3 -15.55 13.325
10.6 -15.55 13.427
10.9 -15.55 13.517
11.2 -15.55 13.583
11.5 -15.55 13.67
11.8 -15.55 13.745
12.1 -15.55 13.76
12.4 -15.55 13.832
12.7 -15.55 13.907
13.0 -15.55 13.892
13.3 -15.55 13.994
13.6 -15.55 14.045
13.9 -15.55 14.072
14.2 -15.55 14.111
14.5 -15.55 14.111
14.8 -15.55 14.153
15.1 -15.55 14.144
15.4 -15.55 14.159
15.7 -15.55 14.168
16.0 -15.55 14.162
16.3 -15.55 14.156
16.6 -15.55 14.147
16.9 -15.55 14.138
17.2 -15.55 14.102
17.5 -15.55 14.087
17.8 -15.55 14.018
18.1 -15.55 13.997
18.4 -15.55 13.925
18.7 -15.55 13.865
19.0 -15.55 13.766
19.3 -15.55 13.739
19.6 -15.55 13.661
19.9 -15.55 13.538
20.2 -15.55 13.472
20.5 -15.55 13.334
20.8 -15.55 13.229
21.1 -15.55 13.13
21.4 -15.55 12.986
21.7 -15.55 12.842
22.0 -15.55 12.668
22.3 -15.55 12.53
22.6 -15.55 12.377
22.9 -15.55 12.191
23.2 -15.55 11.99
23.5 -15.55 11.822
23.8 -15.55 11.597
24.1 -15.55 11.384
24.4 -15.55 11.129
24.7 -15.55 10.856
25.0 -15.55 10.616
25.3 -15.55 10.313
25.6 -15.55 9.986
25.9 -15.55 9.671
26.2 -15.55 9.293
26.5 -15.55 8.93
26.8 -15.55 8.507
27.1 -15.55 8.057
27.4 -15.55 7.556
27.7 -15.55 7.007
28.0 -15.55 6.416
28.3 -15.55 5.801
28.6 -15.55 5.024
28.9 -15.55 4.163
29.2 -15.55 3.185
29.5 -15.55 2.159
-39.8 -15.85 -48.529
-39.5 -15.85 -47.872
-39.2 -15.85 -47.095
-38.6 -15.85 -45.778
-38.3 -15.85 -45.019
-38.0 -15.85 -44.398
-37.7 -15.85 -43.801
-37.4 -15.85 -43.084
-37.1 -15.85 -42.475
-36.8 -15.85 -41.794
-36.5 -15.85 -41.197
-36.2 -15.85 -40.528
-35.9 -15.85 -39.967
-35.6 -15.85 -39.313
-35.3 -15.85 -38.716
-35.0 -15.85 -38.107
-34.7 -15.85 -37.549
-34.4 -15.85 -36.979
-34.1 -15.85 -36.316
-33.8 -15.85 -35.794
-33.5 -15.85 -35.149
-33.2 -15.85 -34.651
-32.9 -15.85 -34.066
-32.6 -15.85 -33.523
-32.3 -15.85 -32.899
-32.0 -15.85 -32.437
-31.7 -15.85 -31.9
-31.4 -15.85 -31.294
-31.1 -15.85 -30.793
-30.8 -15.85 -30.238
-30.5 -15.85 -29.713
-30.2 -15.85 -29.152
-29.9 -15.85 -28.63
-29.6 -15.85 -28.087
-29.3 -15.85 -27.61
-29.0 -15.85 -27.076
-28.7 -15.85 -26.566
-28.4 -15.85 -26.056
-28.1 -15.85 -25.561
-27.8 -15.85 -25.057
-27.5 -15.85 -24.58
-27.2 -15.85 -24.079
-26.9 -15.85 -23.575
-26.6 -15.85 -23.137
-26.3 -15.85 -22.603
-26.0 -15.85 -22.111
-25.7 -15.85 -21.682
-25.4 -15.85 -21.187
-25.1 -15.85 -20.71
-24.8 -15.85 -20.248
-24.5 -15.85 -19.762
-24.2 -15.85 -19.345
-23.9 -15.85 -18.886
-23.6 -15.85 -18.397
-23.3 -15.85 -17.899
-23.0 -15.85 -17.482
-22.7 -15.85 -17.044
-22.4 -15.85 -16.612
-22.1 -15.85 -16.132
-21.8 -15.85 -15.706
-21.5 -15.85 -15.277
-21.2 -15.85 -14.809
-20.9 -15.85 -14.389
-20.6 -15.85 -13.978
-20.3 -15.85 -13.588
-20.0 -15.85 -13.147
-19.7 -15.85 -12.73
-19.4 -15.85 -12.316
-19.1 -15.85 -11.905
-18.8 -15.85 -11.521
-18.5 -15.85 -11.104
-18.2 -15.85 -10.687
-17.9 -15.85 -10.282
-17.6 -15.85 -9.91
-17.3 -15.85 -9.541
-17.0 -15.85 -9.133
-16.7 -15.85 -8.749
-16.4 -15.85 -8.365
-16.1 -15.85 -7.993
-15.8 -15.85 -7.57
-15.5 -15.85 -7.222
-15.2 -15.85 -6.835
-14.9 -15.85 -6.43
-14.6 -15.85 -6.1
-14.3 -15.85 -5.71
-14.0 -15.85 -5.329
-13.7 -15.85 -4.966
-13.4 -15.85 -4.636
-13.1 -15.85 -4.261
-12.8 -15.85 -3.925
-12.5 -15.85 -3.553
-12.2 -15.85 -3.22
-11.9 -15.85 -2.869
-11.6 -15.85 -2.527
-11.3 -15.85 -2.224
-11.0 -15.85 -1.891
-10.7 -15.85 -1.546
-10.4 -15.85 -1.24
-10.1 -15.85 -0.907
-9.8 -15.85 -0.607
-9.5 -15.85 -0.319
-9.2 -15.85 0.017
-8.9 -15.85 0.323
-8.6 -15.85 0.656
-8.3 -15.85 0.953
-8.0 -15.85 1.259
-7.7 -15.85 1.526
-7.4 -15.85 1.808
-7.1 -15.85 2.132
-6.8 -15.85 2.405
-6.5 -15.85 2.72
-6.2 -15.85 2.975
-5.9 -15.85 3.266
-5.6 -15.85 3.524
-5.3 -15.85 3.812
-5.0 -15.85 4.088
-4.7 -15.85 4.34
-4.4 -15.85 4.589
-4.1 -15.85 4.85
-3.8 -15.85 5.093
-3.5 -15.85 5.387
-3.2 -15.85 5.567
-2.9 -15.85 5.864
-2.6 -15.85 6.101
-2.3 -15.85 6.38
-2.0 -15.85 6.59
-1.7 -15.85 6.824
-1.4 -15.85 7.058
-1.1 -15.85 7.343
-0.8 -15.85 7.508
-0.5 -15.85 7.73
-0.2 -15.85 7.961
0.1 -15.85 8.18
0.4 -15.85 8.396
0.7 -15.85 8.603
1.0 -15.85 8.864
1.3 -15.85 8.984
1.6 -15.85 9.197
1.9 -15.85 9.479
2.2 -15.85 9.602
2.5 -15.85 9.806
2.8 -15.85 9.983
3.1 -15.85 10.187
3.4 -15.85 10.385
3.7 -15.85 10.529
4.0 -15.85 10.691
4.3 -15.85 10.862
4.6 -15.85 11.024
4.9 -15.85 11.162
5.2 -15.85 11.351
5.5 -15.85 11.513
5.8 -15.85 11.666
6.1 -15.85 11.798
6.4 -15.85 11.918
6.7 -15.85 12.071
7.0 -15.85 12.2
7.3 -15.85 12.365
7.6 -15.85 12.464
7.9 -15.85 12.587
8.2 -15.85 12.725
8.5 -15.85 12.821
8.8 -15.85 12.938
9.1 -15.85 13.052
9.4 -15.85 13.154
9.7 -15.85 13.262
10.0 -15.85 13.346
10.3 -15.85 13.442
10.6 -15.85 13.514
10.9 -15.85 13.595
11.2 -15.85 13.679
11.5 -15.85 13.745
11.8 -15.85 13.838
12.1 -15.85 13.889
12.4 -15.85 13.949
12.7 -15.85 13.979
13.0 -15.85 14.015
13.3 -15.85 14.114
13.6 -15.85 14.102
13.9 -15.85 14.129
14.2 -15.85 14.171
14.5 -15.85 14.207
14.8 -15.85 14.24
15.1 -15.85 14.234
15.4 -15.85 14.261
15.7 -15.85 14.279
16.0 -15.85 14.288
16.3 -15.85 14.276
16.6 -15.85 14.249
16.9 -15.85 14.225
17.2 -15.85 14.177
17.5 -15.85 14.192
17.8 -15.85 14.141
18.1 -15.85 14.087
18.4 -15.85 14.018
18.7 -15.85 13.952
19.0 -15.85 13.907
19.3 -15.85 13.835
19.6 -15.85 13.748
19.9 -15.85 13.664
20.2 -15.85 13.565
20.5 -15.85 13.445
20.8 -15.85 13.331
21.1 -15.85 13.196
21.4 -15.85 13.067
21.7 -15.85 12.92
22.0 -15.85 12.782
22.3 -15.85 12.641
22.6 -15.85 12.449
22.9 -15.85 12.281
23.2 -15.85 12.164
23.5 -15.85 11.978
23.8 -15.85 11.759
24.1 -15.85 11.504
24.4 -15.85 11.267
24.7 -15.85 11.0
25.0 -15.85 10.751
25.3 -15.85 10.451
25.6 -15.85 10.148
25.9 -15.85 9.794
26.2 -15.85 9.425
26.5 -15.85 9.056
26.8 -15.85 8.654
27.1 -15.85 8.198
27.4 -15.85 7.73
27.7 -15.85 7.223
28.0 -15.85 6.623
28.3 -15.85 5.981
28.6 -15.85 5.255
28.9 -15.85 4.418
29.2 -15.85 3.482
29.5 -15.85 2.498
-39.8 -16.15 -48.259
-39.5 -16.15 -47.665
-39.2 -16.15 -46.861
-38.9 -16.15 -46.195
-38.6 -16.15 -45.628
-38.3 -16.15 -44.788
-37.7 -16.15 -43.633
-37.4 -16.15 -42.904
-37.1 -16.15 -42.376
-36.8 -16.15 -41.701
-36.5 -16.15 -41.029
-36.2 -16.15 -40.42
-35.9 -16.15 -39.742
-35.6 -16.15 -39.145
-35.3 -16.15 -38.509
-35.0 -16.15 -37.972
-34.7 -16.15 -37.381
-34.4 -16.15 -36.772
-34.1 -16.15 -36.196
-33.8 -16.15 -35.68
-33.5 -16.15 -35.062
-33.2 -16.15 -34.453
-32.9 -16.15 -33.934
-32.6 -16.15 -33.355
-32.3 -16.15 -32.83
-32.0 -16.15 -32.212
-31.7 -16.15 -31.708
-31.4 -16.15 -31.159
-31.1 -16.15 -30.55
-30.8 -16.15 -30.094
-30.5 -16.15 -29.476
-30.2 -16.15 -29.017
-29.9 -16.15 -28.483
-29.6 -16.15 -27.988
-29.3 -16.15 -27.445
-29.0 -16.15 -26.896
-28.7 -16.15 -26.428
-28.4 -16.15 -25.885
-28.1 -16.15 -25.408
-27.8 -16.15 -24.907
-27.5 -16.15 -24.433
-27.2 -16.15 -23.917
-26.9 -16.15 -23.455
-26.6 -16.15 -22.966
-26.3 -16.15 -22.414
-26.0 -16.15 -22.0
-25.7 -16.15 -21.532
-25.4 -16.15 -21.052
-25.1 -16.15 -20.56
-24.8 -16.15 -20.053
-24.5 -16.15 -19.639
-24.2 -16.15 -19.138
-23.9 -16.15 -18.697
-23.6 -16.15 -18.244
-23.3 -16.15 -17.764
-23.0 -16.15 -17.35
-22.7 -16.15 -16.939
-22.4 -16.15 -16.483
-22.1 -16.15 -16.021
-21.8 -16.15 -15.583
-21.5 -16.15 -15.13
-21.2 -16.15 -14.719
-20.9 -16.15 -14.281
-20.6 -16.15 -13.84
-20.3 -16.15 -13.438
-20.0 -16.15 -13.039
-19.7 -16.15 -12.634
-19.4 -16.15 -12.211
-19.1 -16.15 -11.824
-18.8 -16.15 -11.392
-18.5 -16.15 -10.999
-18.2 -16.15 -10.549
-17.9 -16.15 -10.201
-17.6 -16.15 -9.778
-17.3 -16.15 -9.412
-17.0 -16.15 -9.01
-16.7 -16.15 -8.623
-16.4 -16.15 -8.233
-16.1 -16.15 -7.921
-15.8 -16.15 -7.486
-15.5 -16.15 -7.099
-15.2 -16.15 -6.727
-14.9 -16.15 -6.337
-14.6 -16.15 -5.995
-14.3 -16.15 -5.638
-14.0 -16.15 -5.257
-13.7 -16.15 -4.885
-13.4 -16.15 -4.48
-13.1 -16.15 -4.201
-12.8 -16.15 -3.817
-12.5 -16.15 -3.487
-12.2 -16.15 -3.07
-11.9 -16.15 -2.797
-11.6 -16.15 -2.452
-11.3 -16.15 -2.128
-11.0 -16.15 -1.786
-10.7 -16.15 -1.435
-10.4 -16.15 -1.153
-10.1 -16.15 -0.775
-9.8 -16.15 -0.493
-9.5 -16.15 -0.178
-9.2 -16.15 0.134
-8.9 -16.15 0.455
-8.6 -16.15 0.746
-8.3 -16.15 1.067
-8.0 -16.15 1.352
-7.7 -16.15 1.646
-7.4 -16.15 1.946
-7.1 -16.15 2.231
-6.8 -16.15 2.501
-6.5 -16.15 2.798
-6.2 -16.15 3.095
-5.9 -16.15 3.383
-5.6 -16.15 3.629
-5.3 -16.15 3.902
-5.0 -16.15 4.19
-4.7 -16.15 4.46
-4.4 -16.15 4.682
-4.1 -16.15 4.973
-3.8 -16.15 5.216
-3.5 -16.15 5.468
-3.2 -16.15 5.711
-2.9 -16.15 5.969
-2.6 -16.15 6.212
-2.3 -16.15 6.464
-2.0 -16.15 6.722
-1.7 -16.15 6.923
-1.4 -16.15 7.148
-1.1 -16.15 7.403
-0.8 -16.15 7.61
-0.5 -16.15 7.805
-0.2 -16.15 8.012
0.1 -16.15 8.27
0.4 -16.15 8.498
0.7 -16.15 8.696
1.0 -16.15 8.894
1.3 -16.15 9.086
1.6 -16.15 9.302
1.9 -16.15 9.488
2.2 -16.15 9.707
2.5 -16.15 9.875
2.8 -16.15 10.073
3.1 -16.15 10.253
3.4 -16.15 10.394
3.7 -16.15 10.601
4.0 -16.15 10.76
4.3 -16.15 10.949
4.6 -16.15 11.117
4.9 -16.15 11.273
5.2 -16.15 11.456
5.5 -16.15 11.591
5.8 -16.15 11.732
6.1 -16.15 11.906
6.4 -16.15 12.032
6.7 -16.15 12.167
7.0 -16.15 12.314
7.3 -16.15 12.431
7.6 -16.15 12.56
7.9 -16.15 12.68
8.2 -16.15 12.803
8.5 -16.15 12.914
8.8 -16.15 13.022
9.1 -16.15 13.133
9.4 -16.15 13.253
9.7 -16.15 13.364
10.0 -16.15 13.421
10.3 -16.15 13.541
10.6 -16.15 13.589
10.9 -16.15 13.709
11.2 -16.15 13.766
11.5 -16.15 13.874
11.8 -16.15 13.874
12.1 -16.15 13.961
12.4 -16.15 14.063
12.7 -16.15 14.078
13.0 -16.15 14.165
13.3 -16.15 14.18
13.6 -16.15 14.177
13.9 -16.15 14.27
14.2 -16.15 14.3
14.5 -16.15 14.303
14.8 -16.15 14.3
15.1 -16.15 14.333
15.4 -16.15 14.345
15.7 -16.15 14.339
16.0 -16.15 14.366
16.3 -16.15 14.363
16.6 -16.15 14.351
16.9 -16.15 14.348
17.2 -16.15 14.306
17.5 -16.15 14.261
17.8 -16.15 14.198
18.1 -16.15 14.165
18.4 -16.15 14.129
18.7 -16.15 14.084
19.0 -16.15 14.012
19.3 -16.15 13.934
19.6 -16.15 13.853
19.9 -16.15 13.736
20.2 -16.15 13.676
20.5 -16.15 13.559
20.8 -16.15 13.424
21.1 -16.15 13.313
21.4 -16.15 13.175
21.7 -16.15 13.034
22.0 -16.15 12.896
22.3 -16.15 12.731
22.6 -16.15 12.596
22.9 -16.15 12.395
23.2 -16.15 12.23
23.5 -16.15 12.059
23.8 -16.15 11.846
24.1 -16.15 11.63
24.4 -16.15 11.399
24.7 -16.15 11.126
25.0 -16.15 10.88
25.3 -16.15 10.586
25.6 -16.15 10.277
25.9 -16.15 9.932
26.2 -16.15 9.605
26.5 -16.15 9.224
26.8 -16.15 8.792
27.1 -16.15 8.351
27.4 -16.15 7.892
27.7 -16.15 7.394
28.0 -16.15 6.815
28.3 -16.15 6.179
28.6 -16.15 5.483
28.9 -16.15 4.685
29.2 -16.15 3.749
29.5 -16.15 2.654
-38.6 -16.45 -45.343
-38.3 -16.45 -44.692
-38.0 -16.45 -44.062
-36.8 -16.45 -41.299
-36.5 -16.45 -40.873
-36.2 -16.45 -40.216
-35.9 -16.45 -39.601
-35.6 -16.45 -38.989
-35.3 -16.45 -38.416
-35.0 -16.45 -37.834
-34.7 -16.45 -37.189
-34.4 -16.45 -36.622
-34.1 -16.45 -36.013
-33.8 -16.45 -35.476
-33.5 -16.45 -34.885
-33.2 -16.45 -34.327
-32.9 -16.45 -33.736
-32.6 -16.45 -33.262
-32.3 -16.45 -32.632
-32.0 -16.45 -32.062
-31.7 -16.45 -31.531
-31.4 -16.45 -31.009
-31.1 -16.45 -30.421
-30.8 -16.45 -29.935
-30.5 -16.45 -29.392
-30.2 -16.45 -28.918
-29.9 -16.45 -28.342
-29.6 -16.45 -27.832
-29.3 -16.45 -27.25
-29.0 -16.45 -26.755
-28.7 -16.45 -26.242
-28.4 -16.45 -25.768
-28.1 -16.45 -25.273
-27.8 -16.45 -24.745
-27.5 -16.45 -24.256
-27.2 -16.45 -23.773
-26.9 -16.45 -23.26
-26.6 -16.45 -22.819
-26.3 -16.45 -22.351
-26.0 -16.45 -21.853
-25.7 -16.45 -21.406
-25.4 -16.45 -20.935
-25.1 -16.45 -20.47
-24.8 -16.45 -19.978
-24.5 -16.45 -19.486
-24.2 -16.45 -19.015
-23.9 -16.45 -18.556
-23.6 -16.45 -18.136
-23.3 -16.45 -17.656
-23.0 -16.45 -17.212
-22.7 -16.45 -16.783
-22.4 -16.45 -16.363
-22.1 -16.45 -15.904
-21.8 -16.45 -15.457
-21.5 -16.45 -15.04
-21.2 -16.45 -14.611
-20.9 -16.45 -14.131
-20.6 -16.45 -13.762
-20.3 -16.45 -13.345
-20.0 -16.45 -12.961
-19.7 -16.45 -12.49
-19.4 -16.45 -12.097
-19.1 -16.45 -11.71
-18.8 -16.45 -11.296
-18.5 -16.45 -10.861
-18.2 -16.45 -10.45
-17.9 -16.45 -10.075
-17.6 -16.45 -9.661
-17.3 -16.45 -9.28
-17.0 -16.45 -8.896
-16.7 -16.45 -8.512
-16.4 -16.45 -8.125
-16.1 -16.45 -7.768
-15.8 -16.45 -7.348
-15.5 -16.45 -6.982
-15.2 -16.45 -6.646
-14.9 -16.45 -6.241
-14.6 -16.45 -5.896
-14.3 -16.45 -5.506
-14.0 -16.45 -5.155
-13.7 -16.45 -4.789
-13.4 -16.45 -4.405
-13.1 -16.45 -4.081
-12.8 -16.45 -3.694
-12.5 -16.45 -3.331
-12.2 -16.45 -3.031
-11.9 -16.45 -2.674
-11.6 -16.45 -2.338
-11.3 -16.45 -2.017
-11.0 -16.45 -1.681
-10.7 -16.45 -1.327
-10.4 -16.45 -1.012
-10.1 -16.45 -0.676
-9.8 -16.45 -0.379
-9.5 -16.45 -0.073
-9.2 -16.45 0.233
-8.9 -16.45 0.524
-8.6 -16.45 0.899
-8.3 -16.45 1.184
-8.0 -16.45 1.454
-7.7 -16.45 1.754
-7.4 -16.45 2.033
-7.1 -16.45 2.33
-6.8 -16.45 2.63
-6.5 -16.45 2.9
-6.2 -16.45 3.203
-5.9 -16.45 3.461
-5.6 -16.45 3.734
-5.3 -16.45 4.007
-5.0 -16.45 4.28
-4.7 -16.45 4.523
-4.4 -16.45 4.784
-4.1 -16.45 5.057
-3.8 -16.45 5.327
-3.5 -16.45 5.552
-3.2 -16.45 5.834
-2.9 -16.45 6.068
-2.6 -16.45 6.302
-2.3 -16.45 6.542
-2.0 -16.45 6.779
-1.7 -16.45 7.034
-1.4 -16.45 7.232
-1.1 -16.45 7.475
-0.8 -16.45 7.685
-0.5 -16.45 7.919
-0.2 -16.45 8.111
0.1 -16.45 8.351
0.4 -16.45 8.573
0.7 -16.45 8.774
1.0 -16.45 8.975
1.3 -16.45 9.179
1.6 -16.45 9.395
1.9 -16.45 9.575
2.2 -16.45 9.776
2.5 -16.45 9.989
2.8 -16.45 10.157
3.1 -16.45 10.334
3.4 -16.45 10.538
3.7 -16.45 10.679
4.0 -16.45 10.883
4.3 -16.45 11.042
4.6 -16.45 11.189
4.9 -16.45 11.357
5.2 -16.45 11.531
5.5 -16.45 11.642
5.8 -16.45 11.822
6.1 -16.45 11.978
6.4 -16.45 12.116
6.7 -16.45 12.245
7.0 -16.45 12.377
7.3 -16.45 12.515
7.6 -16.45 12.638
7.9 -16.45 12.776
8.2 -16.45 12.923
8.5 -16.45 12.965
8.8 -16.45 13.154
9.1 -16.45 13.172
9.4 -16.45 13.349
9.7 -16.45 13.427
10.0 -16.45 13.499
10.3 -16.45 13.619
10.6 -16.45 13.658
10.9 -16.45 13.76
11.2 -16.45 13.808
11.5 -16.45 13.937
11.8 -16.45 13.997
12.1 -16.45 14.072
12.4 -16.45 14.108
12.7 -16.45 14.15
13.0 -16.45 14.231
13.3 -16.45 14.234
13.6 -16.45 14.267
13.9 -16.45 14.306
14.2 -16.45 14.375
14.5 -16.45 14.384
14.8 -16.45 14.45
15.1 -16.45 14.432
15.4 -16.45 14.396
15.7 -16.45 14.447
16.0 -16.45 14.444
16.3 -16.45 14.447
16.6 -16.45 14.429
16.9 -16.45 14.432
17.2 -16.45 14.414
17.5 -16.45 14.363
17.8 -16.45 14.309
18.1 -16.45 14.264
18.4 -16.45 14.216
18.7 -16.45 14.153
19.0 -16.45 14.105
19.3 -16.45 14.024
19.6 -16.45 13.952
19.9 -16.45 13.838
20.2 -16.45 13.745
20.5 -16.45 13.646
20.8 -16.45 13.511
21.1 -16.45 13.43
21.4 -16.45 13.268
21.7 -16.45 13.13
22.0 -16.45 12.998
22.3 -16.45 12.836
22.6 -16.45 12.674
22.9 -16.45 12.527
23.2 -16.45 12.323
23.5 -16.45 12.164
23.8 -16.45 11.963
24.1 -16.45 11.717
24.4 -16.45 11.48
24.7 -16.45 11.249
25.0 -16.45 10.985
25.3 -16.45 10.691
25.6 -16.45 10.4
25.9 -16.45 10.073
26.2 -16.45 9.761
26.5 -16.45 9.371
26.8 -16.45 8.978
27.1 -16.45 8.576
27.4 -16.45 8.069
27.7 -16.45 7.577
28.0 -16.45 7.007
28.3 -16.45 6.386
28.6 -16.45 5.681
28.9 -16.45 4.946
29.2 -16.45 4.052
29.5 -16.45 2.993
-39.8 -16.75 -48.148
-39.5 -16.75 -47.35
-38.6 -16.75 -45.268
-37.7 -16.75 -43.288
-37.4 -16.75 -42.556
-37.1 -16.75 -41.935
-36.8 -16.75 -41.305
-36.5 -16.75 -40.735
-36.2 -16.75 -40.105
-35.9 -16.75 -39.448
-35.6 -16.75 -38.827
-35.3 -16.75 -38.212
-35.0 -16.75 -37.654
-34.7 -16.75 -37.051
-34.4 -16.75 -36.493
-34.1 -16.75 -35.914
-33.8 -16.75 -35.332
-33.5 -16.75 -34.72
-33.2 -16.75 -34.165
-32.9 -16.75 -33.643
-32.6 -16.75 -33.013
-32.3 -16.75 -32.503
-32.0 -16.75 -31.963
-31.7 -16.75 -31.363
-31.4 -16.75 -30.829
-31.1 -16.75 -30.325
-30.8 -16.75 -29.776
-30.5 -16.75 -29.215
-30.2 -16.75 -28.705
-29.9 -16.75 -28.147
-29.6 -16.75 -27.679
-29.3 -16.75 -27.16
-29.0 -16.75 -26.602
-28.7 -16.75 -26.146
-28.4 -16.75 -25.654
-28.1 -16.75 -25.144
-27.8 -16.75 -24.649
-27.5 -16.75 -24.133
-27.2 -16.75 -23.653
-26.9 -16.75 -23.158
-26.6 -16.75 -22.705
-26.3 -16.75 -22.225
-26.0 -16.75 -21.727
-25.7 -16.75 -21.235
-25.4 -16.75 -20.779
-25.1 -16.75 -20.329
-24.8 -16.75 -19.846
-24.5 -16.75 -19.393
-24.2 -16.75 -18.949
-23.9 -16.75 -18.484
-23.6 -16.75 -18.001
-23.3 -16.75 -17.527
-23.0 -16.75 -17.101
-22.7 -16.75 -16.657
-22.4 -16.75 -16.213
-22.1 -16.75 -15.751
-21.8 -16.75 -15.328
-21.5 -16.75 -14.887
-21.2 -16.75 -14.467
-20.9 -16.75 -14.035
-20.6 -16.75 -13.618
-20.3 -16.75 -13.21
-20.0 -16.75 -12.793
-19.7 -16.75 -12.385
-19.4 -16.75 -11.959
-19.1 -16.75 -11.557
-18.8 -16.75 -11.164
-18.5 -16.75 -10.756
-18.2 -16.75 -10.348
-17.9 -16.75 -9.958
-17.6 -16.75 -9.547
-17.3 -16.75 -9.175
-17.0 -16.75 -8.803
-16.7 -16.75 -8.389
-16.4 -16.75 -7.99
-16.1 -16.75 -7.624
-15.8 -16.75 -7.213
-15.5 -16.75 -6.88
-15.2 -16.75 -6.49
-14.9 -16.75 -6.118
-14.6 -16.75 -5.731
-14.3 -16.75 -5.353
-14.0 -16.75 -5.035
-13.7 -16.75 -4.648
-13.4 -16.75 -4.249
-13.1 -16.75 -3.94
-12.8 -16.75 -3.592
-12.5 -16.75 -3.238
-12.2 -16.75 -2.896
-11.9 -16.75 -2.551
-11.6 -16.75 -2.248
-11.3 -16.75 -1.927
-11.0 -16.75 -1.576
-10.7 -16.75 -1.231
-10.4 -16.75 -0.901
-10.1 -16.75 -0.595
-9.8 -16.75 -0.292
-9.5 -16.75 0.056
-9.2 -16.75 0.356
-8.9 -16.75 0.635
-8.6 -16.75 0.932
-8.3 -16.75 1.259
-8.0 -16.75 1.55
-7.7 -16.75 1.847
-7.4 -16.75 2.111
-7.1 -16.75 2.423
-6.8 -16.75 2.717
-6.5 -16.75 3.017
-6.2 -16.75 3.26
-5.9 -16.75 3.56
-5.6 -16.75 3.851
-5.3 -16.75 4.103
-5.0 -16.75 4.385
-4.7 -16.75 4.646
-4.4 -16.75 4.892
-4.1 -16.75 5.156
-3.8 -16.75 5.432
-3.5 -16.75 5.684
-3.2 -16.75 5.915
-2.9 -16.75 6.146
-2.6 -16.75 6.398
-2.3 -16.75 6.665
-2.0 -16.75 6.842
-1.7 -16.75 7.085
-1.4 -16.75 7.313
-1.1 -16.75 7.544
-0.8 -16.75 7.766
-0.5 -16.75 8.027
-0.2 -16.75 8.237
0.1 -16.75 8.444
0.4 -16.75 8.648
0.7 -16.75 8.879
1.0 -16.75 9.062
1.3 -16.75 9.284
1.6 -16.75 9.476
1.9 -16.75 9.653
2.2 -16.75 9.845
2.5 -16.75 10.055
2.8 -16.75 10.241
3.1 -16.75 10.397
3.4 -16.75 10.598
3.7 -16.75 10.775
4.0 -16.75 10.943
4.3 -16.75 11.129
4.6 -16.75 11.303
4.9 -16.75 11.432
5.2 -16.75 11.642
5.5 -16.75 11.768
5.8 -16.75 11.918
6.1 -16.75 12.059
6.4 -16.75 12.209
6.7 -16.75 12.296
7.0 -16.75 12.473
7.3 -16.75 12.581
7.6 -16.75 12.701
7.9 -16.75 12.848
8.2 -16.75 12.938
8.5 -16.75 13.067
8.8 -16.75 13.175
9.1 -16.75 13.289
9.4 -16.75 13.4
9.7 -16.75 13.484
10.0 -16.75 13.55
10.3 -16.75 13.658
10.6 -16.75 13.76
10.9 -16.75 13.805
11.2 -16.75 13.925
11.5 -16.75 13.979
11.8 -16.75 14.048
12.1 -16.75 14.123
12.4 -16.75 14.192
12.7 -16.75 14.201
13.0 -16.75 14.294
13.3 -16.75 14.279
13.6 -16.75 14.378
13.9 -16.75 14.423
14.2 -16.75 14.42
14.5 -16.75 14.471
14.8 -16.75 14.507
15.1 -16.75 14.48
15.4 -16.75 14.471
15.7 -16.75 14.501
16.0 -16.75 14.519
16.3 -16.75 14.504
16.6 -16.75 14.483
16.9 -16.75 14.492
17.2 -16.75 14.468
17.5 -16.75 14.444
17.8 -16.75 14.396
18.1 -16.75 14.354
18.4 -16.75 14.324
18.7 -16.75 14.264
19.0 -16.75 14.198
19.3 -16.75 14.111
19.6 -16.75 14.027
19.9 -16.75 13.946
20.2 -16.75 13.838
20.5 -16.75 13.727
20.8 -16.75 13.604
21.1 -16.75 13.511
21.4 -16.75 13.397
21.7 -16.75 13.235
22.0 -16.75 13.076
22.3 -16.75 12.932
22.6 -16.75 12.797
22.9 -16.75 12.611
23.2 -16.75 12.446
23.5 -16.75 12.227
23.8 -16.75 12.065
24.1 -16.75 11.84
24.4 -16.75 11.597
24.7 -16.75 11.345
25.0 -16.75 11.072
25.3 -16.75 10.811
25.6 -16.75 10.544
25.9 -16.75 10.193
26.2 -16.75 9.863
26.5 -16.75 9.506
26.8 -16.75 9.113
27.1 -16.75 8.69
27.4 -16.75 8.225
27.7 -16.75 7.727
28.0 -16.75 7.184
28.3 -16.75 6.584
28.6 -16.75 5.918
28.9 -16.75 5.171
29.2 -16.75 4.316
29.5 -16.75 3.314
29.8 -16.75 2.237
-39.8 -17.05 -47.794
-39.5 -17.05 -47.215
-39.2 -17.05 -46.489
-38.9 -17.05 -45.772
-38.6 -17.05 -45.139
-38.3 -17.05 -44.44
-38.0 -17.05 -43.702
-37.7 -17.05 -43.024
-37.4 -17.05 -42.376
-37.1 -17.05 -41.752
-36.8 -17.05 -41.095
-36.5 -17.05 -40.438
-36.2 -17.05 -39.898
-35.9 -17.05 -39.313
-35.6 -17.05 -38.698
-35.3 -17.05 -38.113
-35.0 -17.05 -37.507
-34.7 -17.05 -36.928
-34.4 -17.05 -36.379
-34.1 -17.05 -35.734
-33.8 -17.05 -35.095
-33.5 -17.05 -34.633
-33.2 -17.05 -34.045
-32.9 -17.05 -33.523
-32.6 -17.05 -32.902
-32.3 -17.05 -32.395
-32.0 -17.05 -31.84
-31.7 -17.05 -31.285
-31.4 -17.05 -30.76
-31.1 -17.05 -30.154
-30.8 -17.05 -29.668
-30.5 -17.05 -29.104
-30.2 -17.05 -28.606
-29.9 -17.05 -28.054
-29.6 -17.05 -27.556
-29.3 -17.05 -26.983
-29.0 -17.05 -26.482
-28.7 -17.05 -25.999
-28.4 -17.05 -25.48
-28.1 -17.05 -24.994
-27.8 -17.05 -24.511
-27.5 -17.05 -23.998
-27.2 -17.05 -23.569
-26.9 -17.05 -23.038
-26.6 -17.05 -22.543
-26.3 -17.05 -21.985
-26.0 -17.05 -21.607
-25.7 -17.05 -21.157
-25.4 -17.05 -20.623
-25.1 -17.05 -20.194
-24.8 -17.05 -19.714
-24.5 -17.05 -19.222
-24.2 -17.05 -18.775
-23.9 -17.05 -18.331
-23.6 -17.05 -17.872
-23.3 -17.05 -17.392
-23.0 -17.05 -16.966
-22.7 -17.05 -16.534
-22.4 -17.05 -16.078
-22.1 -17.05 -15.637
-21.8 -17.05 -15.208
-21.5 -17.05 -14.791
-21.2 -17.05 -14.38
-20.9 -17.05 -13.912
-20.6 -17.05 -13.522
-20.3 -17.05 -13.078
-20.0 -17.05 -12.649
-19.7 -17.05 -12.25
-19.4 -17.05 -11.824
-19.1 -17.05 -11.383
-18.8 -17.05 -11.011
-18.5 -17.05 -10.606
-18.2 -17.05 -10.219
-17.9 -17.05 -9.826
-17.6 -17.05 -9.406
-17.3 -17.05 -9.025
-17.0 -17.05 -8.65
-16.7 -17.05 -8.266
-16.4 -17.05 -7.873
-16.1 -17.05 -7.522
-15.8 -17.05 -7.144
-15.5 -17.05 -6.748
-15.2 -17.05 -6.385
-14.9 -17.05 -6.004
-14.6 -17.05 -5.626
-14.3 -17.05 -5.272
-14.0 -17.05 -4.921
-13.7 -17.05 -4.552
-13.4 -17.05 -4.186
-13.1 -17.05 -3.799
-12.8 -17.05 -3.484
-12.5 -17.05 -3.157
-12.2 -17.05 -2.803
-11.9 -17.05 -2.479
-11.6 -17.05 -2.128
-11.3 -17.05 -1.807
-11.0 -17.05 -1.471
-10.7 -17.05 -1.132
-10.4 -17.05 -0.793
-10.1 -17.05 -0.472
-9.8 -17.05 -0.175
-9.5 -17.05 0.119
-9.2 -17.05 0.452
-8.9 -17.05 0.749
-8.6 -17.05 1.04
-8.3 -17.05 1.355
-8.0 -17.05 1.622
-7.7 -17.05 1.907
-7.4 -17.05 2.228
-7.1 -17.05 2.513
-6.8 -17.05 2.837
-6.5 -17.05 3.092
-6.2 -17.05 3.359
-5.9 -17.05 3.653
-5.6 -17.05 3.911
-5.3 -17.05 4.19
-5.0 -17.05 4.463
-4.7 -17.05 4.727
-4.4 -17.05 5.033
-4.1 -17.05 5.258
-3.8 -17.05 5.483
-3.5 -17.05 5.777
-3.2 -17.05 6.011
-2.9 -17.05 6.233
-2.6 -17.05 6.479
-2.3 -17.05 6.719
-2.0 -17.05 6.98
-1.7 -17.05 7.184
-1.4 -17.05 7.433
-1.1 -17.05 7.685
-0.8 -17.05 7.871
-0.5 -17.05 8.111
-0.2 -17.05 8.327
0.1 -17.05 8.534
0.4 -17.05 8.735
0.7 -17.05 8.975
1.0 -17.05 9.149
1.3 -17.05 9.377
1.6 -17.05 9.563
1.9 -17.05 9.761
2.2 -17.05 9.944
2.5 -17.05 10.154
2.8 -17.05 10.292
3.1 -17.05 10.529
3.4 -17.05 10.664
3.7 -17.05 10.895
4.0 -17.05 11.048
4.3 -17.05 11.195
4.6 -17.05 11.387
4.9 -17.05 11.543
5.2 -17.05 11.699
5.5 -17.05 11.825
5.8 -17.05 11.948
6.1 -17.05 12.167
6.4 -17.05 12.242
6.7 -17.05 12.407
7.0 -17.05 12.563
7.3 -17.05 12.68
7.6 -17.05 12.806
7.9 -17.05 12.941
8.2 -17.05 13.04
8.5 -17.05 13.193
8.8 -17.05 13.262
9.1 -17.05 13.409
9.4 -17.05 13.484
9.7 -17.05 13.589
10.0 -17.05 13.7
10.3 -17.05 13.745
10.6 -17.05 13.829
10.9 -17.05 13.943
11.2 -17.05 13.979
11.5 -17.05 14.093
11.8 -17.05 14.138
12.1 -17.05 14.186
12.4 -17.05 14.279
12.7 -17.05 14.324
13.0 -17.05 14.372
13.3 -17.05 14.441
13.6 -17.05 14.444
13.9 -17.05 14.486
14.2 -17.05 14.534
14.5 -17.05 14.549
14.8 -17.05 14.579
15.1 -17.05 14.636
15.4 -17.05 14.609
15.7 -17.05 14.588
16.0 -17.05 14.624
16.3 -17.05 14.588
16.6 -17.05 14.6
16.9 -17.05 14.606
17.2 -17.05 14.567
17.5 -17.05 14.513
17.8 -17.05 14.471
18.1 -17.05 14.441
18.4 -17.05 14.384
18.7 -17.05 14.33
19.0 -17.05 14.264
19.3 -17.05 14.195
19.6 -17.05 14.12
19.9 -17.05 14.042
20.2 -17.05 13.934
20.5 -17.05 13.85
20.8 -17.05 13.73
21.1 -17.05 13.586
21.4 -17.05 13.478
21.7 -17.05 13.364
22.0 -17.05 13.214
22.3 -17.05 13.061
22.6 -17.05 12.89
22.9 -17.05 12.707
23.2 -17.05 12.545
23.5 -17.05 12.377
23.8 -17.05 12.161
24.1 -17.05 11.948
24.4 -17.05 11.735
24.7 -17.05 11.477
25.0 -17.05 11.225
25.3 -17.05 10.952
25.6 -17.05 10.679
25.9 -17.05 10.343
26.2 -17.05 9.992
26.5 -17.05 9.656
26.8 -17.05 9.272
27.1 -17.05 8.849
27.4 -17.05 8.39
27.7 -17.05 7.919
28.0 -17.05 7.361
28.3 -17.05 6.779
28.6 -17.05 6.119
28.9 -17.05 5.381
29.2 -17.05 4.535
29.5 -17.05 3.623
29.8 -17.05 2.654
-39.8 -17.35 -47.59
-39.5 -17.35 -46.912
-39.2 -17.35 -46.219
-38.9 -17.35 -45.52
-38.6 -17.35 -44.911
-38.3 -17.35 -44.2
-38.0 -17.35 -43.573
-37.7 -17.35 -42.901
-37.4 -17.35 -42.259
-37.1 -17.35 -41.677
-36.8 -17.35 -41.017
-36.5 -17.35 -40.369
-36.2 -17.35 -39.718
-35.9 -17.35 -39.181
-35.6 -17.35 -38.554
-35.3 -17.35 -37.924
-35.0 -17.35 -37.327
-34.7 -17.35 -36.763
-34.4 -17.35 -36.199
-34.1 -17.35 -35.605
-33.8 -17.35 -34.981
-33.5 -17.35 -34.486
-33.2 -17.35 -33.922
-32.9 -17.35 -33.319
-32.6 -17.35 -32.782
-32.3 -17.35 -32.317
-32.0 -17.35 -31.705
-31.7 -17.35 -31.135
-31.4 -17.35 -30.568
-31.1 -17.35 -30.046
-30.8 -17.35 -29.404
-30.5 -17.35 -28.906
-30.2 -17.35 -28.411
-29.9 -17.35 -27.946
-29.6 -17.35 -27.379
-29.3 -17.35 -26.89
-29.0 -17.35 -26.302
-28.7 -17.35 -25.813
-28.4 -17.35 -25.354
-28.1 -17.35 -24.841
-27.8 -17.35 -24.355
-27.5 -17.35 -23.845
-27.2 -17.35 -23.425
-26.9 -17.35 -22.912
-26.6 -17.35 -22.399
-26.3 -17.35 -22.03
-26.0 -17.35 -21.445
-25.7 -17.35 -20.977
-25.4 -17.35 -20.494
-25.1 -17.35 -20.05
-24.8 -17.35 -19.561
-24.5 -17.35 -19.093
-24.2 -17.35 -18.655
-23.9 -17.35 -18.181
-23.6 -17.35 -17.704
-23.3 -17.35 -17.275
-23.0 -17.35 -16.789
-22.7 -17.35 -16.387
-22.4 -17.35 -15.964
-22.1 -17.35 -15.514
-21.8 -17.35 -15.082
-21.5 -17.35 -14.65
-21.2 -17.35 -14.224
-20.9 -17.35 -13.789
-20.6 -17.35 -13.351
-20.3 -17.35 -12.961
-20.0 -17.35 -12.565
-19.7 -17.35 -12.151
-19.4 -17.35 -11.707
-19.1 -17.35 -11.32
-18.8 -17.35 -10.897
-18.5 -17.35 -10.474
-18.2 -17.35 -10.111
-17.9 -17.35 -9.739
-17.6 -17.35 -9.331
-17.3 -17.35 -8.92
-17.0 -17.35 -8.536
-16.7 -17.35 -8.173
-16.4 -17.35 -7.744
-16.1 -17.35 -7.411
-15.8 -17.35 -7.027
-15.5 -17.35 -6.616
-15.2 -17.35 -6.253
-14.9 -17.35 -5.92
-14.6 -17.35 -5.515
-14.3 -17.35 -5.191
-14.0 -17.35 -4.831
-13.7 -17.35 -4.441
-13.4 -17.35 -4.063
-13.1 -17.35 -3.721
-12.8 -17.35 -3.379
-12.5 -17.35 -3.052
-12.2 -17.35 -2.704
-11.9 -17.35 -2.38
-11.6 -17.35 -2.035
-11.3 -17.35 -1.684
-11.0 -17.35 -1.357
-10.7 -17.35 -1.042
-10.4 -17.35 -0.751
-10.1 -17.35 -0.406
-9.8 -17.35 -0.064
-9.5 -17.35 0.242
-9.2 -17.35 0.539
-8.9 -17.35 0.836
-8.6 -17.35 1.172
-8.3 -17.35 1.466
-8.0 -17.35 1.757
-7.7 -17.35 2.051
-7.4 -17.35 2.324
-7.1 -17.35 2.636
-6.8 -17.35 2.909
-6.5 -17.35 3.203
-6.2 -17.35 3.485
-5.9 -17.35 3.761
-5.6 -17.35 4.076
-5.3 -17.35 4.286
-5.0 -17.35 4.55
-4.7 -17.35 4.85
-4.4 -17.35 5.075
-4.1 -17.35 5.357
-3.8 -17.35 5.606
-3.5 -17.35 5.843
-3.2 -17.35 6.095
-2.9 -17.35 6.368
-2.6 -17.35 6.56
-2.3 -17.35 6.806
-2.0 -17.35 7.076
-1.7 -17.35 7.307
-1.4 -17.35 7.523
-1.1 -17.35 7.754
-0.8 -17.35 7.973
-0.5 -17.35 8.228
-0.2 -17.35 8.423
0.1 -17.35 8.666
0.4 -17.35 8.846
0.7 -17.35 9.074
1.0 -17.35 9.251
1.3 -17.35 9.443
1.6 -17.35 9.647
1.9 -17.35 9.857
2.2 -17.35 10.061
2.5 -17.35 10.238
2.8 -17.35 10.427
3.1 -17.35 10.565
3.4 -17.35 10.766
3.7 -17.35 10.952
4.0 -17.35 11.108
4.3 -17.35 11.288
4.6 -17.35 11.474
4.9 -17.35 11.621
5.2 -17.35 11.765
5.5 -17.35 11.903
5.8 -17.35 12.086
6.1 -17.35 12.218
6.4 -17.35 12.35
6.7 -17.35 12.521
7.0 -17.35 12.632
7.3 -17.35 12.761
7.6 -17.35 12.884
7.9 -17.35 13.034
8.2 -17.35 13.148
8.5 -17.35 13.259
8.8 -17.35 13.358
9.1 -17.35 13.445
9.4 -17.35 13.556
9.7 -17.35 13.682
10.0 -17.35 13.745
10.3 -17.35 13.832
10.6 -17.35 13.934
10.9 -17.35 13.997
11.2 -17.35 14.093
11.5 -17.35 14.186
11.8 -17.35 14.243
12.1 -17.35 14.312
12.4 -17.35 14.324
12.7 -17.35 14.399
13.0 -17.35 14.468
13.3 -17.35 14.528
13.6 -17.35 14.537
13.9 -17.35 14.6
14.2 -17.35 14.651
14.5 -17.35 14.657
14.8 -17.35 14.639
15.1 -17.35 14.669
15.4 -17.35 14.714
15.7 -17.35 14.705
16.0 -17.35 14.726
16.3 -17.35 14.696
16.6 -17.35 14.696
16.9 -17.35 14.675
17.2 -17.35 14.636
17.5 -17.35 14.636
17.8 -17.35 14.579
18.1 -17.35 14.525
18.4 -17.35 14.498
18.7 -17.35 14.462
19.0 -17.35 14.366
19.3 -17.35 14.207
19.6 -17.35 14.225
19.9 -17.35 14.132
20.2 -17.35 14.06
20.5 -17.35 13.937
20.8 -17.35 13.835
21.1 -17.35 13.709
21.4 -17.35 13.604
21.7 -17.35 13.445
22.0 -17.35 13.313
22.3 -17.35 13.145
22.6 -17.35 13.001
22.9 -17.35 12.8
23.2 -17.35 12.668
23.5 -17.35 12.476
23.8 -17.35 12.308
24.1 -17.35 12.056
24.4 -17.35 11.843
24.7 -17.35 11.594
25.0 -17.35 11.378
25.3 -17.35 11.075
25.6 -17.35 10.763
25.9 -17.35 10.487
26.2 -17.35 10.145
26.5 -17.35 9.8
26.8 -17.35 9.404
27.1 -17.35 8.987
27.4 -17.35 8.525
27.7 -17.35 8.066
28.0 -17.35 7.556
28.3 -17.35 6.962
28.6 -17.35 6.344
28.9 -17.35 5.612
29.2 -17.35 4.796
29.5 -17.35 3.899
29.8 -17.35 2.993
-40.4 -17.65 -48.91
-40.1 -17.65 -48.142
-39.5 -17.65 -46.729
-39.2 -17.65 -46.009
-38.9 -17.65 -45.376
-38.6 -17.65 -44.821
-38.3 -17.65 -44.122
-38.0 -17.65 -43.462
-37.1 -17.65 -41.53
-36.8 -17.65 -40.831
-36.5 -17.65 -40.141
-36.2 -17.65 -39.571
-35.9 -17.65 -38.932
-35.6 -17.65 -38.338
-35.3 -17.65 -37.759
-35.0 -17.65 -37.168
-34.7 -17.65 -36.577
-34.4 -17.65 -36.028
-34.1 -17.65 -35.437
-33.8 -17.65 -34.861
-33.5 -17.65 -34.339
-33.2 -17.65 -33.682
-32.9 -17.65 -33.193
-32.6 -17.65 -32.599
-32.3 -17.65 -32.008
-32.0 -17.65 -31.468
-31.7 -17.65 -30.952
-31.4 -17.65 -30.415
-31.1 -17.65 -29.854
-30.8 -17.65 -29.293
-30.5 -17.65 -28.804
-30.2 -17.65 -28.288
-29.9 -17.65 -27.694
-29.6 -17.65 -27.205
-29.3 -17.65 -26.707
-29.0 -17.65 -26.224
-28.7 -17.65 -25.714
-28.4 -17.65 -25.186
-28.1 -17.65 -24.661
-27.8 -17.65 -24.208
-27.5 -17.65 -23.692
-27.2 -17.65 -23.251
-26.9 -17.65 -22.768
-26.6 -17.65 -22.285
-26.3 -17.65 -21.811
-26.0 -17.65 -21.328
-25.7 -17.65 -20.836
-25.4 -17.65 -20.377
-25.1 -17.65 -19.897
-24.8 -17.65 -19.48
-24.5 -17.65 -18.964
-24.2 -17.65 -18.523
-23.9 -17.65 -18.04
-23.6 -17.65 -17.611
-23.3 -17.65 -17.119
-23.0 -17.65 -16.699
-22.7 -17.65 -16.231
-22.4 -17.65 -15.778
-22.1 -17.65 -15.376
-21.8 -17.65 -14.965
-21.5 -17.65 -14.536
-21.2 -17.65 -14.137
-20.9 -17.65 -13.687
-20.6 -17.65 -13.27
-20.3 -17.65 -12.874
-20.0 -17.65 -12.451
-19.7 -17.65 -12.031
-19.4 -17.65 -11.596
-19.1 -17.65 -11.218
-18.8 -17.65 -10.792
-18.5 -17.65 -10.366
-18.2 -17.65 -9.976
-17.9 -17.65 -9.592
-17.6 -17.65 -9.187
-17.3 -17.65 -8.821
-17.0 -17.65 -8.428
-16.7 -17.65 -8.041
-16.4 -17.65 -7.657
-16.1 -17.65 -7.276
-15.8 -17.65 -6.892
-15.5 -17.65 -6.511
-15.2 -17.65 -6.142
-14.9 -17.65 -5.815
-14.6 -17.65 -5.413
-14.3 -17.65 -5.044
-14.0 -17.65 -4.702
-13.7 -17.65 -4.351
-13.4 -17.65 -3.949
-13.1 -17.65 -3.649
-12.8 -17.65 -3.298
-12.5 -17.65 -2.908
-12.2 -17.65 -2.578
-11.9 -17.65 -2.239
-11.6 -17.65 -1.921
-11.3 -17.65 -1.588
-11.0 -17.65 -1.237
-10.7 -17.65 -0.934
-10.4 -17.65 -0.637
-10.1 -17.65 -0.298
-9.8 -17.65 0.035
-9.5 -17.65 0.341
-9.2 -17.65 0.656
-8.9 -17.65 0.962
-8.6 -17.65 1.28
-8.3 -17.65 1.574
-8.0 -17.65 1.853
-7.7 -17.65 2.135
-7.4 -17.65 2.426
-7.1 -17.65 2.711
-6.8 -17.65 2.999
-6.5 -17.65 3.293
-6.2 -17.65 3.569
-5.9 -17.65 3.86
-5.6 -17.65 4.076
-5.3 -17.65 4.421
-5.0 -17.65 4.658
-4.7 -17.65 4.931
-4.4 -17.65 5.168
-4.1 -17.65 5.45
-3.8 -17.65 5.696
-3.5 -17.65 5.975
-3.2 -17.65 6.212
-2.9 -17.65 6.47
-2.6 -17.65 6.662
-2.3 -17.65 6.944
-2.0 -17.65 7.163
-1.7 -17.65 7.361
-1.4 -17.65 7.619
-1.1 -17.65 7.871
-0.8 -17.65 8.078
-0.5 -17.65 8.279
-0.2 -17.65 8.495
0.1 -17.65 8.711
0.4 -17.65 8.933
0.7 -17.65 9.218
1.0 -17.65 9.35
1.3 -17.65 9.53
1.6 -17.65 9.731
1.9 -17.65 9.911
2.2 -17.65 10.118
2.5 -17.65 10.319
2.8 -17.65 10.508
3.1 -17.65 10.709
3.4 -17.65 10.874
3.7 -17.65 11.027
4.0 -17.65 11.204
4.3 -17.65 11.378
4.6 -17.65 11.531
4.9 -17.65 11.693
5.2 -17.65 11.858
5.5 -17.65 12.032
5.8 -17.65 12.161
6.1 -17.65 12.287
6.4 -17.65 12.458
6.7 -17.65 12.593
7.0 -17.65 12.731
7.3 -17.65 12.863
7.6 -17.65 12.986
7.9 -17.65 13.094
8.2 -17.65 13.241
8.5 -17.65 13.349
8.8 -17.65 13.463
9.1 -17.65 13.568
9.4 -17.65 13.667
9.7 -17.65 13.748
10.0 -17.65 13.859
10.3 -17.65 13.904
10.6 -17.65 13.973
10.9 -17.65 14.087
11.2 -17.65 14.204
11.5 -17.65 14.231
11.8 -17.65 14.324
12.1 -17.65 14.357
12.4 -17.65 14.477
12.7 -17.65 14.486
13.0 -17.65 14.531
13.3 -17.65 14.588
13.6 -17.65 14.633
13.9 -17.65 14.615
14.2 -17.65 14.693
14.5 -17.65 14.714
14.8 -17.65 14.756
15.1 -17.65 14.771
15.4 -17.65 14.795
15.7 -17.65 14.765
16.0 -17.65 14.786
16.3 -17.65 14.801
16.6 -17.65 14.765
16.9 -17.65 14.738
17.2 -17.65 14.711
17.5 -17.65 14.705
17.8 -17.65 14.717
18.1 -17.65 14.648
18.4 -17.65 14.573
18.7 -17.65 14.516
19.0 -17.65 14.444
19.3 -17.65 14.471
19.6 -17.65 14.324
19.9 -17.65 14.231
20.2 -17.65 14.138
20.5 -17.65 14.033
20.8 -17.65 13.928
21.1 -17.65 13.799
21.4 -17.65 13.694
21.7 -17.65 13.541
22.0 -17.65 13.412
22.3 -17.65 13.25
22.6 -17.65 13.088
22.9 -17.65 12.884
23.2 -17.65 12.74
23.5 -17.65 12.56
23.8 -17.65 12.374
24.1 -17.65 12.152
24.4 -17.65 11.957
24.7 -17.65 11.702
25.0 -17.65 11.48
25.3 -17.65 11.174
25.6 -17.65 10.91
25.9 -17.65 10.601
26.2 -17.65 10.292
26.5 -17.65 9.926
26.8 -17.65 9.56
27.1 -17.65 9.119
27.4 -17.65 8.699
27.7 -17.65 8.24
28.0 -17.65 7.718
28.3 -17.65 7.163
28.6 -17.65 6.533
28.9 -17.65 5.858
29.2 -17.65 5.072
29.5 -17.65 4.166
29.8 -17.65 3.098
-39.2 -17.95 -45.844
-38.9 -17.95 -45.205
-38.6 -17.95 -44.557
-38.3 -17.95 -43.936
-38.0 -17.95 -43.249
-37.7 -17.95 -42.565
-36.8 -17.95 -40.666
-36.5 -17.95 -40.024
-36.2 -17.95 -39.52
-35.9 -17.95 -38.926
-35.6 -17.95 -38.224
-35.3 -17.95 -37.585
-35.0 -17.95 -36.997
-34.7 -17.95 -36.409
-34.4 -17.95 -35.8
-34.1 -17.95 -35.257
-33.8 -17.95 -34.714
-33.5 -17.95 -34.114
-33.2 -17.95 -33.58
-32.9 -17.95 -32.974
-32.6 -17.95 -32.443
-32.3 -17.95 -31.921
-32.0 -17.95 -31.312
-31.7 -17.95 -30.769
-31.4 -17.95 -30.259
-31.1 -17.95 -29.701
-30.8 -17.95 -29.176
-30.5 -17.95 -28.678
-30.2 -17.95 -28.111
-29.9 -17.95 -27.589
-29.6 -17.95 -27.082
-29.3 -17.95 -26.584
-29.0 -17.95 -26.086
-28.7 -17.95 -25.573
-28.4 -17.95 -25.069
-28.1 -17.95 -24.565
-27.8 -17.95 -24.103
-27.5 -17.95 -23.56
-27.2 -17.95 -23.008
-26.9 -17.95 -22.648
-26.6 -17.95 -22.159
-26.3 -17.95 -21.661
-26.0 -17.95 -21.22
-25.7 -17.95 -20.713
-25.4 -17.95 -20.233
-25.1 -17.95 -19.762
-24.8 -17.95 -19.318
-24.5 -17.95 -18.841
-24.2 -17.95 -18.388
-23.9 -17.95 -17.92
-23.6 -17.95 -17.497
-23.3 -17.95 -17.008
-23.0 -17.95 -16.621
-22.7 -17.95 -16.147
-22.4 -17.95 -15.721
-22.1 -17.95 -15.256
-21.8 -17.95 -14.818
-21.5 -17.95 -14.41
-21.2 -17.95 -13.996
-20.9 -17.95 -13.552
-20.6 -17.95 -13.135
-20.3 -17.95 -12.691
-20.0 -17.95 -12.289
-19.7 -17.95 -11.866
-19.4 -17.95 -11.497
-19.1 -17.95 -11.083
-18.8 -17.95 -10.672
-18.5 -17.95 -10.231
-18.2 -17.95 -9.877
-17.9 -17.95 -9.457
-17.6 -17.95 -9.088
-17.3 -17.95 -8.68
-17.0 -17.95 -8.302
-16.7 -17.95 -7.921
-16.4 -17.95 -7.546
-16.1 -17.95 -7.168
-15.8 -17.95 -6.763
-15.5 -17.95 -6.406
-15.2 -17.95 -6.037
-14.9 -17.95 -5.656
-14.6 -17.95 -5.296
-14.3 -17.95 -4.921
-14.0 -17.95 -4.567
-13.7 -17.95 -4.198
-13.4 -17.95 -3.85
-13.1 -17.95 -3.499
-12.8 -17.95 -3.16
-12.5 -17.95 -2.824
-12.2 -17.95 -2.455
-11.9 -17.95 -2.146
-11.6 -17.95 -1.795
-11.3 -17.95 -1.474
-11.0 -17.95 -1.144
-10.7 -17.95 -0.817
-10.4 -17.95 -0.502
-10.1 -17.95 -0.172
-9.8 -17.95 0.173
-9.5 -17.95 0.452
-9.2 -17.95 0.782
-8.9 -17.95 1.091
-8.6 -17.95 1.391
-8.3 -17.95 1.655
-8.0 -17.95 1.961
-7.7 -17.95 2.246
-7.4 -17.95 2.519
-7.1 -17.95 2.813
-6.8 -17.95 3.134
-6.5 -17.95 3.389
-6.2 -17.95 3.653
-5.9 -17.95 3.932
-5.6 -17.95 4.259
-5.3 -17.95 4.475
-5.0 -17.95 4.754
-4.7 -17.95 5.018
-4.4 -17.95 5.297
-4.1 -17.95 5.537
-3.8 -17.95 5.789
-3.5 -17.95 6.026
-3.2 -17.95 6.26
-2.9 -17.95 6.539
-2.6 -17.95 6.782
-2.3 -17.95 7.004
-2.0 -17.95 7.199
-1.7 -17.95 7.475
-1.4 -17.95 7.703
-1.1 -17.95 7.952
-0.8 -17.95 8.132
-0.5 -17.95 8.372
-0.2 -17.95 8.588
0.1 -17.95 8.798
0.4 -17.95 9.023
0.7 -17.95 9.206
1.0 -17.95 9.437
1.3 -17.95 9.602
1.6 -17.95 9.818
1.9 -17.95 10.025
2.2 -17.95 10.199
2.5 -17.95 10.382
2.8 -17.95 10.595
3.1 -17.95 10.772
3.4 -17.95 10.916
3.7 -17.95 11.141
4.0 -17.95 11.282
4.3 -17.95 11.45
4.6 -17.95 11.642
4.9 -17.95 11.762
5.2 -17.95 11.93
5.5 -17.95 12.074
5.8 -17.95 12.269
6.1 -17.95 12.38
6.4 -17.95 12.539
6.7 -17.95 12.635
7.0 -17.95 12.83
7.3 -17.95 12.956
7.6 -17.95 13.049
7.9 -17.95 13.118
8.2 -17.95 13.322
8.5 -17.95 13.421
8.8 -17.95 13.508
9.1 -17.95 13.658
9.4 -17.95 13.709
9.7 -17.95 13.835
10.0 -17.95 13.916
10.3 -17.95 14.021
10.6 -17.95 14.066
10.9 -17.95 14.156
11.2 -17.95 14.216
11.5 -17.95 14.297
11.8 -17.95 14.345
12.1 -17.95 14.438
12.4 -17.95 14.495
12.7 -17.95 14.561
13.0 -17.95 14.588
13.3 -17.95 14.66
13.6 -17.95 14.72
13.9 -17.95 14.747
14.2 -17.95 14.762
14.5 -17.95 14.771
14.8 -17.95 14.771
15.1 -17.95 14.825
15.4 -17.95 14.846
15.7 -17.95 14.843
16.0 -17.95 14.873
16.3 -17.95 14.909
16.6 -17.95 14.837
16.9 -17.95 14.789
17.2 -17.95 14.789
17.5 -17.95 14.768
17.8 -17.95 14.744
18.1 -17.95 14.684
18.4 -17.95 14.684
18.7 -17.95 14.606
19.0 -17.95 14.561
19.3 -17.95 14.483
19.6 -17.95 14.381
19.9 -17.95 14.3
20.2 -17.95 14.207
20.5 -17.95 14.162
20.8 -17.95 14.018
21.1 -17.95 13.883
21.4 -17.95 13.775
21.7 -17.95 13.631
22.0 -17.95 13.502
22.3 -17.95 13.352
22.6 -17.95 13.214
22.9 -17.95 13.019
23.2 -17.95 12.839
23.5 -17.95 12.701
23.8 -17.95 12.467
24.1 -17.95 12.275
24.4 -17.95 12.065
24.7 -17.95 11.831
25.0 -17.95 11.576
25.3 -17.95 11.336
25.6 -17.95 11.033
25.9 -17.95 10.73
26.2 -17.95 10.409
26.5 -17.95 10.022
26.8 -17.95 9.677
27.1 -17.95 9.293
27.4 -17.95 8.858
27.7 -17.95 8.396
28.0 -17.95 7.904
28.3 -17.95 7.34
28.6 -17.95 6.77
28.9 -17.95 6.08
29.2 -17.95 5.303
29.5 -17.95 4.457
29.8 -17.95 3.407
30.1 -17.95 2.303
-38.6 -18.25 -44.476
-38.3 -18.25 -43.6
-38.0 -18.25 -43.036
-37.7 -18.25 -42.421
-37.4 -18.25 -41.785
-37.1 -18.25 -41.056
-36.8 -18.25 -40.435
-36.5 -18.25 -39.838
-36.2 -18.25 -39.19
-35.9 -18.25 -38.584
-35.6 -18.25 -38.044
-35.3 -18.25 -37.396
-35.0 -18.25 -36.817
-34.7 -18.25 -36.247
-34.4 -18.25 -35.746
-34.1 -18.25 -35.125
-33.8 -18.25 -34.531
-33.5 -18.25 -33.955
-33.2 -18.25 -33.352
-32.9 -18.25 -32.824
-32.6 -18.25 -32.26
-32.3 -18.25 -31.753
-32.0 -18.25 -31.192
-31.7 -18.25 -30.655
-31.4 -18.25 -30.088
-31.1 -18.25 -29.503
-30.8 -18.25 -29.071
-30.5 -18.25 -28.534
-30.2 -18.25 -27.982
-29.9 -18.25 -27.46
-29.6 -18.25 -26.947
-29.3 -18.25 -26.407
-29.0 -18.25 -25.945
-28.7 -18.25 -25.426
-28.4 -18.25 -24.955
-28.1 -18.25 -24.427
-27.8 -18.25 -23.917
-27.5 -18.25 -23.422
