26.5 3.05 -20.485
26.8 3.05 -20.596
27.1 3.05 -20.689
27.4 3.05 -20.827
27.7 3.05 -20.914
28.0 3.05 -21.004
28.3 3.05 -21.145
28.6 3.05 -21.196
28.9 3.05 -21.34
29.2 3.05 -21.49
29.5 3.05 -21.619
29.8 3.05 -21.781
30.1 3.05 -21.886
30.4 3.05 -22.021
30.7 3.05 -22.177
31.0 3.05 -22.249
31.3 3.05 -22.351
31.6 3.05 -22.489
31.9 3.05 -22.693
32.2 3.05 -22.843
32.5 3.05 -22.981
32.8 3.05 -23.137
33.1 3.05 -23.239
33.4 3.05 -23.446
33.7 3.05 -23.599
34.0 3.05 -23.737
34.3 3.05 -23.926
34.6 3.05 -24.085
34.9 3.05 -24.211
35.2 3.05 -24.469
35.5 3.05 -24.64
35.8 3.05 -24.841
36.1 3.05 -25.042
36.4 3.05 -25.237
36.7 3.05 -25.474
37.0 3.05 -25.684
37.3 3.05 -25.93
37.6 3.05 -26.125
37.9 3.05 -26.347
38.2 3.05 -26.626
38.5 3.05 -26.881
38.8 3.05 -27.112
39.1 3.05 -27.406
39.4 3.05 -27.637
39.7 3.05 -28.063
40.0 3.05 -28.447
40.3 3.05 -28.723
40.6 3.05 -29.137
40.9 3.05 -29.503
41.2 3.05 -29.905
41.5 3.05 -30.304
41.8 3.05 -30.757
42.1 3.05 -31.474
43.0 3.05 -33.565
43.3 3.05 -33.676
43.6 3.05 -33.706
43.9 3.05 -33.658
44.2 3.05 -33.76
44.5 3.05 -33.757
44.8 3.05 -33.757
-48.2 2.75 -19.669
-47.9 2.75 -19.579
-47.6 2.75 -19.462
-47.3 2.75 -19.375
-47.0 2.75 -19.279
-46.7 2.75 -19.198
-46.4 2.75 -19.159
-46.1 2.75 -19.108
-45.8 2.75 -19.045
-45.5 2.75 -19.021
-45.2 2.75 -18.895
-44.9 2.75 -18.844
-44.6 2.75 -18.775
-44.3 2.75 -18.709
-44.0 2.75 -18.616
-43.7 2.75 -18.577
-43.4 2.75 -18.571
-43.1 2.75 -18.472
-42.8 2.75 -18.424
-42.5 2.75 -18.355
-42.2 2.75 -18.298
-41.9 2.75 -18.298
-41.6 2.75 -18.175
-41.3 2.75 -18.091
-41.0 2.75 -18.028
-40.7 2.75 -17.98
-40.4 2.75 -17.965
-40.1 2.75 -17.875
-39.8 2.75 -17.809
-39.5 2.75 -17.749
-39.2 2.75 -17.785
-38.9 2.75 -17.683
-38.6 2.75 -17.635
-38.3 2.75 -17.584
-38.0 2.75 -17.536
-37.7 2.75 -17.485
-37.4 2.75 -17.407
-37.1 2.75 -17.362
-36.8 2.75 -17.335
-36.5 2.75 -17.251
-36.2 2.75 -17.248
-35.9 2.75 -17.197
-35.6 2.75 -17.155
-35.3 2.75 -17.116
-35.0 2.75 -17.056
-34.7 2.75 -17.026
-34.4 2.75 -16.993
-34.1 2.75 -16.96
-33.8 2.75 -16.915
-33.5 2.75 -16.879
-33.2 2.75 -16.84
-32.9 2.75 -16.798
-32.6 2.75 -16.795
-32.3 2.75 -16.756
-32.0 2.75 -16.699
-31.7 2.75 -16.669
-31.4 2.75 -16.6
-31.1 2.75 -16.585
-30.8 2.75 -16.537
-30.5 2.75 -16.567
-30.2 2.75 -16.516
-29.9 2.75 -16.474
-29.6 2.75 -16.435
-29.3 2.75 -16.408
-29.0 2.75 -16.381
-28.7 2.75 -16.312
-28.4 2.75 -16.366
-28.1 2.75 -16.321
-27.8 2.75 -16.297
-27.5 2.75 -16.249
-27.2 2.75 -16.21
-26.9 2.75 -16.171
-26.6 2.75 -16.183
-26.3 2.75 -16.129
-26.0 2.75 -16.102
-25.7 2.75 -16.108
-25.4 2.75 -16.063
-25.1 2.75 -16.042
-24.8 2.75 -16.03
-24.5 2.75 -16.042
-24.2 2.75 -15.997
-23.9 2.75 -15.979
-23.6 2.75 -15.967
-23.3 2.75 -15.94
-23.0 2.75 -15.904
-22.7 2.75 -15.916
-22.4 2.75 -15.856
-22.1 2.75 -15.847
-21.8 2.75 -15.832
-21.5 2.75 -15.817
-21.2 2.75 -15.802
-20.9 2.75 -15.772
-20.6 2.75 -15.769
-20.3 2.75 -15.769
-20.0 2.75 -15.748
-19.7 2.75 -15.736
-19.4 2.75 -15.706
-19.1 2.75 -15.691
-18.8 2.75 -15.685
-18.5 2.75 -15.691
-18.2 2.75 -15.673
-17.9 2.75 -15.682
-17.6 2.75 -15.664
-17.3 2.75 -15.634
-17.0 2.75 -15.616
-16.7 2.75 -15.709
-16.4 2.75 -15.64
-16.1 2.75 -15.628
-15.8 2.75 -15.589
-15.5 2.75 -15.613
-15.2 2.75 -15.598
-14.9 2.75 -15.58
-14.6 2.75 -15.583
-14.3 2.75 -15.571
-14.0 2.75 -15.574
-13.7 2.75 -15.556
-13.4 2.75 -15.55
-13.1 2.75 -15.598
-12.8 2.75 -15.556
-12.5 2.75 -15.568
-12.2 2.75 -15.562
-11.9 2.75 -15.553
-11.6 2.75 -15.565
-11.3 2.75 -15.538
-11.0 2.75 -15.538
-10.7 2.75 -15.526
-10.4 2.75 -15.556
-10.1 2.75 -15.604
-9.8 2.75 -15.565
-9.5 2.75 -15.574
-9.2 2.75 -15.547
-8.9 2.75 -15.586
-8.6 2.75 -15.565
-8.3 2.75 -15.586
-8.0 2.75 -15.595
-7.7 2.75 -15.568
-7.4 2.75 -15.583
-7.1 2.75 -15.613
-6.8 2.75 -15.616
-6.5 2.75 -15.61
-6.2 2.75 -15.631
-5.9 2.75 -15.667
-5.6 2.75 -15.64
-5.3 2.75 -15.622
-5.0 2.75 -15.661
-4.7 2.75 -15.64
-4.4 2.75 -15.688
-4.1 2.75 -15.7
-3.8 2.75 -15.661
-3.5 2.75 -15.688
-3.2 2.75 -15.754
-2.9 2.75 -15.715
-2.6 2.75 -15.781
-2.3 2.75 -15.76
-2.0 2.75 -15.781
-1.7 2.75 -15.793
-1.4 2.75 -15.817
-1.1 2.75 -15.826
-0.8 2.75 -15.856
-0.5 2.75 -15.847
-0.2 2.75 -15.853
0.1 2.75 -15.865
0.4 2.75 -15.913
0.7 2.75 -15.916
1.0 2.75 -15.949
1.3 2.75 -15.991
1.6 2.75 -16.018
1.9 2.75 -16.027
2.2 2.75 -16.069
2.5 2.75 -16.06
2.8 2.75 -16.108
3.1 2.75 -16.141
3.4 2.75 -16.132
3.7 2.75 -16.165
4.0 2.75 -16.192
4.3 2.75 -16.222
4.6 2.75 -16.24
4.9 2.75 -16.264
5.2 2.75 -16.327
5.5 2.75 -16.342
5.8 2.75 -16.387
6.1 2.75 -16.417
6.4 2.75 -16.414
6.7 2.75 -16.471
7.0 2.75 -16.495
7.3 2.75 -16.48
7.6 2.75 -16.555
7.9 2.75 -16.603
8.2 2.75 -16.621
8.5 2.75 -16.684
8.8 2.75 -16.681
9.1 2.75 -16.693
9.4 2.75 -16.762
9.7 2.75 -16.777
10.0 2.75 -16.852
10.3 2.75 -16.873
10.6 2.75 -16.909
10.9 2.75 -16.969
11.2 2.75 -17.008
11.5 2.75 -17.041
11.8 2.75 -17.074
12.1 2.75 -17.119
12.4 2.75 -17.176
12.7 2.75 -17.203
13.0 2.75 -17.218
13.3 2.75 -17.302
13.6 2.75 -17.362
13.9 2.75 -17.425
14.2 2.75 -17.443
14.5 2.75 -17.497
14.8 2.75 -17.569
15.1 2.75 -17.605
15.4 2.75 -17.671
15.7 2.75 -17.692
16.0 2.75 -17.776
16.3 2.75 -17.806
16.6 2.75 -17.902
16.9 2.75 -17.944
17.2 2.75 -18.004
17.5 2.75 -18.025
17.8 2.75 -18.136
18.1 2.75 -18.217
18.4 2.75 -18.244
18.7 2.75 -18.322
19.0 2.75 -18.388
19.3 2.75 -18.436
19.6 2.75 -18.535
19.9 2.75 -18.583
20.2 2.75 -18.655
20.5 2.75 -18.751
20.8 2.75 -18.82
21.1 2.75 -18.871
21.4 2.75 -18.946
21.7 2.75 -19.042
22.0 2.75 -19.129
22.3 2.75 -19.135
22.6 2.75 -19.282
22.9 2.75 -19.366
23.2 2.75 -19.42
23.5 2.75 -19.483
23.8 2.75 -19.612
24.1 2.75 -19.675
24.4 2.75 -19.759
24.7 2.75 -19.849
25.0 2.75 -19.915
25.3 2.75 -19.996
25.6 2.75 -20.113
25.9 2.75 -20.221
26.2 2.75 -20.335
26.5 2.75 -20.38
26.8 2.75 -20.536
27.1 2.75 -20.638
27.4 2.75 -20.686
27.7 2.75 -20.827
28.0 2.75 -20.932
28.3 2.75 -21.088
28.6 2.75 -21.139
28.9 2.75 -21.259
29.2 2.75 -21.376
29.5 2.75 -21.511
29.8 2.75 -21.673
30.1 2.75 -21.73
30.4 2.75 -21.898
30.7 2.75 -22.024
31.0 2.75 -22.111
31.3 2.75 -22.273
31.6 2.75 -22.435
31.9 2.75 -22.543
32.2 2.75 -22.705
32.5 2.75 -22.828
32.8 2.75 -23.026
33.1 2.75 -23.182
33.4 2.75 -23.293
33.7 2.75 -23.506
34.0 2.75 -23.644
34.3 2.75 -23.809
34.6 2.75 -24.016
34.9 2.75 -24.148
35.2 2.75 -24.376
35.5 2.75 -24.52
35.8 2.75 -24.685
36.1 2.75 -24.925
36.4 2.75 -25.144
36.7 2.75 -25.327
37.0 2.75 -25.558
37.3 2.75 -25.75
37.6 2.75 -26.02
37.9 2.75 -26.254
38.2 2.75 -26.515
38.5 2.75 -26.746
38.8 2.75 -27.007
39.1 2.75 -27.322
39.4 2.75 -27.577
39.7 2.75 -27.856
40.0 2.75 -28.183
40.3 2.75 -28.573
40.6 2.75 -28.855
40.9 2.75 -29.311
41.2 2.75 -29.716
41.5 2.75 -30.004
41.8 2.75 -30.544
42.1 2.75 -31.066
43.0 2.75 -33.529
43.3 2.75 -33.673
43.6 2.75 -33.778
43.9 2.75 -33.82
44.2 2.75 -33.742
44.5 2.75 -33.799
44.8 2.75 -33.787
45.1 2.75 -33.874
-48.2 2.45 -19.579
-47.9 2.45 -19.456
-47.6 2.45 -19.405
-47.3 2.45 -19.363
-47.0 2.45 -19.237
-46.7 2.45 -19.18
-46.4 2.45 -19.081
-46.1 2.45 -19.054
-45.8 2.45 -18.949
-45.5 2.45 -18.904
-45.2 2.45 -18.811
-44.9 2.45 -18.751
-44.6 2.45 -18.706
-44.3 2.45 -18.661
-44.0 2.45 -18.586
-43.7 2.45 -18.547
-43.4 2.45 -18.427
-43.1 2.45 -18.391
-42.8 2.45 -18.274
-42.5 2.45 -18.226
-42.2 2.45 -18.181
-41.9 2.45 -18.109
-41.6 2.45 -18.073
-41.3 2.45 -18.055
-41.0 2.45 -17.992
-40.7 2.45 -17.878
-40.4 2.45 -17.86
-40.1 2.45 -17.818
-39.8 2.45 -17.743
-39.5 2.45 -17.734
-39.2 2.45 -17.656
-38.9 2.45 -17.632
-38.6 2.45 -17.557
-38.3 2.45 -17.515
-38.0 2.45 -17.467
-37.7 2.45 -17.419
-37.4 2.45 -17.326
-37.1 2.45 -17.323
-36.8 2.45 -17.269
-36.5 2.45 -17.2
-36.2 2.45 -17.179
-35.9 2.45 -17.119
-35.6 2.45 -17.071
-35.3 2.45 -17.035
-35.0 2.45 -17.077
-34.7 2.45 -16.936
-34.4 2.45 -16.927
-34.1 2.45 -16.843
-33.8 2.45 -16.807
-33.5 2.45 -16.792
-33.2 2.45 -16.723
-32.9 2.45 -16.72
-32.6 2.45 -16.684
-32.3 2.45 -16.645
-32.0 2.45 -16.639
-31.7 2.45 -16.6
-31.4 2.45 -16.546
-31.1 2.45 -16.531
-30.8 2.45 -16.477
-30.5 2.45 -16.519
-30.2 2.45 -16.378
-29.9 2.45 -16.429
-29.6 2.45 -16.387
-29.3 2.45 -16.324
-29.0 2.45 -16.282
-28.7 2.45 -16.285
-28.4 2.45 -16.255
-28.1 2.45 -16.237
-27.8 2.45 -16.162
-27.5 2.45 -16.159
-27.2 2.45 -16.15
-26.9 2.45 -16.126
-26.6 2.45 -16.108
-26.3 2.45 -16.06
-26.0 2.45 -16.048
-25.7 2.45 -16.033
-25.4 2.45 -15.997
-25.1 2.45 -15.997
-24.8 2.45 -15.967
-24.5 2.45 -15.919
-24.2 2.45 -15.907
-23.9 2.45 -15.862
-23.6 2.45 -15.868
-23.3 2.45 -15.856
-23.0 2.45 -15.85
-22.7 2.45 -15.811
-22.4 2.45 -15.763
-22.1 2.45 -15.757
-21.8 2.45 -15.781
-21.5 2.45 -15.727
-21.2 2.45 -15.745
-20.9 2.45 -15.712
-20.6 2.45 -15.691
-20.3 2.45 -15.715
-20.0 2.45 -15.667
-19.7 2.45 -15.673
-19.4 2.45 -15.664
-19.1 2.45 -15.616
-18.8 2.45 -15.622
-18.5 2.45 -15.616
-18.2 2.45 -15.589
-17.9 2.45 -15.595
-17.6 2.45 -15.604
-17.3 2.45 -15.658
-17.0 2.45 -15.55
-16.7 2.45 -15.544
-16.4 2.45 -15.559
-16.1 2.45 -15.556
-15.8 2.45 -15.508
-15.5 2.45 -15.532
-15.2 2.45 -15.505
-14.9 2.45 -15.526
-14.6 2.45 -15.517
-14.3 2.45 -15.49
-14.0 2.45 -15.556
-13.7 2.45 -15.493
-13.4 2.45 -15.475
-13.1 2.45 -15.487
-12.8 2.45 -15.484
-12.5 2.45 -15.496
-12.2 2.45 -15.487
-11.9 2.45 -15.496
-11.6 2.45 -15.469
-11.3 2.45 -15.487
-11.0 2.45 -15.487
-10.7 2.45 -15.484
-10.4 2.45 -15.49
-10.1 2.45 -15.46
-9.8 2.45 -15.493
-9.5 2.45 -15.493
-9.2 2.45 -15.49
-8.9 2.45 -15.472
-8.6 2.45 -15.472
-8.3 2.45 -15.52
-8.0 2.45 -15.523
-7.7 2.45 -15.523
-7.4 2.45 -15.532
-7.1 2.45 -15.523
-6.8 2.45 -15.55
-6.5 2.45 -15.544
-6.2 2.45 -15.559
-5.9 2.45 -15.574
-5.6 2.45 -15.583
-5.3 2.45 -15.571
-5.0 2.45 -15.541
-4.7 2.45 -15.574
-4.4 2.45 -15.58
-4.1 2.45 -15.58
-3.8 2.45 -15.616
-3.5 2.45 -15.637
-3.2 2.45 -15.658
-2.9 2.45 -15.688
-2.6 2.45 -15.637
-2.3 2.45 -15.694
-2.0 2.45 -15.697
-1.7 2.45 -15.721
-1.4 2.45 -15.712
-1.1 2.45 -15.754
-0.8 2.45 -15.76
-0.5 2.45 -15.742
-0.2 2.45 -15.802
0.1 2.45 -15.835
0.4 2.45 -15.829
0.7 2.45 -15.838
1.0 2.45 -15.874
1.3 2.45 -15.901
1.6 2.45 -15.946
1.9 2.45 -15.952
2.2 2.45 -16.006
2.5 2.45 -15.973
2.8 2.45 -16.027
3.1 2.45 -16.066
3.4 2.45 -16.066
3.7 2.45 -16.099
4.0 2.45 -16.135
4.3 2.45 -16.141
4.6 2.45 -16.189
4.9 2.45 -16.213
5.2 2.45 -16.207
5.5 2.45 -16.252
5.8 2.45 -16.297
6.1 2.45 -16.324
6.4 2.45 -16.336
6.7 2.45 -16.384
7.0 2.45 -16.408
7.3 2.45 -16.426
7.6 2.45 -16.474
7.9 2.45 -16.516
8.2 2.45 -16.516
8.5 2.45 -16.585
8.8 2.45 -16.624
9.1 2.45 -16.654
9.4 2.45 -16.72
9.7 2.45 -16.753
10.0 2.45 -16.777
10.3 2.45 -16.807
10.6 2.45 -16.858
10.9 2.45 -16.909
11.2 2.45 -16.957
11.5 2.45 -16.96
11.8 2.45 -17.062
12.1 2.45 -17.05
12.4 2.45 -17.107
12.7 2.45 -17.161
13.0 2.45 -17.215
13.3 2.45 -17.254
13.6 2.45 -17.296
13.9 2.45 -17.329
14.2 2.45 -17.38
14.5 2.45 -17.422
14.8 2.45 -17.524
15.1 2.45 -17.539
15.4 2.45 -17.602
15.7 2.45 -17.668
16.0 2.45 -17.707
16.3 2.45 -17.782
16.6 2.45 -17.803
16.9 2.45 -17.866
17.2 2.45 -17.899
17.5 2.45 -17.986
17.8 2.45 -18.019
18.1 2.45 -18.076
18.4 2.45 -18.181
18.7 2.45 -18.262
19.0 2.45 -18.316
19.3 2.45 -18.34
19.6 2.45 -18.448
19.9 2.45 -18.517
20.2 2.45 -18.571
20.5 2.45 -18.634
20.8 2.45 -18.751
21.1 2.45 -18.784
21.4 2.45 -18.853
21.7 2.45 -18.961
22.0 2.45 -19.012
22.3 2.45 -19.099
22.6 2.45 -19.174
22.9 2.45 -19.264
23.2 2.45 -19.324
23.5 2.45 -19.426
23.8 2.45 -19.501
24.1 2.45 -19.525
24.4 2.45 -19.621
24.7 2.45 -19.735
25.0 2.45 -19.813
25.3 2.45 -19.903
25.6 2.45 -20.023
25.9 2.45 -20.146
26.2 2.45 -20.251
26.5 2.45 -20.302
26.8 2.45 -20.416
27.1 2.45 -20.599
27.4 2.45 -20.65
27.7 2.45 -20.731
28.0 2.45 -20.845
28.3 2.45 -20.935
28.6 2.45 -21.061
28.9 2.45 -21.232
29.2 2.45 -21.37
29.5 2.45 -21.457
29.8 2.45 -21.556
30.1 2.45 -21.643
30.4 2.45 -21.796
30.7 2.45 -21.889
31.0 2.45 -22.045
31.3 2.45 -22.162
31.6 2.45 -22.321
31.9 2.45 -22.411
32.2 2.45 -22.573
32.5 2.45 -22.756
32.8 2.45 -22.891
33.1 2.45 -23.089
33.4 2.45 -23.209
33.7 2.45 -23.362
34.0 2.45 -23.545
34.3 2.45 -23.713
34.6 2.45 -23.89
34.9 2.45 -24.043
35.2 2.45 -24.259
35.5 2.45 -24.445
35.8 2.45 -24.628
36.1 2.45 -24.775
36.4 2.45 -24.961
36.7 2.45 -25.189
37.0 2.45 -25.459
37.3 2.45 -25.669
37.6 2.45 -25.864
37.9 2.45 -26.071
38.2 2.45 -26.35
38.5 2.45 -26.662
38.8 2.45 -26.86
39.1 2.45 -27.133
39.4 2.45 -27.433
39.7 2.45 -27.745
40.0 2.45 -27.997
40.3 2.45 -28.342
40.6 2.45 -28.708
40.9 2.45 -29.065
41.2 2.45 -29.506
41.5 2.45 -29.845
41.8 2.45 -30.331
42.1 2.45 -30.775
42.4 2.45 -31.318
43.3 2.45 -33.682
43.6 2.45 -33.688
43.9 2.45 -33.706
44.2 2.45 -33.724
44.5 2.45 -33.739
44.8 2.45 -33.706
45.1 2.45 -33.877
-48.5 2.15 -19.675
-48.2 2.15 -19.303
-47.9 2.15 -19.372
-47.6 2.15 -19.294
-47.3 2.15 -19.216
-47.0 2.15 -19.144
-46.7 2.15 -19.054
-46.4 2.15 -19.036
-46.1 2.15 -18.955
-45.8 2.15 -18.856
-45.5 2.15 -18.73
-45.2 2.15 -18.691
-44.9 2.15 -18.667
-44.6 2.15 -18.55
-44.3 2.15 -18.556
-44.0 2.15 -18.448
-43.7 2.15 -18.364
-43.4 2.15 -18.358
-43.1 2.15 -18.265
-42.8 2.15 -18.277
-42.5 2.15 -18.19
-42.2 2.15 -18.079
-41.9 2.15 -18.037
-41.6 2.15 -17.974
-41.3 2.15 -17.947
-41.0 2.15 -17.881
-40.7 2.15 -17.854
-40.4 2.15 -17.74
-40.1 2.15 -17.701
-39.8 2.15 -17.686
-39.5 2.15 -17.584
-39.2 2.15 -17.587
-38.9 2.15 -17.461
-38.6 2.15 -17.455
-38.3 2.15 -17.437
-38.0 2.15 -17.398
-37.7 2.15 -17.341
-37.4 2.15 -17.296
-37.1 2.15 -17.206
-36.8 2.15 -17.179
-36.5 2.15 -17.11
-36.2 2.15 -17.134
-35.9 2.15 -17.062
-35.6 2.15 -16.978
-35.3 2.15 -16.948
-35.0 2.15 -16.894
-34.7 2.15 -16.882
-34.4 2.15 -16.843
-34.1 2.15 -16.792
-33.8 2.15 -16.765
-33.5 2.15 -16.714
-33.2 2.15 -16.726
-32.9 2.15 -16.642
-32.6 2.15 -16.663
-32.3 2.15 -16.579
-32.0 2.15 -16.498
-31.7 2.15 -16.531
-31.4 2.15 -16.471
-31.1 2.15 -16.381
-30.8 2.15 -16.414
-30.5 2.15 -16.363
-30.2 2.15 -16.294
-29.9 2.15 -16.285
-29.6 2.15 -16.285
-29.3 2.15 -16.243
-29.0 2.15 -16.228
-28.7 2.15 -16.201
-28.4 2.15 -16.156
-28.1 2.15 -16.153
-27.8 2.15 -16.132
-27.5 2.15 -16.084
-27.2 2.15 -16.078
-26.9 2.15 -16.048
-26.6 2.15 -16.066
-26.3 2.15 -15.988
-26.0 2.15 -16.03
-25.7 2.15 -15.931
-25.4 2.15 -15.889
-25.1 2.15 -15.916
-24.8 2.15 -15.865
-24.5 2.15 -15.88
-24.2 2.15 -15.826
-23.9 2.15 -15.847
-23.6 2.15 -15.814
-23.3 2.15 -15.796
-23.0 2.15 -15.733
-22.7 2.15 -15.733
-22.4 2.15 -15.745
-22.1 2.15 -15.676
-21.8 2.15 -15.688
-21.5 2.15 -15.664
-21.2 2.15 -15.646
-20.9 2.15 -15.628
-20.6 2.15 -15.622
-20.3 2.15 -15.589
-20.0 2.15 -15.574
-19.7 2.15 -15.571
-19.4 2.15 -15.583
-19.1 2.15 -15.559
-18.8 2.15 -15.583
-18.5 2.15 -15.49
-18.2 2.15 -15.544
-17.9 2.15 -15.508
-17.6 2.15 -15.52
-17.3 2.15 -15.457
-17.0 2.15 -15.502
-16.7 2.15 -15.472
-16.4 2.15 -15.442
-16.1 2.15 -15.439
-15.8 2.15 -15.496
-15.5 2.15 -15.451
-15.2 2.15 -15.445
-14.9 2.15 -15.43
-14.6 2.15 -15.412
-14.3 2.15 -15.412
-14.0 2.15 -15.412
-13.7 2.15 -15.403
-13.4 2.15 -15.412
-13.1 2.15 -15.436
-12.8 2.15 -15.421
-12.5 2.15 -15.478
-12.2 2.15 -15.427
-11.9 2.15 -15.454
-11.6 2.15 -15.421
-11.3 2.15 -15.424
-11.0 2.15 -15.46
-10.7 2.15 -15.406
-10.4 2.15 -15.376
-10.1 2.15 -15.403
-9.8 2.15 -15.433
-9.5 2.15 -15.43
-9.2 2.15 -15.4
-8.9 2.15 -15.412
-8.6 2.15 -15.49
-8.3 2.15 -15.484
-8.0 2.15 -15.412
-7.7 2.15 -15.472
-7.4 2.15 -15.418
-7.1 2.15 -15.499
-6.8 2.15 -15.418
-6.5 2.15 -15.436
-6.2 2.15 -15.457
-5.9 2.15 -15.466
-5.6 2.15 -15.487
-5.3 2.15 -15.469
-5.0 2.15 -15.466
-4.7 2.15 -15.523
-4.4 2.15 -15.538
-4.1 2.15 -15.523
-3.8 2.15 -15.529
-3.5 2.15 -15.544
-3.2 2.15 -15.55
-2.9 2.15 -15.589
-2.6 2.15 -15.607
-2.3 2.15 -15.61
-2.0 2.15 -15.625
-1.7 2.15 -15.625
-1.4 2.15 -15.622
-1.1 2.15 -15.664
-0.8 2.15 -15.649
-0.5 2.15 -15.709
-0.2 2.15 -15.7
0.1 2.15 -15.748
0.4 2.15 -15.766
0.7 2.15 -15.772
1.0 2.15 -15.811
1.3 2.15 -15.823
1.6 2.15 -15.82
1.9 2.15 -15.856
2.2 2.15 -15.931
2.5 2.15 -15.916
2.8 2.15 -15.943
3.1 2.15 -15.991
3.4 2.15 -15.958
3.7 2.15 -16.027
4.0 2.15 -16.06
4.3 2.15 -16.096
4.6 2.15 -15.997
4.9 2.15 -16.132
5.2 2.15 -16.168
5.5 2.15 -16.189
5.8 2.15 -16.198
6.1 2.15 -16.237
6.4 2.15 -16.264
6.7 2.15 -16.294
7.0 2.15 -16.33
7.3 2.15 -16.375
7.6 2.15 -16.453
7.9 2.15 -16.417
8.2 2.15 -16.597
8.5 2.15 -16.495
8.8 2.15 -16.561
9.1 2.15 -16.552
9.4 2.15 -16.648
9.7 2.15 -16.678
10.0 2.15 -16.702
10.3 2.15 -16.753
10.6 2.15 -16.771
10.9 2.15 -16.828
11.2 2.15 -16.906
11.5 2.15 -16.885
11.8 2.15 -16.957
12.1 2.15 -17.014
12.4 2.15 -17.014
12.7 2.15 -17.086
13.0 2.15 -17.11
13.3 2.15 -17.215
13.6 2.15 -17.218
13.9 2.15 -17.266
14.2 2.15 -17.305
14.5 2.15 -17.32
14.8 2.15 -17.401
15.1 2.15 -17.461
15.4 2.15 -17.533
15.7 2.15 -17.578
16.0 2.15 -17.632
16.3 2.15 -17.686
16.6 2.15 -17.737
16.9 2.15 -17.797
17.2 2.15 -17.821
17.5 2.15 -17.929
17.8 2.15 -17.908
18.1 2.15 -18.013
18.4 2.15 -18.109
18.7 2.15 -18.178
19.0 2.15 -18.202
19.3 2.15 -18.337
19.6 2.15 -18.343
19.9 2.15 -18.418
20.2 2.15 -18.487
20.5 2.15 -18.568
20.8 2.15 -18.616
21.1 2.15 -18.712
21.4 2.15 -18.802
21.7 2.15 -18.886
22.0 2.15 -18.946
22.3 2.15 -19.024
22.6 2.15 -19.075
22.9 2.15 -19.243
23.2 2.15 -19.231
23.5 2.15 -19.336
23.8 2.15 -19.399
24.1 2.15 -19.504
24.4 2.15 -19.594
24.7 2.15 -19.705
25.0 2.15 -19.759
25.3 2.15 -19.852
25.6 2.15 -19.972
25.9 2.15 -20.008
26.2 2.15 -20.143
26.5 2.15 -20.239
26.8 2.15 -20.311
27.1 2.15 -20.428
27.4 2.15 -20.521
27.7 2.15 -20.677
28.0 2.15 -20.77
28.3 2.15 -20.869
28.6 2.15 -21.007
28.9 2.15 -21.109
29.2 2.15 -21.196
29.5 2.15 -21.331
29.8 2.15 -21.46
30.1 2.15 -21.565
30.4 2.15 -21.685
30.7 2.15 -21.856
31.0 2.15 -21.934
31.3 2.15 -22.072
31.6 2.15 -22.222
31.9 2.15 -22.354
32.2 2.15 -22.51
32.5 2.15 -22.651
32.8 2.15 -22.78
33.1 2.15 -22.951
33.4 2.15 -23.17
33.7 2.15 -23.29
34.0 2.15 -23.398
34.3 2.15 -23.59
34.6 2.15 -23.77
34.9 2.15 -23.956
35.2 2.15 -24.112
35.5 2.15 -24.316
35.8 2.15 -24.493
36.1 2.15 -24.733
36.4 2.15 -24.931
36.7 2.15 -25.129
37.0 2.15 -25.324
37.3 2.15 -25.57
37.6 2.15 -25.741
37.9 2.15 -26.026
38.2 2.15 -26.224
38.5 2.15 -26.482
38.8 2.15 -26.749
39.1 2.15 -27.007
39.4 2.15 -27.235
39.7 2.15 -27.562
40.0 2.15 -27.865
40.3 2.15 -28.138
40.6 2.15 -28.483
40.9 2.15 -28.849
41.2 2.15 -29.311
41.5 2.15 -29.659
41.8 2.15 -29.941
42.1 2.15 -30.589
42.4 2.15 -31.132
43.3 2.15 -33.22
43.6 2.15 -33.757
43.9 2.15 -33.766
44.2 2.15 -33.727
44.5 2.15 -33.769
44.8 2.15 -33.814
45.1 2.15 -33.802
45.4 2.15 -33.934
-48.8 1.85 -19.798
-48.5 1.85 -19.3
-48.2 1.85 -19.255
-47.9 1.85 -19.219
-47.6 1.85 -19.168
-47.3 1.85 -19.12
-47.0 1.85 -19.075
-46.7 1.85 -18.991
-46.4 1.85 -18.907
-46.1 1.85 -18.859
-45.8 1.85 -18.739
-45.5 1.85 -18.703
-45.2 1.85 -18.655
-44.9 1.85 -18.583
-44.6 1.85 -18.571
-44.3 1.85 -18.451
-44.0 1.85 -18.376
-43.7 1.85 -18.331
-43.4 1.85 -18.211
-43.1 1.85 -18.262
-42.8 1.85 -18.148
-42.5 1.85 -18.067
-42.2 1.85 -18.01
-41.9 1.85 -17.98
-41.6 1.85 -17.878
-41.3 1.85 -17.845
-41.0 1.85 -17.842
-40.7 1.85 -17.761
-40.4 1.85 -17.689
-40.1 1.85 -17.629
-39.8 1.85 -17.584
-39.5 1.85 -17.56
-39.2 1.85 -17.476
-38.9 1.85 -17.404
-38.6 1.85 -17.383
-38.3 1.85 -17.38
-38.0 1.85 -17.284
-37.7 1.85 -17.239
-37.4 1.85 -17.191
-37.1 1.85 -17.158
-36.8 1.85 -17.08
-36.5 1.85 -17.011
-36.2 1.85 -17.023
-35.9 1.85 -17.053
-35.6 1.85 -16.951
-35.3 1.85 -16.9
-35.0 1.85 -16.849
-34.7 1.85 -16.768
-34.4 1.85 -16.684
-34.1 1.85 -16.711
-33.8 1.85 -16.639
-33.5 1.85 -16.618
-33.2 1.85 -16.618
-32.9 1.85 -16.573
-32.6 1.85 -16.522
-32.3 1.85 -16.498
-32.0 1.85 -16.432
-31.7 1.85 -16.39
-31.4 1.85 -16.396
-31.1 1.85 -16.354
-30.8 1.85 -16.342
-30.5 1.85 -16.312
-30.2 1.85 -16.228
-29.9 1.85 -16.234
-29.6 1.85 -16.198
-29.3 1.85 -16.153
-29.0 1.85 -16.12
-28.7 1.85 -16.111
-28.4 1.85 -16.072
-28.1 1.85 -16.051
-27.8 1.85 -16.012
-27.5 1.85 -16.018
-27.2 1.85 -15.985
-26.9 1.85 -15.928
-26.6 1.85 -15.907
-26.3 1.85 -15.871
-26.0 1.85 -15.883
-25.7 1.85 -15.862
-25.4 1.85 -15.832
-25.1 1.85 -15.811
-24.8 1.85 -15.817
-24.5 1.85 -15.775
-24.2 1.85 -15.697
-23.9 1.85 -15.721
-23.6 1.85 -15.691
-23.3 1.85 -15.658
-23.0 1.85 -15.661
-22.7 1.85 -15.634
-22.4 1.85 -15.667
-22.1 1.85 -15.601
-21.8 1.85 -15.604
-21.5 1.85 -15.565
-21.2 1.85 -15.553
-20.9 1.85 -15.541
-20.6 1.85 -15.487
-20.3 1.85 -15.487
-20.0 1.85 -15.484
-19.7 1.85 -15.475
-19.4 1.85 -15.454
-19.1 1.85 -15.493
-18.8 1.85 -15.457
-18.5 1.85 -15.472
-18.2 1.85 -15.445
-17.9 1.85 -15.397
-17.6 1.85 -15.424
-17.3 1.85 -15.436
-17.0 1.85 -15.394
-16.7 1.85 -15.406
-16.4 1.85 -15.421
-16.1 1.85 -15.4
-15.8 1.85 -15.349
-15.5 1.85 -15.373
-15.2 1.85 -15.379
-14.9 1.85 -15.376
-14.6 1.85 -15.331
-14.3 1.85 -15.331
-14.0 1.85 -15.355
-13.7 1.85 -15.376
-13.4 1.85 -15.343
-13.1 1.85 -15.346
-12.8 1.85 -15.319
-12.5 1.85 -15.322
-12.2 1.85 -15.313
-11.9 1.85 -15.334
-11.6 1.85 -15.316
-11.3 1.85 -15.283
-11.0 1.85 -15.34
-10.7 1.85 -15.316
-10.4 1.85 -15.337
-10.1 1.85 -15.319
-9.8 1.85 -15.328
-9.5 1.85 -15.34
-9.2 1.85 -15.295
-8.9 1.85 -15.325
-8.6 1.85 -15.376
-8.3 1.85 -15.337
-8.0 1.85 -15.367
-7.7 1.85 -15.352
-7.4 1.85 -15.355
-7.1 1.85 -15.334
-6.8 1.85 -15.328
-6.5 1.85 -15.367
-6.2 1.85 -15.391
-5.9 1.85 -15.379
-5.6 1.85 -15.418
-5.3 1.85 -15.403
-5.0 1.85 -15.391
-4.7 1.85 -15.391
-4.4 1.85 -15.454
-4.1 1.85 -15.397
-3.8 1.85 -15.448
-3.5 1.85 -15.466
-3.2 1.85 -15.499
-2.9 1.85 -15.457
-2.6 1.85 -15.445
-2.3 1.85 -15.508
-2.0 1.85 -15.52
-1.7 1.85 -15.577
-1.4 1.85 -15.577
-1.1 1.85 -15.589
-0.8 1.85 -15.643
-0.5 1.85 -15.64
-0.2 1.85 -15.646
0.1 1.85 -15.625
0.4 1.85 -15.643
0.7 1.85 -15.676
1.0 1.85 -15.727
1.3 1.85 -15.691
1.6 1.85 -15.817
1.9 1.85 -15.748
2.2 1.85 -15.823
2.5 1.85 -15.844
2.8 1.85 -15.853
3.1 1.85 -15.868
3.4 1.85 -15.943
3.7 1.85 -15.985
4.0 1.85 -15.952
4.3 1.85 -15.934
4.6 1.85 -15.979
4.9 1.85 -16.063
5.2 1.85 -16.045
5.5 1.85 -16.072
5.8 1.85 -16.123
6.1 1.85 -16.171
6.4 1.85 -16.18
6.7 1.85 -16.222
7.0 1.85 -16.264
7.3 1.85 -16.279
7.6 1.85 -16.336
7.9 1.85 -16.3
8.2 1.85 -16.402
8.5 1.85 -16.387
8.8 1.85 -16.414
9.1 1.85 -16.507
9.4 1.85 -16.516
9.7 1.85 -16.561
10.0 1.85 -16.612
10.3 1.85 -16.66
10.6 1.85 -16.732
10.9 1.85 -16.738
11.2 1.85 -16.783
11.5 1.85 -16.813
11.8 1.85 -16.849
12.1 1.85 -16.849
12.4 1.85 -16.948
12.7 1.85 -16.984
13.0 1.85 -17.02
13.3 1.85 -17.074
13.6 1.85 -17.11
13.9 1.85 -17.173
14.2 1.85 -17.206
14.5 1.85 -17.257
14.8 1.85 -17.38
15.1 1.85 -17.386
15.4 1.85 -17.416
15.7 1.85 -17.455
16.0 1.85 -17.536
16.3 1.85 -17.572
16.6 1.85 -17.644
16.9 1.85 -17.674
17.2 1.85 -17.785
17.5 1.85 -17.845
17.8 1.85 -17.839
18.1 1.85 -17.962
18.4 1.85 -17.995
18.7 1.85 -18.109
19.0 1.85 -18.157
19.3 1.85 -18.154
19.6 1.85 -18.25
19.9 1.85 -18.298
20.2 1.85 -18.406
20.5 1.85 -18.508
20.8 1.85 -18.55
21.1 1.85 -18.604
21.4 1.85 -18.745
21.7 1.85 -18.775
22.0 1.85 -18.856
22.3 1.85 -18.94
22.6 1.85 -19.0
22.9 1.85 -19.054
23.2 1.85 -19.153
23.5 1.85 -19.231
23.8 1.85 -19.282
24.1 1.85 -19.39
24.4 1.85 -19.438
24.7 1.85 -19.543
25.0 1.85 -19.663
25.3 1.85 -19.753
25.6 1.85 -19.852
25.9 1.85 -19.957
26.2 1.85 -20.023
26.5 1.85 -20.173
26.8 1.85 -20.266
27.1 1.85 -20.341
27.4 1.85 -20.485
27.7 1.85 -20.539
28.0 1.85 -20.674
28.3 1.85 -20.773
28.6 1.85 -20.896
28.9 1.85 -20.98
29.2 1.85 -21.121
29.5 1.85 -21.22
29.8 1.85 -21.355
30.1 1.85 -21.475
30.4 1.85 -21.601
30.7 1.85 -21.691
31.0 1.85 -21.871
31.3 1.85 -21.994
31.6 1.85 -22.117
31.9 1.85 -22.243
32.2 1.85 -22.39
32.5 1.85 -22.531
32.8 1.85 -22.702
33.1 1.85 -22.843
33.4 1.85 -22.978
33.7 1.85 -23.179
34.0 1.85 -23.269
34.3 1.85 -23.467
34.6 1.85 -23.641
34.9 1.85 -23.839
35.2 1.85 -23.965
35.5 1.85 -24.163
35.8 1.85 -24.403
36.1 1.85 -24.592
36.4 1.85 -24.694
36.7 1.85 -24.931
37.0 1.85 -25.126
37.3 1.85 -25.336
37.6 1.85 -25.624
37.9 1.85 -25.852
38.2 1.85 -26.044
38.5 1.85 -26.272
38.8 1.85 -26.545
39.1 1.85 -26.854
39.4 1.85 -27.076
39.7 1.85 -27.394
40.0 1.85 -27.676
40.3 1.85 -28.015
40.6 1.85 -28.321
40.9 1.85 -28.696
41.2 1.85 -29.092
41.5 1.85 -29.482
41.8 1.85 -29.881
42.1 1.85 -30.304
42.4 1.85 -30.676
42.7 1.85 -31.462
43.6 1.85 -33.661
43.9 1.85 -33.733
44.2 1.85 -33.715
44.5 1.85 -33.727
44.8 1.85 -33.766
45.1 1.85 -33.697
45.4 1.85 -33.769
-48.5 1.55 -19.372
-48.2 1.55 -19.342
-47.9 1.55 -19.165
-47.6 1.55 -19.123
-47.3 1.55 -19.066
-47.0 1.55 -18.973
-46.7 1.55 -18.913
-46.4 1.55 -18.829
-46.1 1.55 -18.775
-45.8 1.55 -18.706
-45.5 1.55 -18.661
-45.2 1.55 -18.568
-44.9 1.55 -18.463
-44.6 1.55 -18.412
-44.3 1.55 -18.373
-44.0 1.55 -18.298
-43.7 1.55 -18.238
-43.4 1.55 -18.166
-43.1 1.55 -18.118
-42.8 1.55 -18.082
-42.5 1.55 -17.995
-42.2 1.55 -17.95
-41.9 1.55 -17.92
-41.6 1.55 -17.845
-41.3 1.55 -17.794
-41.0 1.55 -17.701
-40.7 1.55 -17.662
-40.4 1.55 -17.656
-40.1 1.55 -17.557
-39.8 1.55 -17.488
-39.5 1.55 -17.461
-39.2 1.55 -17.413
-38.9 1.55 -17.365
-38.6 1.55 -17.272
-38.3 1.55 -17.224
-38.0 1.55 -17.173
-37.7 1.55 -17.134
-37.4 1.55 -17.089
-37.1 1.55 -17.056
-36.8 1.55 -17.011
-36.5 1.55 -17.005
-36.2 1.55 -16.942
-35.9 1.55 -16.855
-35.6 1.55 -16.834
-35.3 1.55 -16.801
-35.0 1.55 -16.753
-34.7 1.55 -16.75
-34.4 1.55 -16.717
-34.1 1.55 -16.651
-33.8 1.55 -16.606
-33.5 1.55 -16.567
-33.2 1.55 -16.534
-32.9 1.55 -16.483
-32.6 1.55 -16.447
-32.3 1.55 -16.405
-32.0 1.55 -16.396
-31.7 1.55 -16.342
-31.4 1.55 -16.327
-31.1 1.55 -16.291
-30.8 1.55 -16.246
-30.5 1.55 -16.234
-30.2 1.55 -16.168
-29.9 1.55 -16.147
-29.6 1.55 -16.15
-29.3 1.55 -16.114
-29.0 1.55 -16.078
-28.7 1.55 -15.988
-28.4 1.55 -16.024
-28.1 1.55 -15.976
-27.8 1.55 -15.958
-27.5 1.55 -15.913
-27.2 1.55 -15.856
-26.9 1.55 -15.883
-26.6 1.55 -15.82
-26.3 1.55 -15.814
-26.0 1.55 -15.796
-25.7 1.55 -15.787
-25.4 1.55 -15.754
-25.1 1.55 -15.745
-24.8 1.55 -15.703
-24.5 1.55 -15.7
-24.2 1.55 -15.679
-23.9 1.55 -15.64
-23.6 1.55 -15.652
-23.3 1.55 -15.589
-23.0 1.55 -15.622
-22.7 1.55 -15.559
-22.4 1.55 -15.559
-22.1 1.55 -15.547
-21.8 1.55 -15.508
-21.5 1.55 -15.49
-21.2 1.55 -15.505
-20.9 1.55 -15.469
-20.6 1.55 -15.445
-20.3 1.55 -15.4
-20.0 1.55 -15.412
-19.7 1.55 -15.4
-19.4 1.55 -15.397
-19.1 1.55 -15.403
-18.8 1.55 -15.376
-18.5 1.55 -15.388
-18.2 1.55 -15.349
-17.9 1.55 -15.34
-17.6 1.55 -15.349
-17.3 1.55 -15.334
-17.0 1.55 -15.337
-16.7 1.55 -15.292
-16.4 1.55 -15.286
-16.1 1.55 -15.268
-15.8 1.55 -15.265
-15.5 1.55 -15.301
-15.2 1.55 -15.292
-14.9 1.55 -15.304
-14.6 1.55 -15.265
-14.3 1.55 -15.268
-14.0 1.55 -15.286
-13.7 1.55 -15.238
-13.4 1.55 -15.262
-13.1 1.55 -15.259
-12.8 1.55 -15.298
-12.5 1.55 -15.268
-12.2 1.55 -15.22
-11.9 1.55 -15.25
-11.6 1.55 -15.289
-11.3 1.55 -15.253
-11.0 1.55 -15.247
-10.7 1.55 -15.265
-10.4 1.55 -15.235
-10.1 1.55 -15.262
-9.8 1.55 -15.226
-9.5 1.55 -15.265
-9.2 1.55 -15.277
-8.9 1.55 -15.247
-8.6 1.55 -15.247
-8.3 1.55 -15.277
-8.0 1.55 -15.274
-7.7 1.55 -15.265
-7.4 1.55 -15.277
-7.1 1.55 -15.301
-6.8 1.55 -15.298
-6.5 1.55 -15.316
-6.2 1.55 -15.286
-5.9 1.55 -15.334
-5.6 1.55 -15.307
-5.3 1.55 -15.334
-5.0 1.55 -15.337
-4.7 1.55 -15.373
-4.4 1.55 -15.349
-4.1 1.55 -15.358
-3.8 1.55 -15.391
-3.5 1.55 -15.376
-3.2 1.55 -15.352
-2.9 1.55 -15.403
-2.6 1.55 -15.445
-2.3 1.55 -15.463
-2.0 1.55 -15.46
-1.7 1.55 -15.448
-1.4 1.55 -15.487
-1.1 1.55 -15.499
-0.8 1.55 -15.517
-0.5 1.55 -15.568
-0.2 1.55 -15.562
0.1 1.55 -15.535
0.4 1.55 -15.58
0.7 1.55 -15.628
1.0 1.55 -15.622
1.3 1.55 -15.661
1.6 1.55 -15.694
1.9 1.55 -15.718
2.2 1.55 -15.73
2.5 1.55 -15.769
2.8 1.55 -15.814
3.1 1.55 -15.82
3.4 1.55 -15.823
3.7 1.55 -15.856
4.0 1.55 -15.91
4.3 1.55 -15.922
4.6 1.55 -15.97
4.9 1.55 -15.937
5.2 1.55 -16.006
5.5 1.55 -16.054
5.8 1.55 -16.036
6.1 1.55 -16.057
6.4 1.55 -16.096
6.7 1.55 -16.171
7.0 1.55 -16.162
7.3 1.55 -16.195
7.6 1.55 -16.213
7.9 1.55 -16.267
8.2 1.55 -16.315
8.5 1.55 -16.405
8.8 1.55 -16.42
9.1 1.55 -16.456
9.4 1.55 -16.471
9.7 1.55 -16.534
10.0 1.55 -16.513
10.3 1.55 -16.624
10.6 1.55 -16.588
10.9 1.55 -16.66
11.2 1.55 -16.657
11.5 1.55 -16.753
11.8 1.55 -16.792
12.1 1.55 -16.774
12.4 1.55 -16.822
12.7 1.55 -16.873
13.0 1.55 -16.909
13.3 1.55 -17.011
13.6 1.55 -16.984
13.9 1.55 -17.104
14.2 1.55 -17.125
14.5 1.55 -17.17
14.8 1.55 -17.23
15.1 1.55 -17.278
15.4 1.55 -17.35
15.7 1.55 -17.368
16.0 1.55 -17.413
16.3 1.55 -17.515
16.6 1.55 -17.566
16.9 1.55 -17.626
17.2 1.55 -17.632
17.5 1.55 -17.695
17.8 1.55 -17.776
18.1 1.55 -17.833
18.4 1.55 -17.893
18.7 1.55 -17.962
19.0 1.55 -18.034
19.3 1.55 -18.145
19.6 1.55 -18.172
19.9 1.55 -18.268
20.2 1.55 -18.304
20.5 1.55 -18.385
20.8 1.55 -18.436
21.1 1.55 -18.493
21.4 1.55 -18.595
21.7 1.55 -18.673
22.0 1.55 -18.724
22.3 1.55 -18.856
22.6 1.55 -18.895
22.9 1.55 -18.961
23.2 1.55 -19.015
23.5 1.55 -19.144
23.8 1.55 -19.249
24.1 1.55 -19.291
24.4 1.55 -19.369
24.7 1.55 -19.471
25.0 1.55 -19.579
25.3 1.55 -19.651
25.6 1.55 -19.771
25.9 1.55 -19.843
26.2 1.55 -19.96
26.5 1.55 -20.014
26.8 1.55 -20.146
27.1 1.55 -20.251
27.4 1.55 -20.326
27.7 1.55 -20.428
28.0 1.55 -20.545
28.3 1.55 -20.689
28.6 1.55 -20.761
28.9 1.55 -20.878
29.2 1.55 -20.953
29.5 1.55 -21.139
29.8 1.55 -21.199
30.1 1.55 -21.361
30.4 1.55 -21.49
30.7 1.55 -21.619
31.0 1.55 -21.736
31.3 1.55 -21.877
31.6 1.55 -21.958
31.9 1.55 -22.165
32.2 1.55 -22.282
32.5 1.55 -22.426
32.8 1.55 -22.552
33.1 1.55 -22.729
33.4 1.55 -22.858
33.7 1.55 -23.038
34.0 1.55 -23.149
34.3 1.55 -23.371
34.6 1.55 -23.503
34.9 1.55 -23.692
35.2 1.55 -23.929
35.5 1.55 -24.04
35.8 1.55 -24.199
36.1 1.55 -24.403
36.4 1.55 -24.595
36.7 1.55 -24.802
37.0 1.55 -25.027
37.3 1.55 -25.288
37.6 1.55 -25.468
37.9 1.55 -25.684
38.2 1.55 -25.876
38.5 1.55 -26.164
38.8 1.55 -26.434
39.1 1.55 -26.623
39.4 1.55 -26.932
39.7 1.55 -27.154
40.0 1.55 -27.49
40.3 1.55 -27.817
40.6 1.55 -28.198
40.9 1.55 -28.495
41.2 1.55 -28.852
41.5 1.55 -29.257
41.8 1.55 -29.674
42.1 1.55 -30.136
42.4 1.55 -30.502
42.7 1.55 -31.18
43.0 1.55 -31.888
43.6 1.55 -33.376
43.9 1.55 -33.685
44.2 1.55 -33.766
44.5 1.55 -33.706
44.8 1.55 -33.742
45.1 1.55 -33.733
45.4 1.55 -33.745
-48.5 1.25 -19.381
-48.2 1.25 -19.303
-47.9 1.25 -19.156
-47.6 1.25 -19.075
-47.3 1.25 -18.97
-47.0 1.25 -18.874
-46.7 1.25 -18.835
-46.4 1.25 -18.772
-46.1 1.25 -18.712
-45.8 1.25 -18.616
-45.5 1.25 -18.613
-45.2 1.25 -18.502
-44.9 1.25 -18.442
-44.6 1.25 -18.316
-44.3 1.25 -18.271
-44.0 1.25 -18.301
-43.7 1.25 -18.181
-43.4 1.25 -18.118
-43.1 1.25 -18.085
-42.8 1.25 -17.992
-42.5 1.25 -17.899
-42.2 1.25 -17.857
-41.9 1.25 -17.815
-41.6 1.25 -17.728
-41.3 1.25 -17.692
-41.0 1.25 -17.662
-40.7 1.25 -17.59
-40.4 1.25 -17.593
-40.1 1.25 -17.473
-39.8 1.25 -17.476
-39.5 1.25 -17.368
-39.2 1.25 -17.326
-38.9 1.25 -17.284
-38.6 1.25 -17.236
-38.3 1.25 -17.215
-38.0 1.25 -17.14
-37.7 1.25 -17.08
-37.4 1.25 -17.017
-37.1 1.25 -16.987
-36.8 1.25 -16.948
-36.5 1.25 -16.876
-36.2 1.25 -16.834
-35.9 1.25 -16.804
-35.6 1.25 -16.801
-35.3 1.25 -16.744
-35.0 1.25 -16.657
-34.7 1.25 -16.63
-34.4 1.25 -16.588
-34.1 1.25 -16.54
-33.8 1.25 -16.546
-33.5 1.25 -16.474
-33.2 1.25 -16.42
-32.9 1.25 -16.423
-32.6 1.25 -16.399
-32.3 1.25 -16.339
-32.0 1.25 -16.3
-31.7 1.25 -16.186
-31.4 1.25 -16.204
-31.1 1.25 -16.204
-30.8 1.25 -16.168
-30.5 1.25 -16.123
-30.2 1.25 -16.135
-29.9 1.25 -16.075
-29.6 1.25 -16.075
-29.3 1.25 -16.03
-29.0 1.25 -15.976
-28.7 1.25 -15.946
-28.4 1.25 -15.916
-28.1 1.25 -15.913
-27.8 1.25 -15.862
-27.5 1.25 -15.826
-27.2 1.25 -15.835
-26.9 1.25 -15.808
-26.6 1.25 -15.796
-26.3 1.25 -15.766
-26.0 1.25 -15.694
-25.7 1.25 -15.712
-25.4 1.25 -15.706
-25.1 1.25 -15.694
-24.8 1.25 -15.67
-24.5 1.25 -15.601
-24.2 1.25 -15.628
-23.9 1.25 -15.595
-23.6 1.25 -15.547
-23.3 1.25 -15.559
-23.0 1.25 -15.505
-22.7 1.25 -15.469
-22.4 1.25 -15.502
-22.1 1.25 -15.469
-21.8 1.25 -15.46
-21.5 1.25 -15.433
-21.2 1.25 -15.403
-20.9 1.25 -15.406
-20.6 1.25 -15.394
-20.3 1.25 -15.382
-20.0 1.25 -15.361
-19.7 1.25 -15.313
-19.4 1.25 -15.307
-19.1 1.25 -15.31
-18.8 1.25 -15.271
-18.5 1.25 -15.298
-18.2 1.25 -15.289
-17.9 1.25 -15.274
-17.6 1.25 -15.283
-17.3 1.25 -15.265
-17.0 1.25 -15.262
-16.7 1.25 -15.229
-16.4 1.25 -15.232
-16.1 1.25 -15.211
-15.8 1.25 -15.247
-15.5 1.25 -15.232
-15.2 1.25 -15.19
-14.9 1.25 -15.223
-14.6 1.25 -15.22
-14.3 1.25 -15.196
-14.0 1.25 -15.187
-13.7 1.25 -15.196
-13.4 1.25 -15.169
-13.1 1.25 -15.178
-12.8 1.25 -15.127
-12.5 1.25 -15.166
-12.2 1.25 -15.211
-11.9 1.25 -15.175
-11.6 1.25 -15.169
-11.3 1.25 -15.19
-11.0 1.25 -15.187
-10.7 1.25 -15.16
-10.4 1.25 -15.16
-10.1 1.25 -15.19
-9.8 1.25 -15.193
-9.5 1.25 -15.193
-9.2 1.25 -15.187
-8.9 1.25 -15.187
-8.6 1.25 -15.163
-8.3 1.25 -15.205
-8.0 1.25 -15.187
-7.7 1.25 -15.184
-7.4 1.25 -15.202
-7.1 1.25 -15.223
-6.8 1.25 -15.232
-6.5 1.25 -15.223
-6.2 1.25 -15.214
-5.9 1.25 -15.235
-5.6 1.25 -15.226
-5.3 1.25 -15.238
-5.0 1.25 -15.271
-4.7 1.25 -15.292
-4.4 1.25 -15.283
-4.1 1.25 -15.271
-3.8 1.25 -15.298
-3.5 1.25 -15.34
-3.2 1.25 -15.367
-2.9 1.25 -15.346
-2.6 1.25 -15.352
-2.3 1.25 -15.355
-2.0 1.25 -15.376
-1.7 1.25 -15.376
-1.4 1.25 -15.406
-1.1 1.25 -15.457
-0.8 1.25 -15.424
-0.5 1.25 -15.481
-0.2 1.25 -15.466
0.1 1.25 -15.517
0.4 1.25 -15.532
0.7 1.25 -15.526
1.0 1.25 -15.577
1.3 1.25 -15.598
1.6 1.25 -15.601
1.9 1.25 -15.646
2.2 1.25 -15.661
2.5 1.25 -15.67
2.8 1.25 -15.709
3.1 1.25 -15.754
3.4 1.25 -15.76
3.7 1.25 -15.778
4.0 1.25 -15.841
4.3 1.25 -15.817
4.6 1.25 -15.868
4.9 1.25 -15.868
5.2 1.25 -15.901
5.5 1.25 -15.952
5.8 1.25 -15.988
6.1 1.25 -15.997
6.4 1.25 -16.066
6.7 1.25 -16.078
7.0 1.25 -16.108
7.3 1.25 -16.144
7.6 1.25 -16.201
7.9 1.25 -16.186
8.2 1.25 -16.249
8.5 1.25 -16.243
8.8 1.25 -16.294
9.1 1.25 -16.345
9.4 1.25 -16.39
9.7 1.25 -16.408
10.0 1.25 -16.462
10.3 1.25 -16.456
10.6 1.25 -16.546
10.9 1.25 -16.576
11.2 1.25 -16.6
11.5 1.25 -16.651
11.8 1.25 -16.717
12.1 1.25 -16.72
12.4 1.25 -16.786
12.7 1.25 -16.858
13.0 1.25 -16.873
13.3 1.25 -16.906
13.6 1.25 -16.969
13.9 1.25 -17.011
14.2 1.25 -17.026
14.5 1.25 -17.107
14.8 1.25 -17.158
15.1 1.25 -17.17
15.4 1.25 -17.281
15.7 1.25 -17.314
16.0 1.25 -17.371
16.3 1.25 -17.413
16.6 1.25 -17.455
16.9 1.25 -17.494
17.2 1.25 -17.593
17.5 1.25 -17.65
17.8 1.25 -17.722
18.1 1.25 -17.746
18.4 1.25 -17.788
18.7 1.25 -17.893
19.0 1.25 -17.962
19.3 1.25 -18.013
19.6 1.25 -18.097
19.9 1.25 -18.163
20.2 1.25 -18.223
20.5 1.25 -18.277
20.8 1.25 -18.361
21.1 1.25 -18.448
21.4 1.25 -18.517
21.7 1.25 -18.595
22.0 1.25 -18.667
22.3 1.25 -18.748
22.6 1.25 -18.772
22.9 1.25 -18.889
23.2 1.25 -18.997
23.5 1.25 -19.042
23.8 1.25 -19.141
24.1 1.25 -19.222
24.4 1.25 -19.261
24.7 1.25 -19.387
25.0 1.25 -19.468
25.3 1.25 -19.588
25.6 1.25 -19.714
25.9 1.25 -19.768
26.2 1.25 -19.822
26.5 1.25 -19.945
26.8 1.25 -20.02
27.1 1.25 -20.173
27.4 1.25 -20.266
27.7 1.25 -20.407
28.0 1.25 -20.485
28.3 1.25 -20.545
28.6 1.25 -20.677
28.9 1.25 -20.782
29.2 1.25 -20.932
29.5 1.25 -21.013
29.8 1.25 -21.121
30.1 1.25 -21.241
30.4 1.25 -21.382
30.7 1.25 -21.529
31.0 1.25 -21.688
31.3 1.25 -21.805
31.6 1.25 -21.91
31.9 1.25 -22.048
32.2 1.25 -22.204
32.5 1.25 -22.288
32.8 1.25 -22.495
33.1 1.25 -22.555
33.4 1.25 -22.78
33.7 1.25 -22.939
34.0 1.25 -23.101
34.3 1.25 -23.26
34.6 1.25 -23.395
34.9 1.25 -23.605
35.2 1.25 -23.773
35.5 1.25 -23.947
35.8 1.25 -24.103
36.1 1.25 -24.295
36.4 1.25 -24.523
36.7 1.25 -24.751
37.0 1.25 -24.937
37.3 1.25 -25.141
37.6 1.25 -25.36
37.9 1.25 -25.567
38.2 1.25 -25.78
38.5 1.25 -26.023
38.8 1.25 -26.266
39.1 1.25 -26.524
39.4 1.25 -26.839
39.7 1.25 -27.091
40.0 1.25 -27.379
40.3 1.25 -27.673
40.6 1.25 -27.997
40.9 1.25 -28.333
41.2 1.25 -28.705
41.5 1.25 -29.029
41.8 1.25 -29.479
42.1 1.25 -29.929
42.4 1.25 -30.307
42.7 1.25 -30.871
43.0 1.25 -31.348
43.9 1.25 -33.67
44.2 1.25 -33.739
44.5 1.25 -33.763
44.8 1.25 -33.733
45.1 1.25 -33.76
45.4 1.25 -33.766
45.7 1.25 -33.913
-48.2 0.95 -19.165
-47.9 0.95 -19.039
-47.6 0.95 -18.94
-47.3 0.95 -18.856
-47.0 0.95 -18.796
-46.7 0.95 -18.775
-46.4 0.95 -18.667
-46.1 0.95 -18.595
-45.8 0.95 -18.514
-45.5 0.95 -18.472
-45.2 0.95 -18.346
-44.9 0.95 -18.319
-44.6 0.95 -18.352
-44.3 0.95 -18.199
-44.0 0.95 -18.139
-43.7 0.95 -18.1
-43.4 0.95 -18.013
-43.1 0.95 -17.953
-42.8 0.95 -17.872
-42.5 0.95 -17.806
-42.2 0.95 -17.791
-41.9 0.95 -17.743
-41.6 0.95 -17.683
-41.3 0.95 -17.62
-41.0 0.95 -17.539
-40.7 0.95 -17.476
-40.4 0.95 -17.392
-40.1 0.95 -17.389
-39.8 0.95 -17.362
-39.5 0.95 -17.305
-39.2 0.95 -17.281
-38.9 0.95 -17.203
-38.6 0.95 -17.143
-38.3 0.95 -17.074
-38.0 0.95 -17.068
-37.7 0.95 -17.026
-37.4 0.95 -16.99
-37.1 0.95 -16.915
-36.8 0.95 -16.858
-36.5 0.95 -16.843
-36.2 0.95 -16.777
-35.9 0.95 -16.756
-35.6 0.95 -16.684
-35.3 0.95 -16.648
-35.0 0.95 -16.618
-34.7 0.95 -16.579
-34.4 0.95 -16.543
-34.1 0.95 -16.444
-33.8 0.95 -16.402
-33.5 0.95 -16.402
-33.2 0.95 -16.357
-32.9 0.95 -16.333
-32.6 0.95 -16.267
-32.3 0.95 -16.27
-32.0 0.95 -16.261
-31.7 0.95 -16.237
-31.4 0.95 -16.213
-31.1 0.95 -16.093
-30.8 0.95 -16.105
-30.5 0.95 -16.075
-30.2 0.95 -16.051
-29.9 0.95 -16.021
-29.6 0.95 -15.967
-29.3 0.95 -15.868
-29.0 0.95 -15.889
-28.7 0.95 -15.88
-28.4 0.95 -15.85
-28.1 0.95 -15.862
-27.8 0.95 -15.796
-27.5 0.95 -15.754
-27.2 0.95 -15.724
-26.9 0.95 -15.727
-26.6 0.95 -15.673
-26.3 0.95 -15.682
-26.0 0.95 -15.676
-25.7 0.95 -15.604
-25.4 0.95 -15.607
-25.1 0.95 -15.595
-24.8 0.95 -15.589
-24.5 0.95 -15.535
-24.2 0.95 -15.511
-23.9 0.95 -15.505
-23.6 0.95 -15.502
-23.3 0.95 -15.451
-23.0 0.95 -15.466
-22.7 0.95 -15.49
-22.4 0.95 -15.421
-22.1 0.95 -15.43
-21.8 0.95 -15.364
-21.5 0.95 -15.328
-21.2 0.95 -15.37
-20.9 0.95 -15.334
-20.6 0.95 -15.304
-20.3 0.95 -15.337
-20.0 0.95 -15.271
-19.7 0.95 -15.256
-19.4 0.95 -15.244
-19.1 0.95 -15.217
-18.8 0.95 -15.214
-18.5 0.95 -15.211
-18.2 0.95 -15.217
-17.9 0.95 -15.208
-17.6 0.95 -15.16
-17.3 0.95 -15.157
-17.0 0.95 -15.175
-16.7 0.95 -15.166
-16.4 0.95 -15.181
-16.1 0.95 -15.133
-15.8 0.95 -15.148
-15.5 0.95 -15.127
-15.2 0.95 -15.139
-14.9 0.95 -15.154
-14.6 0.95 -15.136
-14.3 0.95 -15.154
-14.0 0.95 -15.103
-13.7 0.95 -15.121
-13.4 0.95 -15.133
-13.1 0.95 -15.103
-12.8 0.95 -15.136
-12.5 0.95 -15.106
-12.2 0.95 -15.139
-11.9 0.95 -15.097
-11.6 0.95 -15.103
-11.3 0.95 -15.112
-11.0 0.95 -15.118
-10.7 0.95 -15.109
-10.4 0.95 -15.109
-10.1 0.95 -15.094
-9.8 0.95 -15.073
-9.5 0.95 -15.067
-9.2 0.95 -15.082
-8.9 0.95 -15.121
-8.6 0.95 -15.088
-8.3 0.95 -15.109
-8.0 0.95 -15.145
-7.7 0.95 -15.115
-7.4 0.95 -15.142
-7.1 0.95 -15.13
-6.8 0.95 -15.148
-6.5 0.95 -15.172
-6.2 0.95 -15.136
-5.9 0.95 -15.145
-5.6 0.95 -15.172
-5.3 0.95 -15.154
-5.0 0.95 -15.193
-4.7 0.95 -15.193
-4.4 0.95 -15.232
-4.1 0.95 -15.244
-3.8 0.95 -15.244
-3.5 0.95 -15.202
-3.2 0.95 -15.247
-2.9 0.95 -15.259
-2.6 0.95 -15.28
-2.3 0.95 -15.316
-2.0 0.95 -15.28
-1.7 0.95 -15.322
-1.4 0.95 -15.331
-1.1 0.95 -15.349
-0.8 0.95 -15.457
-0.5 0.95 -15.421
-0.2 0.95 -15.448
0.1 0.95 -15.478
0.4 0.95 -15.445
0.7 0.95 -15.475
1.0 0.95 -15.472
1.3 0.95 -15.523
1.6 0.95 -15.565
1.9 0.95 -15.565
2.2 0.95 -15.61
2.5 0.95 -15.601
2.8 0.95 -15.664
3.1 0.95 -15.637
3.4 0.95 -15.691
3.7 0.95 -15.7
4.0 0.95 -15.745
4.3 0.95 -15.775
4.6 0.95 -15.796
4.9 0.95 -15.805
5.2 0.95 -15.856
5.5 0.95 -15.853
5.8 0.95 -15.919
6.1 0.95 -15.931
6.4 0.95 -15.997
6.7 0.95 -16.009
7.0 0.95 -16.042
7.3 0.95 -16.075
7.6 0.95 -16.09
7.9 0.95 -16.129
8.2 0.95 -16.174
8.5 0.95 -16.195
8.8 0.95 -16.237
9.1 0.95 -16.288
9.4 0.95 -16.339
9.7 0.95 -16.354
10.0 0.95 -16.399
10.3 0.95 -16.429
10.6 0.95 -16.438
10.9 0.95 -16.483
11.2 0.95 -16.552
11.5 0.95 -16.609
11.8 0.95 -16.597
12.1 0.95 -16.651
12.4 0.95 -16.69
12.7 0.95 -16.702
13.0 0.95 -16.768
13.3 0.95 -16.858
13.6 0.95 -16.909
13.9 0.95 -16.921
14.2 0.95 -17.029
14.5 0.95 -17.056
14.8 0.95 -17.05
15.1 0.95 -17.17
15.4 0.95 -17.173
15.7 0.95 -17.257
16.0 0.95 -17.296
16.3 0.95 -17.377
16.6 0.95 -17.389
16.9 0.95 -17.488
17.2 0.95 -17.485
17.5 0.95 -17.578
17.8 0.95 -17.641
18.1 0.95 -17.686
18.4 0.95 -17.761
18.7 0.95 -17.821
19.0 0.95 -17.893
19.3 0.95 -17.947
19.6 0.95 -18.037
19.9 0.95 -18.064
20.2 0.95 -18.13
20.5 0.95 -18.211
20.8 0.95 -18.289
21.1 0.95 -18.34
21.4 0.95 -18.445
21.7 0.95 -18.514
22.0 0.95 -18.619
22.3 0.95 -18.685
22.6 0.95 -18.781
22.9 0.95 -18.817
23.2 0.95 -18.91
23.5 0.95 -18.991
23.8 0.95 -19.075
24.1 0.95 -19.162
24.4 0.95 -19.237
24.7 0.95 -19.303
25.0 0.95 -19.414
25.3 0.95 -19.516
25.6 0.95 -19.609
25.9 0.95 -19.678
26.2 0.95 -19.747
26.5 0.95 -19.861
26.8 0.95 -19.969
27.1 0.95 -20.068
27.4 0.95 -20.146
27.7 0.95 -20.245
28.0 0.95 -20.368
28.3 0.95 -20.485
28.6 0.95 -20.59
28.9 0.95 -20.728
29.2 0.95 -20.797
29.5 0.95 -20.947
29.8 0.95 -21.07
30.1 0.95 -21.166
30.4 0.95 -21.331
30.7 0.95 -21.427
31.0 0.95 -21.583
31.3 0.95 -21.709
31.6 0.95 -21.85
31.9 0.95 -21.985
32.2 0.95 -22.102
32.5 0.95 -22.297
32.8 0.95 -22.33
33.1 0.95 -22.543
33.4 0.95 -22.75
33.7 0.95 -22.864
34.0 0.95 -23.005
34.3 0.95 -23.176
34.6 0.95 -23.308
34.9 0.95 -23.461
35.2 0.95 -23.611
35.5 0.95 -23.827
35.8 0.95 -24.013
36.1 0.95 -24.187
36.4 0.95 -24.385
36.7 0.95 -24.571
37.0 0.95 -24.775
37.3 0.95 -25.051
37.6 0.95 -25.204
37.9 0.95 -25.402
38.2 0.95 -25.663
38.5 0.95 -25.891
38.8 0.95 -26.104
39.1 0.95 -26.401
39.4 0.95 -26.674
39.7 0.95 -26.893
40.0 0.95 -27.271
40.3 0.95 -27.553
40.6 0.95 -27.847
40.9 0.95 -28.195
41.2 0.95 -28.51
41.5 0.95 -28.873
41.8 0.95 -29.254
42.1 0.95 -29.608
42.4 0.95 -29.992
42.7 0.95 -30.484
43.0 0.95 -31.045
43.9 0.95 -33.361
44.2 0.95 -33.763
44.5 0.95 -33.838
44.8 0.95 -33.727
45.1 0.95 -33.76
45.4 0.95 -33.823
45.7 0.95 -33.763
46.0 0.95 -33.952
-48.2 0.65 -18.877
-47.9 0.65 -18.949
-47.6 0.65 -18.898
-47.3 0.65 -18.745
-47.0 0.65 -18.751
-46.7 0.65 -18.661
-46.4 0.65 -18.541
-46.1 0.65 -18.541
-45.8 0.65 -18.415
-45.5 0.65 -18.403
-45.2 0.65 -18.202
-44.9 0.65 -18.277
-44.6 0.65 -18.175
-44.3 0.65 -18.103
-44.0 0.65 -18.022
-43.7 0.65 -17.98
-43.4 0.65 -17.947
-43.1 0.65 -17.893
-42.8 0.65 -17.866
-42.5 0.65 -17.749
-42.2 0.65 -17.701
-41.9 0.65 -17.683
-41.6 0.65 -17.602
-41.3 0.65 -17.476
-41.0 0.65 -17.494
-40.7 0.65 -17.434
-40.4 0.65 -17.38
-40.1 0.65 -17.329
-39.8 0.65 -17.29
-39.5 0.65 -17.197
-39.2 0.65 -17.128
-38.9 0.65 -17.092
-38.6 0.65 -17.056
-38.3 0.65 -17.038
-38.0 0.65 -16.927
-37.7 0.65 -16.921
-37.4 0.65 -16.873
-37.1 0.65 -16.81
-36.8 0.65 -16.822
-36.5 0.65 -16.702
-36.2 0.65 -16.69
-35.9 0.65 -16.696
-35.6 0.65 -16.651
-35.3 0.65 -16.573
-35.0 0.65 -16.516
-34.7 0.65 -16.51
-34.4 0.65 -16.402
-34.1 0.65 -16.423
-33.8 0.65 -16.384
-33.5 0.65 -16.333
-33.2 0.65 -16.312
-32.9 0.65 -16.285
-32.6 0.65 -16.219
-32.3 0.65 -16.159
-32.0 0.65 -16.138
-31.7 0.65 -16.108
-31.4 0.65 -16.069
-31.1 0.65 -16.042
-30.8 0.65 -16.03
-30.5 0.65 -15.985
-30.2 0.65 -15.913
-29.9 0.65 -15.931
-29.6 0.65 -15.841
-29.3 0.65 -15.838
-29.0 0.65 -15.823
-28.7 0.65 -15.793
-28.4 0.65 -15.781
-28.1 0.65 -15.76
-27.8 0.65 -15.739
-27.5 0.65 -15.7
-27.2 0.65 -15.631
-26.9 0.65 -15.592
-26.6 0.65 -15.589
-26.3 0.65 -15.574
-26.0 0.65 -15.613
-25.7 0.65 -15.58
-25.4 0.65 -15.514
-25.1 0.65 -15.52
-24.8 0.65 -15.511
-24.5 0.65 -15.481
-24.2 0.65 -15.427
-23.9 0.65 -15.439
-23.6 0.65 -15.385
-23.3 0.65 -15.415
-23.0 0.65 -15.367
-22.7 0.65 -15.307
-22.4 0.65 -15.325
-22.1 0.65 -15.304
-21.8 0.65 -15.28
-21.5 0.65 -15.274
-21.2 0.65 -15.262
-20.9 0.65 -15.244
-20.6 0.65 -15.277
-20.3 0.65 -15.178
-20.0 0.65 -15.22
-19.7 0.65 -15.181
-19.4 0.65 -15.178
-19.1 0.65 -15.181
-18.8 0.65 -15.139
-18.5 0.65 -15.118
-18.2 0.65 -15.091
-17.9 0.65 -15.082
-17.6 0.65 -15.106
-17.3 0.65 -15.124
-17.0 0.65 -15.1
-16.7 0.65 -15.067
-16.4 0.65 -15.1
-16.1 0.65 -15.076
-15.8 0.65 -15.061
-15.5 0.65 -15.04
-15.2 0.65 -15.061
-14.9 0.65 -15.049
-14.6 0.65 -14.962
-14.3 0.65 -14.983
-14.0 0.65 -15.034
-13.7 0.65 -15.034
-13.4 0.65 -15.031
-13.1 0.65 -15.043
-12.8 0.65 -15.025
-12.5 0.65 -15.025
-12.2 0.65 -15.049
-11.9 0.65 -15.028
-11.6 0.65 -14.965
-11.3 0.65 -15.049
-11.0 0.65 -15.013
-10.7 0.65 -15.046
-10.4 0.65 -15.019
-10.1 0.65 -15.019
-9.8 0.65 -15.064
-9.5 0.65 -15.04
-9.2 0.65 -15.001
-8.9 0.65 -15.025
-8.6 0.65 -15.028
-8.3 0.65 -15.019
-8.0 0.65 -15.025
-7.7 0.65 -15.067
-7.4 0.65 -15.037
-7.1 0.65 -15.046
-6.8 0.65 -15.076
-6.5 0.65 -15.085
-6.2 0.65 -15.112
-5.9 0.65 -15.052
-5.6 0.65 -15.124
-5.3 0.65 -15.088
-5.0 0.65 -15.112
-4.7 0.65 -15.133
-4.4 0.65 -15.112
-4.1 0.65 -15.142
-3.8 0.65 -15.154
-3.5 0.65 -15.157
-3.2 0.65 -15.205
-2.9 0.65 -15.202
-2.6 0.65 -15.178
-2.3 0.65 -15.181
-2.0 0.65 -15.265
-1.7 0.65 -15.286
-1.4 0.65 -15.256
-1.1 0.65 -15.274
-0.8 0.65 -15.289
-0.5 0.65 -15.373
-0.2 0.65 -15.346
0.1 0.65 -15.337
0.4 0.65 -15.4
0.7 0.65 -15.385
1.0 0.65 -15.478
1.3 0.65 -15.328
1.6 0.65 -15.436
1.9 0.65 -15.487
2.2 0.65 -15.505
2.5 0.65 -15.544
2.8 0.65 -15.529
3.1 0.65 -15.619
3.4 0.65 -15.583
3.7 0.65 -15.649
4.0 0.65 -15.643
4.3 0.65 -15.67
4.6 0.65 -15.73
4.9 0.65 -15.751
5.2 0.65 -15.781
5.5 0.65 -15.823
5.8 0.65 -15.829
6.1 0.65 -15.85
6.4 0.65 -15.892
6.7 0.65 -15.922
7.0 0.65 -15.958
7.3 0.65 -15.97
7.6 0.65 -16.024
7.9 0.65 -16.048
8.2 0.65 -16.054
8.5 0.65 -16.114
8.8 0.65 -16.144
9.1 0.65 -16.168
9.4 0.65 -16.192
9.7 0.65 -16.279
10.0 0.65 -16.291
10.3 0.65 -16.33
10.6 0.65 -16.384
10.9 0.65 -16.426
11.2 0.65 -16.444
11.5 0.65 -16.495
11.8 0.65 -16.498
12.1 0.65 -16.567
12.4 0.65 -16.624
12.7 0.65 -16.684
13.0 0.65 -16.762
13.3 0.65 -16.771
13.6 0.65 -16.819
13.9 0.65 -16.87
14.2 0.65 -16.927
14.5 0.65 -16.93
14.8 0.65 -16.978
15.1 0.65 -17.017
15.4 0.65 -17.08
15.7 0.65 -17.11
16.0 0.65 -17.221
16.3 0.65 -17.245
16.6 0.65 -17.311
16.9 0.65 -17.383
17.2 0.65 -17.413
17.5 0.65 -17.485
17.8 0.65 -17.56
18.1 0.65 -17.605
18.4 0.65 -17.713
18.7 0.65 -17.755
19.0 0.65 -17.806
19.3 0.65 -17.812
19.6 0.65 -17.938
19.9 0.65 -17.986
20.2 0.65 -18.121
20.5 0.65 -18.169
20.8 0.65 -18.208
21.1 0.65 -18.277
21.4 0.65 -18.37
21.7 0.65 -18.46
22.0 0.65 -18.493
22.3 0.65 -18.553
22.6 0.65 -18.604
22.9 0.65 -18.745
23.2 0.65 -18.841
23.5 0.65 -18.844
23.8 0.65 -18.97
24.1 0.65 -19.06
24.4 0.65 -19.159
24.7 0.65 -19.276
25.0 0.65 -19.351
25.3 0.65 -19.372
25.6 0.65 -19.477
25.9 0.65 -19.591
26.2 0.65 -19.672
26.5 0.65 -19.75
26.8 0.65 -19.885
27.1 0.65 -19.972
27.4 0.65 -20.089
27.7 0.65 -20.149
28.0 0.65 -20.287
28.3 0.65 -20.41
