9.9 -1.55 10.034
10.15 -1.55 9.389
10.4 -1.55 8.69
10.65 -1.55 7.973
10.9 -1.55 7.262
11.15 -1.55 6.512
11.4 -1.55 5.774
11.65 -1.55 5.036
11.9 -1.55 4.286
12.15 -1.55 3.473
12.4 -1.55 2.678
12.65 -1.55 1.892
12.9 -1.55 1.076
13.15 -1.55 0.242
13.4 -1.55 -0.628
13.65 -1.55 -1.504
13.9 -1.55 -2.392
14.15 -1.55 -3.274
14.4 -1.55 -4.117
14.65 -1.55 -5.044
14.9 -1.55 -5.98
15.15 -1.55 -6.847
15.4 -1.55 -7.789
15.65 -1.55 -8.68
15.9 -1.55 -9.661
16.15 -1.55 -10.63
16.4 -1.55 -11.548
16.65 -1.55 -12.529
16.9 -1.55 -13.51
17.15 -1.55 -14.524
17.4 -1.55 -15.526
17.65 -1.55 -16.51
17.9 -1.55 -17.569
18.15 -1.55 -18.559
18.4 -1.55 -19.573
18.65 -1.55 -20.602
18.9 -1.55 -21.64
19.15 -1.55 -22.663
19.4 -1.55 -23.71
19.65 -1.55 -24.766
19.9 -1.55 -25.825
20.15 -1.55 -26.914
20.4 -1.55 -27.952
20.65 -1.55 -29.062
20.9 -1.55 -30.208
21.15 -1.55 -31.228
21.4 -1.55 -32.338
21.65 -1.55 -33.445
21.9 -1.55 -34.339
22.15 -1.55 -35.365
22.4 -1.55 -36.349
-31.35 -1.8 -41.443
-31.1 -1.8 -40.276
-30.85 -1.8 -39.154
-30.6 -1.8 -38.134
-30.35 -1.8 -37.138
-30.1 -1.8 -36.091
-29.85 -1.8 -35.017
-29.6 -1.8 -34.036
-29.35 -1.8 -32.977
-29.1 -1.8 -31.984
-28.85 -1.8 -30.907
-28.6 -1.8 -29.899
-28.35 -1.8 -28.891
-28.1 -1.8 -27.814
-27.85 -1.8 -26.764
-27.6 -1.8 -25.801
-27.35 -1.8 -24.769
-27.1 -1.8 -23.8
-26.85 -1.8 -22.804
-26.6 -1.8 -21.781
-26.35 -1.8 -20.77
-26.1 -1.8 -19.795
-25.85 -1.8 -18.823
-25.6 -1.8 -17.863
-25.35 -1.8 -16.882
-25.1 -1.8 -15.895
-24.85 -1.8 -14.92
-24.6 -1.8 -13.912
-24.35 -1.8 -13.015
-24.1 -1.8 -12.061
-23.85 -1.8 -11.128
-23.6 -1.8 -10.228
-23.35 -1.8 -9.295
-23.1 -1.8 -8.371
-22.85 -1.8 -7.486
-22.6 -1.8 -6.541
-22.35 -1.8 -5.65
-22.1 -1.8 -4.729
-21.85 -1.8 -3.886
-21.6 -1.8 -3.034
-21.35 -1.8 -2.182
-21.1 -1.8 -1.294
-20.85 -1.8 -0.496
-20.6 -1.8 0.332
-20.35 -1.8 1.133
-20.1 -1.8 1.901
-19.85 -1.8 2.705
-19.6 -1.8 3.437
-19.35 -1.8 4.235
-19.1 -1.8 4.937
-18.85 -1.8 5.705
-18.6 -1.8 6.461
-18.35 -1.8 7.19
-18.1 -1.8 7.883
-17.85 -1.8 8.615
-17.6 -1.8 9.275
-17.35 -1.8 9.977
-17.1 -1.8 10.64
-16.85 -1.8 11.279
-16.6 -1.8 11.915
-16.35 -1.8 12.575
-16.1 -1.8 13.208
-15.85 -1.8 13.754
-15.6 -1.8 14.345
-15.35 -1.8 14.948
-15.1 -1.8 15.47
-14.85 -1.8 16.067
-14.6 -1.8 16.649
-14.35 -1.8 17.162
-14.1 -1.8 17.651
-13.85 -1.8 18.185
-13.6 -1.8 18.704
-13.35 -1.8 19.127
-13.1 -1.8 19.691
-12.85 -1.8 20.135
-12.6 -1.8 20.546
-12.35 -1.8 21.044
-12.1 -1.8 21.431
-11.85 -1.8 21.86
-11.6 -1.8 22.244
-11.35 -1.8 22.631
-11.1 -1.8 23.0
-10.85 -1.8 23.336
-10.6 -1.8 23.726
-10.35 -1.8 23.996
-10.1 -1.8 24.308
-9.85 -1.8 24.587
-9.6 -1.8 24.89
-9.35 -1.8 25.172
-9.1 -1.8 25.445
-8.85 -1.8 25.685
-8.6 -1.8 25.919
-8.35 -1.8 26.141
-8.1 -1.8 26.348
-7.85 -1.8 26.537
-7.6 -1.8 26.768
-7.35 -1.8 26.942
-7.1 -1.8 27.053
-6.85 -1.8 27.197
-6.6 -1.8 27.35
-6.35 -1.8 27.446
-5.85 -1.8 29.702
-5.6 -1.8 29.72
-5.35 -1.8 29.774
-5.1 -1.8 29.825
-4.85 -1.8 29.822
-4.6 -1.8 29.801
-4.35 -1.8 29.801
-4.1 -1.8 29.849
-3.85 -1.8 29.858
-3.6 -1.8 29.897
-3.35 -1.8 29.945
-3.1 -1.8 29.885
-2.85 -1.8 29.84
-2.6 -1.8 29.807
-2.35 -1.8 29.789
-2.1 -1.8 29.78
-1.85 -1.8 29.759
-1.6 -1.8 29.708
-1.35 -1.8 29.636
-1.1 -1.8 29.642
-0.85 -1.8 27.44
-0.6 -1.8 27.32
-0.35 -1.8 27.17
-0.1 -1.8 27.044
0.15 -1.8 26.864
0.4 -1.8 26.702
0.65 -1.8 26.507
0.9 -1.8 26.291
1.15 -1.8 26.075
1.4 -1.8 25.877
1.65 -1.8 25.634
1.9 -1.8 25.382
2.15 -1.8 25.097
2.4 -1.8 24.8
2.65 -1.8 24.548
2.9 -1.8 24.263
3.15 -1.8 23.906
3.4 -1.8 23.576
3.65 -1.8 23.21
3.9 -1.8 22.844
4.15 -1.8 22.487
4.4 -1.8 22.073
4.65 -1.8 21.686
4.9 -1.8 21.296
5.15 -1.8 20.828
5.4 -1.8 20.366
5.65 -1.8 19.91
5.9 -1.8 19.445
6.15 -1.8 18.947
6.4 -1.8 18.476
6.65 -1.8 17.939
6.9 -1.8 17.42
7.15 -1.8 16.847
7.4 -1.8 16.313
7.65 -1.8 15.734
7.9 -1.8 15.188
8.15 -1.8 14.567
8.4 -1.8 13.991
8.65 -1.8 13.367
8.9 -1.8 12.743
9.15 -1.8 12.065
9.4 -1.8 11.423
9.65 -1.8 10.757
9.9 -1.8 10.085
10.15 -1.8 9.353
10.4 -1.8 8.693
10.65 -1.8 7.958
10.9 -1.8 7.259
11.15 -1.8 6.512
11.4 -1.8 5.759
11.65 -1.8 5.036
11.9 -1.8 4.259
12.15 -1.8 3.419
12.4 -1.8 2.699
12.65 -1.8 1.85
12.9 -1.8 1.052
13.15 -1.8 0.194
13.4 -1.8 -0.625
13.65 -1.8 -1.495
13.9 -1.8 -2.392
14.15 -1.8 -3.286
14.4 -1.8 -4.153
14.65 -1.8 -5.059
14.9 -1.8 -5.956
15.15 -1.8 -6.874
15.4 -1.8 -7.774
15.65 -1.8 -8.71
15.9 -1.8 -9.655
16.15 -1.8 -10.624
16.4 -1.8 -11.578
16.65 -1.8 -12.55
16.9 -1.8 -13.534
17.15 -1.8 -14.557
17.4 -1.8 -15.541
17.65 -1.8 -16.549
17.9 -1.8 -17.569
18.15 -1.8 -18.565
18.4 -1.8 -19.585
18.65 -1.8 -20.602
18.9 -1.8 -21.679
19.15 -1.8 -22.702
19.4 -1.8 -23.728
19.65 -1.8 -24.787
19.9 -1.8 -25.849
20.15 -1.8 -26.935
20.4 -1.8 -28.003
20.65 -1.8 -29.086
20.9 -1.8 -30.193
21.15 -1.8 -31.309
21.4 -1.8 -32.335
21.65 -1.8 -33.475
21.9 -1.8 -34.303
-30.6 -2.05 -38.125
-30.35 -2.05 -37.093
-30.1 -2.05 -36.055
-29.85 -2.05 -34.972
-29.6 -2.05 -33.958
-29.35 -2.05 -32.932
-29.1 -2.05 -31.894
-28.85 -2.05 -30.829
-28.6 -2.05 -29.851
-28.35 -2.05 -28.798
-28.1 -2.05 -27.79
-27.85 -2.05 -26.821
-27.6 -2.05 -25.792
-27.35 -2.05 -24.772
-27.1 -2.05 -23.731
-26.85 -2.05 -22.744
-26.6 -2.05 -21.745
-26.35 -2.05 -20.77
-26.1 -2.05 -19.78
-25.85 -2.05 -18.829
-25.6 -2.05 -17.833
-25.35 -2.05 -16.849
-25.1 -2.05 -15.895
-24.85 -2.05 -14.92
-24.6 -2.05 -13.972
-24.35 -2.05 -12.964
-24.1 -2.05 -12.01
-23.85 -2.05 -11.077
-23.6 -2.05 -10.171
-23.35 -2.05 -9.256
-23.1 -2.05 -8.395
-22.85 -2.05 -7.459
-22.6 -2.05 -6.49
-22.35 -2.05 -5.668
-22.1 -2.05 -4.771
-21.85 -2.05 -3.877
-21.6 -2.05 -3.007
-21.35 -2.05 -2.155
-21.1 -2.05 -1.285
-20.85 -2.05 -0.49
-20.6 -2.05 0.329
-20.35 -2.05 1.142
-20.1 -2.05 1.934
-19.85 -2.05 2.702
-19.6 -2.05 3.509
-19.35 -2.05 4.202
-19.1 -2.05 4.958
-18.85 -2.05 5.663
-18.6 -2.05 6.437
-18.35 -2.05 7.184
-18.1 -2.05 7.892
-17.85 -2.05 8.588
-17.6 -2.05 9.275
-17.35 -2.05 9.986
-17.1 -2.05 10.658
-16.85 -2.05 11.282
-16.6 -2.05 11.927
-16.35 -2.05 12.581
-16.1 -2.05 13.16
-15.85 -2.05 13.763
-15.6 -2.05 14.387
-15.35 -2.05 14.96
-15.1 -2.05 15.509
-14.85 -2.05 16.094
-14.6 -2.05 16.646
-14.35 -2.05 17.159
-14.1 -2.05 17.603
-13.85 -2.05 18.161
-13.6 -2.05 18.701
-13.35 -2.05 19.241
-13.1 -2.05 19.691
-12.85 -2.05 20.132
-12.6 -2.05 20.603
-12.35 -2.05 21.056
-12.1 -2.05 21.473
-11.85 -2.05 21.863
-11.6 -2.05 22.25
-11.35 -2.05 22.622
-11.1 -2.05 22.97
-10.85 -2.05 23.348
-10.6 -2.05 23.663
-10.35 -2.05 23.948
-10.1 -2.05 24.32
-9.85 -2.05 24.602
-9.6 -2.05 24.878
-9.35 -2.05 25.145
-9.1 -2.05 25.415
-8.85 -2.05 25.685
-8.6 -2.05 25.943
-8.35 -2.05 26.141
-8.1 -2.05 26.348
-7.85 -2.05 26.567
-7.6 -2.05 26.753
-7.35 -2.05 26.909
-7.1 -2.05 27.062
-6.85 -2.05 27.176
-6.6 -2.05 27.323
-6.35 -2.05 27.437
-5.85 -2.05 29.636
-5.6 -2.05 29.717
-5.35 -2.05 29.735
-5.1 -2.05 29.75
-4.85 -2.05 29.816
-4.6 -2.05 29.816
-4.35 -2.05 29.837
-4.1 -2.05 29.843
-3.85 -2.05 29.921
-3.6 -2.05 29.909
-3.35 -2.05 29.87
-3.1 -2.05 29.849
-2.85 -2.05 29.825
-2.6 -2.05 29.792
-2.35 -2.05 29.798
-2.1 -2.05 29.798
-1.85 -2.05 29.771
-1.6 -2.05 29.726
-1.35 -2.05 29.738
-1.1 -2.05 29.675
-0.85 -2.05 27.407
-0.6 -2.05 27.359
-0.35 -2.05 27.215
-0.1 -2.05 27.017
0.15 -2.05 26.846
0.4 -2.05 26.705
0.65 -2.05 26.525
0.9 -2.05 26.282
1.15 -2.05 26.117
1.4 -2.05 25.877
1.65 -2.05 25.637
1.9 -2.05 25.388
2.15 -2.05 25.121
2.4 -2.05 24.842
2.65 -2.05 24.467
2.9 -2.05 24.23
3.15 -2.05 23.963
3.4 -2.05 23.561
3.65 -2.05 23.24
3.9 -2.05 22.88
4.15 -2.05 22.46
4.4 -2.05 22.073
4.65 -2.05 21.617
4.9 -2.05 21.239
5.15 -2.05 20.825
5.4 -2.05 20.378
5.65 -2.05 19.916
5.9 -2.05 19.415
6.15 -2.05 18.911
6.4 -2.05 18.401
6.65 -2.05 17.915
6.9 -2.05 17.429
7.15 -2.05 16.832
7.4 -2.05 16.292
7.65 -2.05 15.773
7.9 -2.05 15.137
8.15 -2.05 14.534
8.4 -2.05 13.961
8.65 -2.05 13.337
8.9 -2.05 12.716
9.15 -2.05 12.065
9.4 -2.05 11.42
9.65 -2.05 10.76
9.9 -2.05 10.07
10.15 -2.05 9.383
10.4 -2.05 8.699
10.65 -2.05 7.898
10.9 -2.05 7.229
11.15 -2.05 6.5
11.4 -2.05 5.777
11.65 -2.05 4.991
11.9 -2.05 4.25
12.15 -2.05 3.38
12.4 -2.05 2.699
12.65 -2.05 1.853
12.9 -2.05 1.04
13.15 -2.05 0.212
13.4 -2.05 -0.667
13.65 -2.05 -1.51
13.9 -2.05 -2.386
14.15 -2.05 -3.256
14.4 -2.05 -4.12
14.65 -2.05 -5.038
14.9 -2.05 -5.989
15.15 -2.05 -6.868
15.4 -2.05 -7.804
15.65 -2.05 -8.716
15.9 -2.05 -9.661
16.15 -2.05 -10.57
16.4 -2.05 -11.566
16.65 -2.05 -12.535
16.9 -2.05 -13.552
17.15 -2.05 -14.566
17.4 -2.05 -15.55
17.65 -2.05 -16.543
17.9 -2.05 -17.587
18.15 -2.05 -18.571
18.4 -2.05 -19.573
18.65 -2.05 -20.617
18.9 -2.05 -21.631
19.15 -2.05 -22.681
19.4 -2.05 -23.746
19.65 -2.05 -24.79
19.9 -2.05 -25.861
20.15 -2.05 -26.932
20.4 -2.05 -27.979
20.65 -2.05 -29.095
20.9 -2.05 -30.208
21.15 -2.05 -31.294
21.4 -2.05 -32.353
21.65 -2.05 -33.163
21.9 -2.05 -34.492
-31.85 -2.3 -43.168
-31.6 -2.3 -41.896
-31.35 -2.3 -40.873
-31.1 -2.3 -40.081
-30.85 -2.3 -39.115
-30.6 -2.3 -38.08
-30.35 -2.3 -37.075
-30.1 -2.3 -36.061
-29.85 -2.3 -34.987
-29.6 -2.3 -33.964
-29.35 -2.3 -32.944
-29.1 -2.3 -31.9
-28.85 -2.3 -30.883
-28.6 -2.3 -29.854
-28.35 -2.3 -28.798
-28.1 -2.3 -27.835
-27.85 -2.3 -26.782
-27.6 -2.3 -25.714
-27.35 -2.3 -24.73
-27.1 -2.3 -23.731
-26.85 -2.3 -22.717
-26.6 -2.3 -21.727
-26.35 -2.3 -20.764
-26.1 -2.3 -19.768
-25.85 -2.3 -18.796
-25.6 -2.3 -17.827
-25.35 -2.3 -16.84
-25.1 -2.3 -15.865
-24.85 -2.3 -14.86
-24.6 -2.3 -13.921
-24.35 -2.3 -12.943
-24.1 -2.3 -12.052
-23.85 -2.3 -11.116
-23.6 -2.3 -10.162
-23.35 -2.3 -9.247
-23.1 -2.3 -8.368
-22.85 -2.3 -7.405
-22.6 -2.3 -6.52
-22.35 -2.3 -5.638
-22.1 -2.3 -4.72
-21.85 -2.3 -3.853
-21.6 -2.3 -2.989
-21.35 -2.3 -2.128
-21.1 -2.3 -1.312
-20.85 -2.3 -0.481
-20.6 -2.3 0.332
-20.35 -2.3 1.163
-20.1 -2.3 1.931
-19.85 -2.3 2.732
-19.6 -2.3 3.536
-19.35 -2.3 4.271
-19.1 -2.3 4.952
-18.85 -2.3 5.69
-18.6 -2.3 6.491
-18.35 -2.3 7.202
-18.1 -2.3 7.901
-17.85 -2.3 8.615
-17.6 -2.3 9.314
-17.35 -2.3 10.013
-17.1 -2.3 10.649
-16.85 -2.3 11.306
-16.6 -2.3 11.96
-16.35 -2.3 12.578
-16.1 -2.3 13.178
-15.85 -2.3 13.796
-15.6 -2.3 14.402
-15.35 -2.3 14.972
-15.1 -2.3 15.527
-14.85 -2.3 16.079
-14.6 -2.3 16.619
-14.35 -2.3 17.228
-14.1 -2.3 17.699
-13.85 -2.3 18.242
-13.6 -2.3 18.719
-13.35 -2.3 19.19
-13.1 -2.3 19.661
-12.85 -2.3 20.138
-12.6 -2.3 20.591
-12.35 -2.3 21.008
-12.1 -2.3 21.44
-11.85 -2.3 21.869
-11.6 -2.3 22.247
-11.35 -2.3 22.625
-11.1 -2.3 22.958
-10.85 -2.3 23.315
-10.6 -2.3 23.648
-10.35 -2.3 23.984
-10.1 -2.3 24.341
-9.85 -2.3 24.62
-9.6 -2.3 24.872
-9.35 -2.3 25.166
-9.1 -2.3 25.433
-8.85 -2.3 25.733
-8.6 -2.3 25.934
-8.35 -2.3 26.141
-8.1 -2.3 26.381
-7.85 -2.3 26.531
-7.6 -2.3 26.726
-7.35 -2.3 26.918
-7.1 -2.3 27.08
-6.85 -2.3 27.185
-6.6 -2.3 27.383
-6.35 -2.3 27.482
-5.85 -2.3 29.66
-5.6 -2.3 29.687
-5.35 -2.3 29.738
-5.1 -2.3 29.765
-4.85 -2.3 29.774
-4.6 -2.3 29.792
-4.35 -2.3 29.813
-4.1 -2.3 29.801
-3.85 -2.3 29.822
-3.6 -2.3 29.798
-3.35 -2.3 29.747
-3.1 -2.3 29.783
-2.85 -2.3 29.837
-2.6 -2.3 29.927
-2.35 -2.3 29.777
-2.1 -2.3 29.768
-1.85 -2.3 29.744
-1.6 -2.3 29.633
-1.35 -2.3 29.57
-0.85 -2.3 27.488
-0.6 -2.3 27.353
-0.35 -2.3 27.227
-0.1 -2.3 27.05
0.15 -2.3 26.87
0.4 -2.3 26.708
0.65 -2.3 26.516
0.9 -2.3 26.318
1.15 -2.3 26.117
1.4 -2.3 25.904
1.65 -2.3 25.622
1.9 -2.3 25.373
2.15 -2.3 25.118
2.4 -2.3 24.833
2.65 -2.3 24.527
2.9 -2.3 24.203
3.15 -2.3 23.903
3.4 -2.3 23.579
3.65 -2.3 23.198
3.9 -2.3 22.847
4.15 -2.3 22.484
4.4 -2.3 22.085
4.65 -2.3 21.707
4.9 -2.3 21.29
5.15 -2.3 20.819
5.4 -2.3 20.33
5.65 -2.3 19.901
5.9 -2.3 19.37
6.15 -2.3 18.947
6.4 -2.3 18.434
6.65 -2.3 17.933
6.9 -2.3 17.438
7.15 -2.3 16.847
7.4 -2.3 16.313
7.65 -2.3 15.737
7.9 -2.3 15.137
8.15 -2.3 14.579
8.4 -2.3 13.988
8.65 -2.3 13.334
8.9 -2.3 12.704
9.15 -2.3 12.098
9.4 -2.3 11.408
9.65 -2.3 10.751
9.9 -2.3 10.046
10.15 -2.3 9.449
10.4 -2.3 8.66
10.65 -2.3 7.952
10.9 -2.3 7.202
11.15 -2.3 6.521
11.4 -2.3 5.759
11.65 -2.3 5.042
11.9 -2.3 4.277
12.15 -2.3 3.464
12.4 -2.3 2.702
12.65 -2.3 1.895
12.9 -2.3 1.055
13.15 -2.3 0.206
13.4 -2.3 -0.64
13.65 -2.3 -1.537
13.9 -2.3 -2.323
14.15 -2.3 -3.244
14.4 -2.3 -4.12
14.65 -2.3 -5.014
14.9 -2.3 -5.947
15.15 -2.3 -6.85
15.4 -2.3 -7.732
15.65 -2.3 -8.701
15.9 -2.3 -9.658
16.15 -2.3 -10.603
16.4 -2.3 -11.575
16.65 -2.3 -12.568
16.9 -2.3 -13.549
17.15 -2.3 -14.53
17.4 -2.3 -15.532
17.65 -2.3 -16.54
17.9 -2.3 -17.551
18.15 -2.3 -18.547
18.4 -2.3 -19.549
18.65 -2.3 -20.608
18.9 -2.3 -21.646
19.15 -2.3 -22.714
19.4 -2.3 -23.713
19.65 -2.3 -24.781
19.9 -2.3 -25.795
20.15 -2.3 -26.884
20.4 -2.3 -27.991
20.65 -2.3 -29.059
20.9 -2.3 -29.905
21.15 -2.3 -31.261
21.4 -2.3 -32.305
21.65 -2.3 -33.376
21.9 -2.3 -34.288
22.15 -2.3 -35.452
22.4 -2.3 -36.475
22.65 -2.3 -37.762
-31.35 -2.55 -40.912
-30.85 -2.55 -38.89
-30.6 -2.55 -38.14
-30.35 -2.55 -37.09
-30.1 -2.55 -35.767
-29.85 -2.55 -34.972
-29.6 -2.55 -33.955
-29.35 -2.55 -32.935
-29.1 -2.55 -31.876
-28.85 -2.55 -30.874
-28.6 -2.55 -29.851
-28.35 -2.55 -28.885
-28.1 -2.55 -27.841
-27.85 -2.55 -26.77
-27.6 -2.55 -25.771
-27.35 -2.55 -24.748
-27.1 -2.55 -23.722
-26.85 -2.55 -22.735
-26.6 -2.55 -21.739
-26.35 -2.55 -20.722
-26.1 -2.55 -19.789
-25.85 -2.55 -18.811
-25.6 -2.55 -17.815
-25.35 -2.55 -16.852
-25.1 -2.55 -15.871
-24.85 -2.55 -14.887
-24.6 -2.55 -13.942
-24.35 -2.55 -12.967
-24.1 -2.55 -12.025
-23.85 -2.55 -11.074
-23.6 -2.55 -10.162
-23.35 -2.55 -9.238
-23.1 -2.55 -8.356
-22.85 -2.55 -7.405
-22.6 -2.55 -6.499
-22.35 -2.55 -5.569
-22.1 -2.55 -4.705
-21.85 -2.55 -3.847
-21.6 -2.55 -2.983
-21.35 -2.55 -2.131
-21.1 -2.55 -1.267
-20.85 -2.55 -0.466
-20.6 -2.55 0.332
-20.35 -2.55 1.169
-20.1 -2.55 1.94
-19.85 -2.55 2.762
-19.6 -2.55 3.497
-19.35 -2.55 4.238
-19.1 -2.55 4.991
-18.85 -2.55 5.702
-18.6 -2.55 6.461
-18.35 -2.55 7.163
-18.1 -2.55 7.922
-17.85 -2.55 8.618
-17.6 -2.55 9.302
-17.35 -2.55 9.959
-17.1 -2.55 10.661
-16.85 -2.55 11.294
-16.6 -2.55 11.936
-16.35 -2.55 12.587
-16.1 -2.55 13.19
-15.85 -2.55 13.793
-15.6 -2.55 14.405
-15.35 -2.55 15.008
-15.1 -2.55 15.503
-14.85 -2.55 16.109
-14.6 -2.55 16.643
-14.35 -2.55 17.159
-14.1 -2.55 17.696
-13.85 -2.55 18.215
-13.6 -2.55 18.764
-13.35 -2.55 19.214
-13.1 -2.55 19.685
-12.85 -2.55 20.138
-12.6 -2.55 20.615
-12.35 -2.55 21.041
-12.1 -2.55 21.458
-11.85 -2.55 21.86
-11.6 -2.55 22.226
-11.35 -2.55 22.586
-11.1 -2.55 22.958
-10.85 -2.55 23.33
-10.6 -2.55 23.672
-10.35 -2.55 24.005
-10.1 -2.55 24.302
-9.85 -2.55 24.59
-9.6 -2.55 24.896
-9.35 -2.55 25.187
-9.1 -2.55 25.448
-8.85 -2.55 25.67
-8.6 -2.55 25.913
-8.35 -2.55 26.156
-8.1 -2.55 26.348
-7.85 -2.55 26.567
-7.6 -2.55 26.753
-7.35 -2.55 26.909
-7.1 -2.55 27.014
-6.85 -2.55 27.161
-6.6 -2.55 27.317
-6.35 -2.55 27.449
-5.85 -2.55 29.642
-5.6 -2.55 29.675
-5.35 -2.55 29.717
-5.1 -2.55 29.672
-4.85 -2.55 29.693
-4.6 -2.55 29.759
-4.35 -2.55 29.783
-4.1 -2.55 29.834
-3.85 -2.55 29.816
-3.6 -2.55 29.795
-3.35 -2.55 29.777
-3.1 -2.55 29.768
-2.85 -2.55 29.78
-2.6 -2.55 29.753
-2.35 -2.55 29.762
-2.1 -2.55 29.756
-1.85 -2.55 29.738
-1.6 -2.55 29.798
-1.35 -2.55 29.663
-0.85 -2.55 27.449
-0.6 -2.55 27.347
-0.35 -2.55 27.2
-0.1 -2.55 27.059
0.15 -2.55 26.864
0.4 -2.55 26.69
0.65 -2.55 26.513
0.9 -2.55 26.297
1.15 -2.55 26.072
1.4 -2.55 25.865
1.65 -2.55 25.652
1.9 -2.55 25.373
2.15 -2.55 25.085
2.4 -2.55 24.833
2.65 -2.55 24.551
2.9 -2.55 24.221
3.15 -2.55 23.906
3.4 -2.55 23.576
3.65 -2.55 23.204
3.9 -2.55 22.865
4.15 -2.55 22.484
4.4 -2.55 22.094
4.65 -2.55 21.641
4.9 -2.55 21.272
5.15 -2.55 20.84
5.4 -2.55 20.375
5.65 -2.55 19.892
5.9 -2.55 19.478
6.15 -2.55 18.986
6.4 -2.55 18.485
6.65 -2.55 17.942
6.9 -2.55 17.432
7.15 -2.55 16.871
7.4 -2.55 16.31
7.65 -2.55 15.773
7.9 -2.55 15.149
8.15 -2.55 14.567
8.4 -2.55 13.958
8.65 -2.55 13.358
8.9 -2.55 12.71
9.15 -2.55 12.065
9.4 -2.55 11.423
9.65 -2.55 10.745
9.9 -2.55 10.094
10.15 -2.55 9.356
10.4 -2.55 8.672
10.65 -2.55 7.946
10.9 -2.55 7.232
11.15 -2.55 6.551
11.4 -2.55 5.792
11.65 -2.55 5.036
11.9 -2.55 4.268
12.15 -2.55 3.488
12.4 -2.55 2.669
12.65 -2.55 1.877
12.9 -2.55 1.046
13.15 -2.55 0.167
13.4 -2.55 -0.628
13.65 -2.55 -1.516
13.9 -2.55 -2.371
14.15 -2.55 -3.241
14.4 -2.55 -4.141
14.65 -2.55 -5.029
14.9 -2.55 -5.995
15.15 -2.55 -6.859
15.4 -2.55 -7.753
15.65 -2.55 -8.716
15.9 -2.55 -9.646
16.15 -2.55 -10.588
16.4 -2.55 -11.536
16.65 -2.55 -12.544
16.9 -2.55 -13.537
17.15 -2.55 -14.545
17.4 -2.55 -15.517
17.65 -2.55 -16.528
17.9 -2.55 -17.548
18.15 -2.55 -18.508
18.4 -2.55 -19.54
18.65 -2.55 -20.575
18.9 -2.55 -21.616
19.15 -2.55 -22.615
19.4 -2.55 -23.68
19.65 -2.55 -24.766
19.9 -2.55 -25.837
20.15 -2.55 -26.899
20.4 -2.55 -27.958
20.65 -2.55 -29.059
20.9 -2.55 -30.124
21.15 -2.55 -31.228
21.4 -2.55 -32.344
21.65 -2.55 -33.358
21.9 -2.55 -34.513
22.15 -2.55 -35.632
22.4 -2.55 -37.09
22.65 -2.55 -37.99
-30.85 -2.8 -38.821
-30.6 -2.8 -38.17
-30.35 -2.8 -37.099
-30.1 -2.8 -36.061
-29.85 -2.8 -35.041
-29.6 -2.8 -33.979
-29.35 -2.8 -32.998
-29.1 -2.8 -31.987
-28.85 -2.8 -30.85
-28.6 -2.8 -29.866
-28.35 -2.8 -28.894
-28.1 -2.8 -27.853
-27.85 -2.8 -26.812
-27.6 -2.8 -25.777
-27.35 -2.8 -24.775
-27.1 -2.8 -23.776
-26.85 -2.8 -22.762
-26.6 -2.8 -21.739
-26.35 -2.8 -20.779
-26.1 -2.8 -19.825
-25.85 -2.8 -18.808
-25.6 -2.8 -17.8
-25.35 -2.8 -16.843
-25.1 -2.8 -15.901
-24.85 -2.8 -14.896
-24.6 -2.8 -13.936
-24.35 -2.8 -12.982
-24.1 -2.8 -12.037
-23.85 -2.8 -11.122
-23.6 -2.8 -10.177
-23.35 -2.8 -9.244
-23.1 -2.8 -8.353
-22.85 -2.8 -7.408
-22.6 -2.8 -6.499
-22.35 -2.8 -5.632
-22.1 -2.8 -4.72
-21.85 -2.8 -3.862
-21.6 -2.8 -2.98
-21.35 -2.8 -2.152
-21.1 -2.8 -1.294
-20.85 -2.8 -0.481
-20.6 -2.8 0.326
-20.35 -2.8 1.142
-20.1 -2.8 1.922
-19.85 -2.8 2.702
-19.6 -2.8 3.485
-19.35 -2.8 4.247
-19.1 -2.8 4.976
-18.85 -2.8 5.696
-18.6 -2.8 6.449
-18.35 -2.8 7.145
-18.1 -2.8 7.862
-17.85 -2.8 8.594
-17.6 -2.8 9.296
-17.35 -2.8 9.956
-17.1 -2.8 10.616
-16.85 -2.8 11.303
-16.6 -2.8 11.96
-16.35 -2.8 12.572
-16.1 -2.8 13.172
-15.85 -2.8 13.802
-15.6 -2.8 14.402
-15.35 -2.8 14.978
-15.1 -2.8 15.527
-14.85 -2.8 16.097
-14.6 -2.8 16.625
-14.35 -2.8 17.18
-14.1 -2.8 17.696
-13.85 -2.8 18.203
-13.6 -2.8 18.698
-13.35 -2.8 19.178
-13.1 -2.8 19.631
-12.85 -2.8 20.135
-12.6 -2.8 20.597
-12.35 -2.8 21.032
-12.1 -2.8 21.449
-11.85 -2.8 21.878
-11.6 -2.8 22.25
-11.35 -2.8 22.634
-11.1 -2.8 23.0
-10.85 -2.8 23.354
-10.6 -2.8 23.696
-10.35 -2.8 24.011
-10.1 -2.8 24.314
-9.85 -2.8 24.626
-9.6 -2.8 24.884
-9.35 -2.8 25.157
-9.1 -2.8 25.442
-8.85 -2.8 25.688
-8.6 -2.8 25.916
-8.35 -2.8 26.15
-8.1 -2.8 26.357
-7.85 -2.8 26.54
-7.6 -2.8 26.744
-7.35 -2.8 26.915
-7.1 -2.8 27.026
-6.85 -2.8 27.203
-6.6 -2.8 27.341
-6.35 -2.8 27.494
-5.85 -2.8 29.648
-5.6 -2.8 29.69
-5.35 -2.8 29.72
-5.1 -2.8 29.774
-4.85 -2.8 29.78
-4.6 -2.8 29.78
-4.35 -2.8 29.756
-4.1 -2.8 29.75
-3.85 -2.8 29.756
-3.6 -2.8 29.771
-3.35 -2.8 29.768
-3.1 -2.8 29.789
-2.85 -2.8 29.783
-2.6 -2.8 29.726
-2.35 -2.8 29.753
-2.1 -2.8 29.732
-1.85 -2.8 29.666
-1.6 -2.8 29.669
-1.35 -2.8 29.639
-0.85 -2.8 27.461
-0.6 -2.8 27.356
-0.35 -2.8 27.161
-0.1 -2.8 26.996
0.15 -2.8 26.864
0.4 -2.8 26.708
0.65 -2.8 26.498
0.9 -2.8 26.306
1.15 -2.8 26.078
1.4 -2.8 25.853
1.65 -2.8 25.616
1.9 -2.8 25.37
2.15 -2.8 25.139
2.4 -2.8 24.836
2.65 -2.8 24.533
2.9 -2.8 24.233
3.15 -2.8 23.939
3.4 -2.8 23.567
3.65 -2.8 23.228
3.9 -2.8 22.865
4.15 -2.8 22.46
4.4 -2.8 22.061
4.65 -2.8 21.653
4.9 -2.8 21.215
5.15 -2.8 20.813
5.4 -2.8 20.372
5.65 -2.8 19.91
5.9 -2.8 19.439
6.15 -2.8 18.95
6.4 -2.8 18.446
6.65 -2.8 17.927
6.9 -2.8 17.438
7.15 -2.8 16.862
7.4 -2.8 16.295
7.65 -2.8 15.71
7.9 -2.8 15.146
8.15 -2.8 14.561
8.4 -2.8 13.964
8.65 -2.8 13.34
8.9 -2.8 12.716
9.15 -2.8 12.092
9.4 -2.8 11.429
9.65 -2.8 10.772
9.9 -2.8 10.085
10.15 -2.8 9.38
10.4 -2.8 8.69
10.65 -2.8 7.994
10.9 -2.8 7.244
11.15 -2.8 6.533
11.4 -2.8 5.774
11.65 -2.8 5.024
11.9 -2.8 4.28
12.15 -2.8 3.467
12.4 -2.8 2.669
12.65 -2.8 1.859
12.9 -2.8 1.01
13.15 -2.8 0.182
13.4 -2.8 -0.64
13.65 -2.8 -1.486
13.9 -2.8 -2.38
14.15 -2.8 -3.259
14.4 -2.8 -4.147
14.65 -2.8 -5.02
14.9 -2.8 -5.977
15.15 -2.8 -6.871
15.4 -2.8 -7.765
15.65 -2.8 -8.704
15.9 -2.8 -9.64
16.15 -2.8 -10.606
16.4 -2.8 -11.578
16.65 -2.8 -12.538
16.9 -2.8 -13.528
17.15 -2.8 -14.554
17.4 -2.8 -15.526
17.65 -2.8 -16.495
17.9 -2.8 -17.533
18.15 -2.8 -18.544
18.4 -2.8 -19.534
18.65 -2.8 -20.584
18.9 -2.8 -21.589
19.15 -2.8 -22.648
19.4 -2.8 -23.698
19.65 -2.8 -24.763
19.9 -2.8 -25.798
20.15 -2.8 -26.878
20.4 -2.8 -27.964
20.65 -2.8 -29.056
20.9 -2.8 -30.103
21.15 -2.8 -31.27
21.4 -2.8 -32.35
21.65 -2.8 -33.454
21.9 -2.8 -34.546
22.15 -2.8 -35.698
22.4 -2.8 -36.781
-30.85 -3.05 -38.89
-30.6 -3.05 -38.173
-30.35 -3.05 -36.778
-30.1 -3.05 -36.031
-29.85 -3.05 -35.008
-29.6 -3.05 -34.012
-29.35 -3.05 -32.971
-29.1 -3.05 -31.903
-28.85 -3.05 -30.886
-28.6 -3.05 -29.902
-28.35 -3.05 -28.93
-28.1 -3.05 -27.856
-27.85 -3.05 -26.824
-27.6 -3.05 -25.744
-27.35 -3.05 -24.745
-27.1 -3.05 -23.767
-26.85 -3.05 -22.777
-26.6 -3.05 -21.745
-26.35 -3.05 -20.77
-26.1 -3.05 -19.768
-25.85 -3.05 -18.835
-25.6 -3.05 -17.806
-25.35 -3.05 -16.801
-25.1 -3.05 -15.88
-24.85 -3.05 -14.956
-24.6 -3.05 -13.933
-24.35 -3.05 -12.985
-24.1 -3.05 -12.025
-23.85 -3.05 -11.113
-23.6 -3.05 -10.204
-23.35 -3.05 -9.259
-23.1 -3.05 -8.398
-22.85 -3.05 -7.417
-22.6 -3.05 -6.535
-22.35 -3.05 -5.617
-22.1 -3.05 -4.726
-21.85 -3.05 -3.829
-21.6 -3.05 -3.004
-21.35 -3.05 -2.134
-21.1 -3.05 -1.309
-20.85 -3.05 -0.487
-20.6 -3.05 0.335
-20.35 -3.05 1.148
-20.1 -3.05 1.928
-19.85 -3.05 2.702
-19.6 -3.05 3.473
-19.35 -3.05 4.253
-19.1 -3.05 5.003
-18.85 -3.05 5.72
-18.6 -3.05 6.434
-18.35 -3.05 7.163
-18.1 -3.05 7.871
-17.85 -3.05 8.579
-17.6 -3.05 9.257
-17.35 -3.05 9.965
-17.1 -3.05 10.604
-16.85 -3.05 11.276
-16.6 -3.05 11.942
-16.35 -3.05 12.563
-16.1 -3.05 13.166
-15.85 -3.05 13.772
-15.6 -3.05 14.321
-15.35 -3.05 15.008
-15.1 -3.05 15.572
-14.85 -3.05 16.121
-14.6 -3.05 16.619
-14.35 -3.05 17.171
-14.1 -3.05 17.663
-13.85 -3.05 18.185
-13.6 -3.05 18.701
-13.35 -3.05 19.193
-13.1 -3.05 19.661
-12.85 -3.05 20.138
-12.6 -3.05 20.561
-12.35 -3.05 21.023
-12.1 -3.05 21.437
-11.85 -3.05 21.833
-11.6 -3.05 22.241
-11.35 -3.05 22.637
-11.1 -3.05 22.949
-10.85 -3.05 23.327
-10.6 -3.05 23.645
-10.35 -3.05 23.999
-10.1 -3.05 24.263
-9.85 -3.05 24.554
-9.6 -3.05 24.878
-9.35 -3.05 25.166
-9.1 -3.05 25.418
-8.85 -3.05 25.697
-8.6 -3.05 25.892
-8.35 -3.05 26.147
-8.1 -3.05 26.354
-7.85 -3.05 26.561
-7.6 -3.05 26.717
-7.35 -3.05 26.888
-7.1 -3.05 27.017
-6.85 -3.05 27.161
-6.6 -3.05 27.341
-6.35 -3.05 27.449
-5.85 -3.05 29.597
-5.6 -3.05 29.615
-5.35 -3.05 29.657
-5.1 -3.05 29.693
-4.85 -3.05 29.771
-4.6 -3.05 29.753
-4.35 -3.05 29.765
-4.1 -3.05 29.78
-3.85 -3.05 29.768
-3.6 -3.05 29.78
-3.35 -3.05 29.732
-3.1 -3.05 29.75
-2.85 -3.05 29.795
-2.6 -3.05 29.777
-2.35 -3.05 29.705
-2.1 -3.05 29.663
-1.85 -3.05 29.651
-1.6 -3.05 29.642
-1.35 -3.05 29.546
-0.85 -3.05 27.437
-0.6 -3.05 27.305
-0.35 -3.05 27.173
-0.1 -3.05 27.011
0.15 -3.05 26.87
0.4 -3.05 26.675
0.65 -3.05 26.492
0.9 -3.05 26.273
1.15 -3.05 26.054
1.4 -3.05 25.868
1.65 -3.05 25.613
1.9 -3.05 25.361
2.15 -3.05 25.106
2.4 -3.05 24.833
2.65 -3.05 24.518
2.9 -3.05 24.203
3.15 -3.05 23.906
3.4 -3.05 23.555
3.65 -3.05 23.213
3.9 -3.05 22.853
4.15 -3.05 22.466
4.4 -3.05 22.073
4.65 -3.05 21.671
4.9 -3.05 21.236
5.15 -3.05 20.807
5.4 -3.05 20.336
5.65 -3.05 19.895
5.9 -3.05 19.427
6.15 -3.05 18.935
6.4 -3.05 18.428
6.65 -3.05 17.906
6.9 -3.05 17.396
7.15 -3.05 16.82
7.4 -3.05 16.289
7.65 -3.05 15.746
7.9 -3.05 15.116
8.15 -3.05 14.552
8.4 -3.05 13.946
8.65 -3.05 13.304
8.9 -3.05 12.692
9.15 -3.05 12.071
9.4 -3.05 11.411
9.65 -3.05 10.73
9.9 -3.05 10.079
10.15 -3.05 9.392
10.4 -3.05 8.729
10.65 -3.05 7.988
10.9 -3.05 7.241
11.15 -3.05 6.5
11.4 -3.05 5.759
11.65 -3.05 5.0
11.9 -3.05 4.238
12.15 -3.05 3.47
12.4 -3.05 2.678
12.65 -3.05 1.865
12.9 -3.05 0.962
13.15 -3.05 0.161
13.4 -3.05 -0.688
13.65 -3.05 -1.492
13.9 -3.05 -2.41
14.15 -3.05 -3.265
14.4 -3.05 -4.153
14.65 -3.05 -5.062
14.9 -3.05 -5.947
15.15 -3.05 -6.901
15.4 -3.05 -7.798
15.65 -3.05 -8.725
15.9 -3.05 -9.673
16.15 -3.05 -10.642
16.4 -3.05 -11.581
16.65 -3.05 -12.562
16.9 -3.05 -13.549
17.15 -3.05 -14.551
17.4 -3.05 -15.541
17.65 -3.05 -16.552
17.9 -3.05 -17.566
18.15 -3.05 -18.562
18.4 -3.05 -19.567
18.65 -3.05 -20.608
18.9 -3.05 -21.637
19.15 -3.05 -22.675
19.4 -3.05 -23.746
19.65 -3.05 -24.787
19.9 -3.05 -25.813
20.15 -3.05 -26.965
20.4 -3.05 -28.0
20.65 -3.05 -29.08
20.9 -3.05 -30.136
21.15 -3.05 -31.282
21.4 -3.05 -32.35
21.65 -3.05 -33.448
22.15 -3.05 -35.647
22.4 -3.05 -36.517
22.65 -3.05 -37.624
-30.85 -3.3 -39.196
-30.6 -3.3 -38.227
-30.35 -3.3 -37.135
-30.1 -3.3 -36.025
-29.85 -3.3 -34.957
-29.6 -3.3 -33.91
-29.35 -3.3 -32.968
-29.1 -3.3 -31.948
-28.85 -3.3 -30.886
-28.6 -3.3 -29.86
-28.35 -3.3 -28.9
-28.1 -3.3 -27.829
-27.85 -3.3 -26.812
-27.6 -3.3 -25.771
-27.35 -3.3 -24.781
-27.1 -3.3 -23.788
-26.85 -3.3 -22.726
-26.6 -3.3 -21.769
-26.35 -3.3 -20.749
-26.1 -3.3 -19.771
-25.85 -3.3 -18.796
-25.6 -3.3 -17.812
-25.35 -3.3 -16.792
-25.1 -3.3 -15.913
-24.85 -3.3 -14.893
-24.6 -3.3 -13.9
-24.35 -3.3 -12.949
-24.1 -3.3 -12.028
-23.85 -3.3 -11.113
-23.6 -3.3 -10.159
-23.35 -3.3 -9.253
-23.1 -3.3 -8.332
-22.85 -3.3 -7.369
-22.6 -3.3 -6.526
-22.35 -3.3 -5.602
-22.1 -3.3 -4.699
-21.85 -3.3 -3.862
-21.6 -3.3 -3.022
-21.35 -3.3 -2.137
-21.1 -3.3 -1.294
-20.85 -3.3 -0.472
-20.6 -3.3 0.329
-20.35 -3.3 1.127
-20.1 -3.3 1.922
-19.85 -3.3 2.717
-19.6 -3.3 3.464
-19.35 -3.3 4.238
-19.1 -3.3 4.964
-18.85 -3.3 5.723
-18.6 -3.3 6.431
-18.35 -3.3 7.16
-18.1 -3.3 7.85
-17.85 -3.3 8.525
-17.6 -3.3 9.287
-17.35 -3.3 9.947
-17.1 -3.3 10.625
-16.85 -3.3 11.288
-16.6 -3.3 11.945
-16.35 -3.3 12.575
-16.1 -3.3 13.19
-15.85 -3.3 13.826
-15.6 -3.3 14.435
-15.35 -3.3 14.969
-15.1 -3.3 15.512
-14.85 -3.3 16.1
-14.6 -3.3 16.589
-14.35 -3.3 17.15
-14.1 -3.3 17.696
-13.85 -3.3 18.242
-13.6 -3.3 18.692
-13.35 -3.3 19.181
-13.1 -3.3 19.661
-12.85 -3.3 20.12
-12.6 -3.3 20.57
-12.35 -3.3 20.993
-12.1 -3.3 21.44
-11.85 -3.3 21.86
-11.6 -3.3 22.208
-11.35 -3.3 22.637
-11.1 -3.3 22.988
-10.85 -3.3 23.372
-10.6 -3.3 23.708
-10.35 -3.3 23.933
-10.1 -3.3 24.281
-9.85 -3.3 24.569
-9.6 -3.3 24.854
-9.35 -3.3 25.142
-9.1 -3.3 25.394
-8.85 -3.3 25.646
-8.6 -3.3 25.88
-8.35 -3.3 26.15
-8.1 -3.3 26.369
-7.85 -3.3 26.57
-7.6 -3.3 26.723
-7.35 -3.3 26.897
-7.1 -3.3 27.056
-6.85 -3.3 27.182
-6.6 -3.3 27.317
-6.35 -3.3 27.482
-5.85 -3.3 29.534
-5.6 -3.3 29.591
-5.35 -3.3 29.666
-5.1 -3.3 29.684
-4.85 -3.3 29.648
-4.6 -3.3 29.666
-4.35 -3.3 29.681
-4.1 -3.3 29.708
-3.85 -3.3 29.699
-3.6 -3.3 29.747
-3.35 -3.3 29.765
-3.1 -3.3 29.756
-2.85 -3.3 29.711
-2.6 -3.3 29.717
-2.35 -3.3 29.687
-2.1 -3.3 29.687
-1.85 -3.3 29.681
-1.6 -3.3 29.639
-1.35 -3.3 29.648
-0.85 -3.3 27.431
-0.6 -3.3 27.329
-0.35 -3.3 27.176
-0.1 -3.3 26.996
0.15 -3.3 26.804
0.4 -3.3 26.66
0.65 -3.3 26.504
0.9 -3.3 26.258
1.15 -3.3 26.078
1.4 -3.3 25.886
1.65 -3.3 25.637
1.9 -3.3 25.373
2.15 -3.3 25.148
2.4 -3.3 24.842
2.65 -3.3 24.533
2.9 -3.3 24.209
3.15 -3.3 23.876
3.4 -3.3 23.516
3.65 -3.3 23.213
3.9 -3.3 22.829
4.15 -3.3 22.439
4.4 -3.3 22.076
4.65 -3.3 21.656
4.9 -3.3 21.233
5.15 -3.3 20.759
5.4 -3.3 20.312
5.65 -3.3 19.88
5.9 -3.3 19.427
6.15 -3.3 18.932
6.4 -3.3 18.443
6.65 -3.3 17.903
6.9 -3.3 17.375
7.15 -3.3 16.832
7.4 -3.3 16.277
7.65 -3.3 15.716
7.9 -3.3 15.128
8.15 -3.3 14.549
8.4 -3.3 13.946
8.65 -3.3 13.331
8.9 -3.3 12.692
9.15 -3.3 12.038
9.4 -3.3 11.42
9.65 -3.3 10.784
9.9 -3.3 10.079
10.15 -3.3 9.41
10.4 -3.3 8.612
10.65 -3.3 7.955
10.9 -3.3 7.217
11.15 -3.3 6.488
11.4 -3.3 5.768
11.65 -3.3 4.997
11.9 -3.3 4.22
12.15 -3.3 3.452
12.4 -3.3 2.654
12.65 -3.3 1.82
12.9 -3.3 0.989
13.15 -3.3 0.14
13.4 -3.3 -0.667
13.65 -3.3 -1.549
13.9 -3.3 -2.425
14.15 -3.3 -3.304
14.4 -3.3 -4.174
14.65 -3.3 -5.053
14.9 -3.3 -5.95
15.15 -3.3 -6.934
15.4 -3.3 -7.828
15.65 -3.3 -8.755
15.9 -3.3 -9.697
16.15 -3.3 -10.627
16.4 -3.3 -11.587
16.65 -3.3 -12.628
16.9 -3.3 -13.567
17.15 -3.3 -14.56
17.4 -3.3 -15.562
17.65 -3.3 -16.6
17.9 -3.3 -17.557
18.15 -3.3 -18.607
18.4 -3.3 -19.567
18.65 -3.3 -20.59
18.9 -3.3 -21.667
19.15 -3.3 -22.657
19.4 -3.3 -23.728
19.65 -3.3 -24.814
19.9 -3.3 -25.885
20.15 -3.3 -26.944
20.4 -3.3 -28.027
20.65 -3.3 -29.098
20.9 -3.3 -30.208
21.15 -3.3 -31.285
21.4 -3.3 -32.368
21.65 -3.3 -33.193
21.9 -3.3 -34.276
22.15 -3.3 -35.491
22.4 -3.3 -36.448
22.65 -3.3 -37.564
-30.85 -3.55 -39.103
-30.35 -3.55 -36.931
-30.1 -3.55 -35.728
-29.85 -3.55 -34.906
-29.6 -3.55 -33.904
-29.35 -3.55 -32.866
-29.1 -3.55 -31.909
-28.85 -3.55 -30.886
-28.6 -3.55 -29.839
-28.35 -3.55 -28.831
-28.1 -3.55 -27.79
-27.85 -3.55 -26.764
-27.6 -3.55 -25.759
-27.35 -3.55 -24.787
-27.1 -3.55 -23.788
-26.85 -3.55 -22.783
-26.6 -3.55 -21.751
-26.35 -3.55 -20.761
-26.1 -3.55 -19.759
-25.85 -3.55 -18.802
-25.6 -3.55 -17.815
-25.35 -3.55 -16.84
-25.1 -3.55 -15.865
-24.85 -3.55 -14.923
-24.6 -3.55 -13.921
-24.35 -3.55 -12.952
-24.1 -3.55 -12.046
-23.85 -3.55 -11.077
-23.6 -3.55 -10.132
-23.35 -3.55 -9.241
-23.1 -3.55 -8.296
-22.85 -3.55 -7.405
-22.6 -3.55 -6.502
-22.35 -3.55 -5.617
-22.1 -3.55 -4.711
-21.85 -3.55 -3.814
-21.6 -3.55 -2.986
-21.35 -3.55 -2.113
-21.1 -3.55 -1.282
-20.85 -3.55 -0.46
-20.6 -3.55 0.359
-20.35 -3.55 1.181
-20.1 -3.55 1.922
-19.85 -3.55 2.696
-19.6 -3.55 3.482
-19.35 -3.55 4.235
-19.1 -3.55 5.0
-18.85 -3.55 5.705
-18.6 -3.55 6.419
-18.35 -3.55 7.16
-18.1 -3.55 7.907
-17.85 -3.55 8.594
-17.6 -3.55 9.278
-17.35 -3.55 9.941
-17.1 -3.55 10.619
-16.85 -3.55 11.303
-16.6 -3.55 11.918
-16.35 -3.55 12.557
-16.1 -3.55 13.175
-15.85 -3.55 13.805
-15.6 -3.55 14.396
-15.35 -3.55 14.984
-15.1 -3.55 15.512
-14.85 -3.55 16.103
-14.6 -3.55 16.646
-14.35 -3.55 17.192
-14.1 -3.55 17.69
-13.85 -3.55 18.182
-13.6 -3.55 18.698
-13.35 -3.55 19.184
-13.1 -3.55 19.655
-12.85 -3.55 20.135
-12.6 -3.55 20.594
-12.35 -3.55 21.029
-12.1 -3.55 21.44
-11.85 -3.55 21.842
-11.6 -3.55 22.229
-11.35 -3.55 22.634
-11.1 -3.55 22.97
-10.85 -3.55 23.348
-10.6 -3.55 23.678
-10.35 -3.55 24.131
-10.1 -3.55 24.305
-9.85 -3.55 24.587
-9.6 -3.55 24.878
-9.35 -3.55 25.214
-9.1 -3.55 25.451
-8.85 -3.55 25.661
-8.6 -3.55 25.913
-8.35 -3.55 26.138
-8.1 -3.55 26.33
-7.85 -3.55 26.54
-7.6 -3.55 26.729
-7.35 -3.55 26.897
-7.1 -3.55 27.026
-6.85 -3.55 27.179
-6.6 -3.55 27.344
-6.35 -3.55 27.428
-5.85 -3.55 29.477
-5.6 -3.55 29.612
-5.35 -3.55 29.654
-5.1 -3.55 29.636
-4.85 -3.55 29.687
-4.6 -3.55 29.72
-4.35 -3.55 29.723
-4.1 -3.55 29.798
-3.85 -3.55 29.843
-3.6 -3.55 29.759
-3.35 -3.55 29.711
-3.1 -3.55 29.699
-2.85 -3.55 29.717
-2.6 -3.55 29.693
-2.35 -3.55 29.732
-2.1 -3.55 29.687
-1.85 -3.55 29.624
-1.6 -3.55 29.657
-1.35 -3.55 29.606
-0.85 -3.55 27.431
-0.6 -3.55 27.299
-0.35 -3.55 27.143
-0.1 -3.55 27.023
0.15 -3.55 26.873
0.4 -3.55 26.693
0.65 -3.55 26.492
0.9 -3.55 26.321
1.15 -3.55 26.075
1.4 -3.55 25.856
1.65 -3.55 25.616
1.9 -3.55 25.385
2.15 -3.55 25.073
2.4 -3.55 24.794
2.65 -3.55 24.509
2.9 -3.55 24.191
3.15 -3.55 23.906
3.4 -3.55 23.564
3.65 -3.55 23.207
3.9 -3.55 22.838
4.15 -3.55 22.439
4.4 -3.55 22.064
4.65 -3.55 21.632
4.9 -3.55 21.242
5.15 -3.55 20.807
5.4 -3.55 20.396
5.65 -3.55 19.853
5.9 -3.55 19.418
6.15 -3.55 18.911
6.4 -3.55 18.452
6.65 -3.55 17.912
6.9 -3.55 17.363
7.15 -3.55 16.85
7.4 -3.55 16.304
7.65 -3.55 15.707
7.9 -3.55 15.128
8.15 -3.55 14.531
8.4 -3.55 13.931
8.65 -3.55 13.334
8.9 -3.55 12.668
9.15 -3.55 12.044
9.4 -3.55 11.435
9.65 -3.55 10.748
9.9 -3.55 10.022
10.15 -3.55 9.323
10.4 -3.55 8.678
10.65 -3.55 7.982
10.9 -3.55 7.196
11.15 -3.55 6.503
11.4 -3.55 5.777
11.65 -3.55 5.018
11.9 -3.55 4.232
12.15 -3.55 3.464
12.4 -3.55 2.633
12.65 -3.55 1.82
12.9 -3.55 0.974
13.15 -3.55 0.164
13.4 -3.55 -0.664
13.65 -3.55 -1.582
13.9 -3.55 -2.413
14.15 -3.55 -3.262
14.4 -3.55 -4.183
14.65 -3.55 -5.056
14.9 -3.55 -5.992
15.15 -3.55 -6.946
15.4 -3.55 -7.822
15.65 -3.55 -8.743
15.9 -3.55 -9.715
16.15 -3.55 -10.639
16.4 -3.55 -11.602
16.65 -3.55 -12.586
16.9 -3.55 -13.594
17.15 -3.55 -14.521
17.4 -3.55 -15.553
17.65 -3.55 -16.588
17.9 -3.55 -17.602
18.15 -3.55 -18.571
18.4 -3.55 -19.564
18.65 -3.55 -20.635
18.9 -3.55 -21.643
19.15 -3.55 -22.693
19.4 -3.55 -23.737
19.65 -3.55 -24.772
19.9 -3.55 -25.849
20.15 -3.55 -26.974
20.4 -3.55 -28.036
20.65 -3.55 -29.101
20.9 -3.55 -30.208
21.15 -3.55 -31.381
21.4 -3.55 -32.218
21.65 -3.55 -33.256
22.9 -3.55 -38.74
-31.1 -3.8 -39.931
-30.85 -3.8 -38.98
-30.6 -3.8 -37.867
-30.35 -3.8 -36.763
-30.1 -3.8 -35.674
-29.85 -3.8 -34.978
-29.6 -3.8 -33.931
-29.35 -3.8 -32.917
-29.1 -3.8 -31.885
-28.85 -3.8 -30.874
-28.6 -3.8 -29.884
-28.35 -3.8 -28.894
-28.1 -3.8 -27.796
-27.85 -3.8 -26.797
-27.6 -3.8 -25.81
-27.35 -3.8 -24.727
-27.1 -3.8 -23.758
-26.85 -3.8 -22.786
-26.6 -3.8 -21.721
-26.35 -3.8 -20.758
-26.1 -3.8 -19.777
-25.85 -3.8 -18.778
-25.6 -3.8 -17.803
-25.35 -3.8 -16.792
-25.1 -3.8 -15.841
-24.85 -3.8 -14.914
-24.6 -3.8 -13.942
-24.35 -3.8 -12.973
-24.1 -3.8 -12.022
-23.85 -3.8 -11.128
-23.6 -3.8 -10.141
-23.35 -3.8 -9.253
-23.1 -3.8 -8.344
-22.85 -3.8 -7.417
-22.6 -3.8 -6.565
-22.35 -3.8 -5.596
-22.1 -3.8 -4.681
-21.85 -3.8 -3.844
-21.6 -3.8 -2.989
-21.35 -3.8 -2.137
-21.1 -3.8 -1.297
-20.85 -3.8 -0.454
-20.6 -3.8 0.359
-20.35 -3.8 1.142
-20.1 -3.8 1.919
-19.85 -3.8 2.678
-19.6 -3.8 3.494
-19.35 -3.8 4.235
-19.1 -3.8 4.997
-18.85 -3.8 5.741
-18.6 -3.8 6.434
-18.35 -3.8 7.169
-18.1 -3.8 7.817
-17.85 -3.8 8.585
-17.6 -3.8 9.299
-17.35 -3.8 9.941
-17.1 -3.8 10.631
-16.85 -3.8 11.273
-16.6 -3.8 11.933
-16.35 -3.8 12.551
-16.1 -3.8 13.151
-15.85 -3.8 13.766
-15.6 -3.8 14.399
-15.35 -3.8 14.981
-15.1 -3.8 15.536
-14.85 -3.8 16.097
-14.6 -3.8 16.628
-14.35 -3.8 17.198
-14.1 -3.8 17.69
-13.85 -3.8 18.188
-13.6 -3.8 18.719
-13.35 -3.8 19.193
-13.1 -3.8 19.652
-12.85 -3.8 20.105
-12.6 -3.8 20.591
-12.35 -3.8 21.02
-12.1 -3.8 21.416
-11.85 -3.8 21.857
-11.6 -3.8 22.256
-11.35 -3.8 22.631
-11.1 -3.8 22.976
-10.85 -3.8 23.318
-10.6 -3.8 23.636
-10.35 -3.8 23.951
-10.1 -3.8 24.269
-9.85 -3.8 24.578
-9.6 -3.8 24.863
-9.35 -3.8 25.16
-9.1 -3.8 25.448
-8.85 -3.8 25.703
-8.6 -3.8 25.937
-8.35 -3.8 26.132
-8.1 -3.8 26.342
-7.85 -3.8 26.525
-7.6 -3.8 26.717
-7.35 -3.8 26.891
-7.1 -3.8 27.041
-6.85 -3.8 27.17
-6.6 -3.8 27.305
-6.35 -3.8 27.434
-5.85 -3.8 29.582
-5.6 -3.8 29.609
-5.35 -3.8 29.63
-5.1 -3.8 29.663
-4.85 -3.8 29.648
-4.6 -3.8 29.729
-4.35 -3.8 29.753
-4.1 -3.8 29.696
-3.85 -3.8 29.639
-3.6 -3.8 29.696
-3.35 -3.8 29.687
-3.1 -3.8 29.669
-2.85 -3.8 29.663
-2.6 -3.8 29.69
-2.35 -3.8 29.675
-2.1 -3.8 29.672
-1.85 -3.8 29.648
-1.6 -3.8 29.6
-1.35 -3.8 29.567
-1.1 -3.8 27.737
-0.85 -3.8 27.449
-0.6 -3.8 27.281
-0.35 -3.8 27.164
-0.1 -3.8 26.987
0.15 -3.8 26.864
0.4 -3.8 26.663
0.65 -3.8 26.456
0.9 -3.8 26.279
1.15 -3.8 26.075
1.4 -3.8 25.838
1.65 -3.8 25.64
1.9 -3.8 25.346
2.15 -3.8 25.079
2.4 -3.8 24.824
2.65 -3.8 24.518
2.9 -3.8 24.212
3.15 -3.8 23.912
3.4 -3.8 23.564
3.65 -3.8 23.216
3.9 -3.8 22.832
4.15 -3.8 22.406
4.4 -3.8 22.019
4.65 -3.8 21.644
4.9 -3.8 21.245
5.15 -3.8 20.774
5.4 -3.8 20.324
5.65 -3.8 19.895
5.9 -3.8 19.412
6.15 -3.8 18.896
6.4 -3.8 18.401
6.65 -3.8 17.906
6.9 -3.8 17.381
7.15 -3.8 16.823
7.4 -3.8 16.274
7.65 -3.8 15.692
7.9 -3.8 15.143
8.15 -3.8 14.516
8.4 -3.8 13.919
8.65 -3.8 13.34
8.9 -3.8 12.686
9.15 -3.8 12.047
9.4 -3.8 11.405
9.65 -3.8 10.739
9.9 -3.8 10.067
10.15 -3.8 9.353
10.4 -3.8 8.66
10.65 -3.8 7.955
10.9 -3.8 7.232
11.15 -3.8 6.527
11.4 -3.8 5.774
11.65 -3.8 5.006
11.9 -3.8 4.226
12.15 -3.8 3.422
12.4 -3.8 2.633
12.65 -3.8 1.805
12.9 -3.8 0.977
13.15 -3.8 0.167
13.4 -3.8 -0.664
13.65 -3.8 -1.57
13.9 -3.8 -2.416
14.15 -3.8 -3.274
14.4 -3.8 -4.183
14.65 -3.8 -5.056
14.9 -3.8 -6.019
15.15 -3.8 -6.901
15.4 -3.8 -7.819
15.65 -3.8 -8.758
15.9 -3.8 -9.73
16.15 -3.8 -10.66
16.4 -3.8 -11.593
16.65 -3.8 -12.589
16.9 -3.8 -13.594
17.15 -3.8 -14.551
17.4 -3.8 -15.538
17.65 -3.8 -16.552
17.9 -3.8 -17.569
18.15 -3.8 -18.568
18.4 -3.8 -19.576
18.65 -3.8 -20.611
18.9 -3.8 -21.682
19.15 -3.8 -22.678
19.4 -3.8 -23.692
19.65 -3.8 -24.805
19.9 -3.8 -25.897
20.15 -3.8 -26.974
20.4 -3.8 -28.048
20.65 -3.8 -29.071
20.9 -3.8 -30.148
21.15 -3.8 -31.33
21.4 -3.8 -32.341
21.65 -3.8 -33.412
-31.1 -4.05 -39.877
-30.85 -4.05 -38.845
-30.6 -4.05 -37.87
-30.35 -4.05 -36.745
-30.1 -4.05 -35.998
-29.85 -4.05 -35.02
-29.6 -4.05 -33.937
-29.35 -4.05 -32.845
-29.1 -4.05 -31.873
-28.85 -4.05 -30.892
-28.6 -4.05 -29.857
-28.35 -4.05 -28.825
-28.1 -4.05 -27.814
-27.85 -4.05 -26.779
-27.6 -4.05 -25.768
-27.35 -4.05 -24.793
-27.1 -4.05 -23.767
-26.85 -4.05 -22.789
-26.6 -4.05 -21.772
-26.35 -4.05 -20.779
-26.1 -4.05 -19.792
-25.85 -4.05 -18.757
-25.6 -4.05 -17.788
-25.35 -4.05 -16.834
-25.1 -4.05 -15.889
-24.85 -4.05 -14.914
-24.6 -4.05 -13.96
-24.35 -4.05 -12.976
-24.1 -4.05 -12.067
-23.85 -4.05 -11.119
-23.6 -4.05 -10.198
-23.35 -4.05 -9.232
-23.1 -4.05 -8.359
-22.85 -4.05 -7.423
-22.6 -4.05 -6.511
-22.35 -4.05 -5.578
-22.1 -4.05 -4.738
-21.85 -4.05 -3.853
-21.6 -4.05 -3.01
-21.35 -4.05 -2.17
-21.1 -4.05 -1.312
-20.85 -4.05 -0.466
-20.6 -4.05 0.365
-20.35 -4.05 1.142
-20.1 -4.05 1.895
-19.85 -4.05 2.699
-19.6 -4.05 3.467
-19.35 -4.05 4.199
-19.1 -4.05 4.952
-18.85 -4.05 5.72
-18.6 -4.05 6.422
-18.35 -4.05 7.163
-18.1 -4.05 7.853
-17.85 -4.05 8.564
-17.6 -4.05 9.269
-17.35 -4.05 9.938
-17.1 -4.05 10.604
-16.85 -4.05 11.291
-16.6 -4.05 11.924
-16.35 -4.05 12.53
-16.1 -4.05 13.139
-15.85 -4.05 13.769
-15.6 -4.05 14.378
-15.35 -4.05 14.984
-15.1 -4.05 15.506
-14.85 -4.05 16.103
-14.6 -4.05 16.616
-14.35 -4.05 17.159
-14.1 -4.05 17.687
-13.85 -4.05 18.185
-13.6 -4.05 18.686
-13.35 -4.05 19.175
-13.1 -4.05 19.628
-12.85 -4.05 20.096
-12.6 -4.05 20.555
-12.35 -4.05 21.017
-12.1 -4.05 21.44
-11.85 -4.05 21.83
-11.6 -4.05 22.229
-11.35 -4.05 22.616
-11.1 -4.05 22.943
-10.85 -4.05 23.309
-10.6 -4.05 23.672
-10.35 -4.05 23.957
-10.1 -4.05 24.293
-9.85 -4.05 24.536
-9.6 -4.05 24.866
-9.35 -4.05 25.166
-9.1 -4.05 25.418
-8.85 -4.05 25.658
-8.6 -4.05 25.847
-8.35 -4.05 26.102
-8.1 -4.05 26.354
-7.85 -4.05 26.537
-7.6 -4.05 26.726
-7.35 -4.05 26.888
-7.1 -4.05 27.026
-6.85 -4.05 27.164
-6.6 -4.05 27.269
-6.35 -4.05 27.416
-5.85 -4.05 29.468
-5.6 -4.05 29.546
-5.35 -4.05 29.591
-5.1 -4.05 29.603
-4.85 -4.05 29.66
-4.6 -4.05 29.654
-4.35 -4.05 29.693
-4.1 -4.05 29.681
-3.85 -4.05 29.624
-3.6 -4.05 29.669
-3.35 -4.05 29.711
-3.1 -4.05 29.714
-2.85 -4.05 29.72
-2.6 -4.05 29.684
-2.35 -4.05 29.696
-2.1 -4.05 29.63
-1.85 -4.05 29.618
-1.6 -4.05 29.594
-1.35 -4.05 29.528
-0.85 -4.05 27.41
-0.6 -4.05 27.296
-0.35 -4.05 27.164
-0.1 -4.05 26.981
0.15 -4.05 26.798
0.4 -4.05 26.657
0.65 -4.05 26.483
0.9 -4.05 26.264
1.15 -4.05 26.033
1.4 -4.05 25.823
1.65 -4.05 25.589
1.9 -4.05 25.355
2.15 -4.05 25.067
2.4 -4.05 24.788
2.65 -4.05 24.488
2.9 -4.05 24.188
3.15 -4.05 23.879
3.4 -4.05 23.537
3.65 -4.05 23.189
3.9 -4.05 22.814
4.15 -4.05 22.418
4.4 -4.05 22.052
4.65 -4.05 21.62
4.9 -4.05 21.209
5.15 -4.05 20.759
5.4 -4.05 20.318
5.65 -4.05 19.856
5.9 -4.05 19.379
6.15 -4.05 18.887
6.4 -4.05 18.395
6.65 -4.05 17.888
6.9 -4.05 17.351
7.15 -4.05 16.841
7.4 -4.05 16.277
7.65 -4.05 15.695
7.9 -4.05 15.128
8.15 -4.05 14.528
8.4 -4.05 13.913
8.65 -4.05 13.313
8.9 -4.05 12.689
9.15 -4.05 12.038
9.4 -4.05 11.417
9.65 -4.05 10.715
9.9 -4.05 10.049
10.15 -4.05 9.362
10.4 -4.05 8.624
10.65 -4.05 7.955
10.9 -4.05 7.193
11.15 -4.05 6.5
11.4 -4.05 5.729
11.65 -4.05 4.985
11.9 -4.05 4.205
12.15 -4.05 3.416
12.4 -4.05 2.63
12.65 -4.05 1.823
12.9 -4.05 0.986
13.15 -4.05 0.161
13.4 -4.05 -0.706
13.65 -4.05 -1.561
13.9 -4.05 -2.428
14.15 -4.05 -3.31
14.4 -4.05 -4.183
14.65 -4.05 -5.059
14.9 -4.05 -6.004
15.15 -4.05 -6.907
15.4 -4.05 -7.825
15.65 -4.05 -8.755
15.9 -4.05 -9.706
16.15 -4.05 -10.678
16.4 -4.05 -11.623
16.65 -4.05 -12.586
16.9 -4.05 -13.561
17.15 -4.05 -14.563
17.4 -4.05 -15.571
17.65 -4.05 -16.594
17.9 -4.05 -17.605
18.15 -4.05 -18.592
18.4 -4.05 -19.6
18.65 -4.05 -20.647
18.9 -4.05 -21.667
19.15 -4.05 -22.687
19.4 -4.05 -23.725
19.65 -4.05 -24.793
19.9 -4.05 -25.885
20.15 -4.05 -26.944
20.4 -4.05 -28.063
20.65 -4.05 -29.092
20.9 -4.05 -30.178
21.15 -4.05 -31.297
21.4 -4.05 -32.428
21.65 -4.05 -33.478
21.9 -4.05 -34.549
22.15 -4.05 -35.578
-31.35 -4.3 -40.972
-31.1 -4.3 -39.931
-30.85 -4.3 -38.938
-30.6 -4.3 -38.152
-30.35 -4.3 -37.09
-30.1 -4.3 -36.007
-29.85 -4.3 -35.014
-29.6 -4.3 -34.003
-29.35 -4.3 -32.977
-29.1 -4.3 -31.954
-28.85 -4.3 -30.919
-28.6 -4.3 -29.872
-28.35 -4.3 -28.861
-28.1 -4.3 -27.856
-27.85 -4.3 -26.827
-27.6 -4.3 -25.822
-27.35 -4.3 -24.772
-27.1 -4.3 -23.752
-26.85 -4.3 -22.789
-26.6 -4.3 -21.79
-26.35 -4.3 -20.794
-26.1 -4.3 -19.807
-25.85 -4.3 -18.814
-25.6 -4.3 -17.806
-25.35 -4.3 -16.834
-25.1 -4.3 -15.874
-24.85 -4.3 -14.935
-24.6 -4.3 -13.96
-24.35 -4.3 -12.967
-24.1 -4.3 -12.073
-23.85 -4.3 -11.152
-23.6 -4.3 -10.183
-23.35 -4.3 -9.256
-23.1 -4.3 -8.356
-22.85 -4.3 -7.432
-22.6 -4.3 -6.541
-22.35 -4.3 -5.659
-22.1 -4.3 -4.744
-21.85 -4.3 -3.856
-21.6 -4.3 -3.016
-21.35 -4.3 -2.185
-21.1 -4.3 -1.366
-20.85 -4.3 -0.475
-20.6 -4.3 0.317
-20.35 -4.3 1.106
-20.1 -4.3 1.895
-19.85 -4.3 2.702
-19.6 -4.3 3.446
-19.35 -4.3 4.205
-19.1 -4.3 4.958
-18.85 -4.3 5.678
-18.6 -4.3 6.434
-18.35 -4.3 7.13
-18.1 -4.3 7.82
-17.85 -4.3 8.543
-17.6 -4.3 9.269
-17.35 -4.3 9.947
-17.1 -4.3 10.625
-16.85 -4.3 11.27
-16.6 -4.3 11.918
-16.35 -4.3 12.533
-16.1 -4.3 13.157
-15.85 -4.3 13.76
-15.6 -4.3 14.375
-15.35 -4.3 14.948
-15.1 -4.3 15.545
-14.85 -4.3 16.127
-14.6 -4.3 16.655
-14.35 -4.3 17.135
-14.1 -4.3 17.675
-13.85 -4.3 18.212
-13.6 -4.3 18.707
-13.35 -4.3 19.274
-13.1 -4.3 19.622
-12.85 -4.3 20.096
-12.6 -4.3 20.567
-12.35 -4.3 21.017
-12.1 -4.3 21.398
-11.85 -4.3 21.803
-11.6 -4.3 22.184
-11.35 -4.3 22.643
-11.1 -4.3 22.967
-10.85 -4.3 23.318
-10.6 -4.3 23.654
-10.35 -4.3 24.017
-10.1 -4.3 24.296
-9.85 -4.3 24.572
-9.6 -4.3 24.836
-9.35 -4.3 25.112
-9.1 -4.3 25.403
-8.85 -4.3 25.616
-8.6 -4.3 25.916
-8.35 -4.3 26.126
-8.1 -4.3 26.315
-7.85 -4.3 26.516
-7.6 -4.3 26.678
-7.35 -4.3 26.885
-7.1 -4.3 27.035
-6.85 -4.3 27.158
-6.6 -4.3 27.317
-6.35 -4.3 27.497
-5.85 -4.3 29.447
-5.6 -4.3 29.513
-5.35 -4.3 29.582
-5.1 -4.3 29.627
-4.85 -4.3 29.603
-4.6 -4.3 29.618
-4.35 -4.3 29.663
-4.1 -4.3 29.717
-3.85 -4.3 29.708
-3.6 -4.3 29.633
-3.35 -4.3 29.744
-3.1 -4.3 29.711
-2.85 -4.3 29.645
-2.6 -4.3 29.63
-2.35 -4.3 29.606
-2.1 -4.3 29.609
-1.85 -4.3 29.522
-1.6 -4.3 29.531
-1.35 -4.3 29.483
-0.85 -4.3 27.38
-0.6 -4.3 27.248
-0.35 -4.3 27.137
-0.1 -4.3 26.966
0.15 -4.3 26.816
0.4 -4.3 26.657
0.65 -4.3 26.432
0.9 -4.3 26.234
1.15 -4.3 26.018
1.4 -4.3 25.808
1.65 -4.3 25.556
1.9 -4.3 25.292
2.15 -4.3 25.043
2.4 -4.3 24.797
2.65 -4.3 24.491
2.9 -4.3 24.158
3.15 -4.3 23.813
3.4 -4.3 23.51
3.65 -4.3 23.18
3.9 -4.3 22.811
4.15 -4.3 22.421
4.4 -4.3 22.031
4.65 -4.3 21.608
4.9 -4.3 21.203
5.15 -4.3 20.756
5.4 -4.3 20.294
5.65 -4.3 19.832
5.9 -4.3 19.388
6.15 -4.3 18.878
6.4 -4.3 18.38
6.65 -4.3 17.87
6.9 -4.3 17.348
7.15 -4.3 16.805
7.4 -4.3 16.271
7.65 -4.3 15.707
7.9 -4.3 15.11
8.15 -4.3 14.501
8.4 -4.3 13.889
8.65 -4.3 13.301
8.9 -4.3 12.683
9.15 -4.3 12.035
9.4 -4.3 11.36
9.65 -4.3 10.703
9.9 -4.3 9.995
10.15 -4.3 9.35
10.4 -4.3 8.639
10.65 -4.3 7.931
10.9 -4.3 7.193
11.15 -4.3 6.476
11.4 -4.3 5.732
11.65 -4.3 4.967
11.9 -4.3 4.175
12.15 -4.3 3.404
12.4 -4.3 2.606
12.65 -4.3 1.793
12.9 -4.3 0.995
13.15 -4.3 0.137
13.4 -4.3 -0.742
13.65 -4.3 -1.567
13.9 -4.3 -2.434
14.15 -4.3 -3.307
14.4 -4.3 -4.216
14.65 -4.3 -5.137
14.9 -4.3 -6.046
15.15 -4.3 -6.943
15.4 -4.3 -7.87
15.65 -4.3 -8.782
15.9 -4.3 -9.73
16.15 -4.3 -10.726
16.4 -4.3 -11.653
16.65 -4.3 -12.613
16.9 -4.3 -13.606
17.15 -4.3 -14.605
17.4 -4.3 -15.58
17.65 -4.3 -16.609
17.9 -4.3 -17.65
18.15 -4.3 -18.619
18.4 -4.3 -19.624
18.65 -4.3 -20.683
18.9 -4.3 -21.685
19.15 -4.3 -22.732
19.4 -4.3 -23.767
19.65 -4.3 -24.829
19.9 -4.3 -25.861
20.15 -4.3 -26.959
20.4 -4.3 -28.075
20.65 -4.3 -29.113
20.9 -4.3 -30.232
21.15 -4.3 -31.324
21.4 -4.3 -32.413
21.65 -4.3 -33.484
21.9 -4.3 -34.378
22.15 -4.3 -35.488
22.4 -4.3 -36.82
-30.85 -4.55 -39.154
-30.6 -4.55 -38.38
-30.35 -4.55 -36.793
-30.1 -4.55 -36.04
-29.85 -4.55 -35.023
-29.6 -4.55 -34.027
-29.35 -4.55 -32.95
-29.1 -4.55 -31.969
-28.85 -4.55 -30.964
-28.6 -4.55 -29.884
-28.35 -4.55 -28.885
-28.1 -4.55 -27.874
-27.85 -4.55 -26.83
-27.6 -4.55 -25.759
-27.35 -4.55 -24.775
-27.1 -4.55 -23.836
-26.85 -4.55 -22.786
-26.6 -4.55 -21.784
-26.35 -4.55 -20.785
-26.1 -4.55 -19.81
-25.85 -4.55 -18.838
-25.6 -4.55 -17.794
-25.35 -4.55 -16.828
-25.1 -4.55 -15.856
-24.85 -4.55 -14.923
-24.6 -4.55 -13.954
-24.35 -4.55 -13.006
-24.1 -4.55 -12.037
-23.85 -4.55 -11.158
-23.6 -4.55 -10.189
-23.35 -4.55 -9.208
-23.1 -4.55 -8.371
-22.85 -4.55 -7.471
-22.6 -4.55 -6.532
-22.35 -4.55 -5.617
-22.1 -4.55 -4.726
-21.85 -4.55 -3.859
-21.6 -4.55 -3.07
-21.35 -4.55 -2.188
-21.1 -4.55 -1.327
-20.85 -4.55 -0.541
-20.6 -4.55 0.329
-20.35 -4.55 1.196
-20.1 -4.55 1.952
-19.85 -4.55 2.678
-19.6 -4.55 3.473
-19.35 -4.55 4.214
-19.1 -4.55 4.913
-18.85 -4.55 5.696
-18.6 -4.55 6.353
-18.35 -4.55 7.145
-18.1 -4.55 7.811
-17.85 -4.55 8.555
-17.6 -4.55 9.263
-17.35 -4.55 9.923
-17.1 -4.55 10.613
-16.85 -4.55 11.282
-16.6 -4.55 11.915
-16.35 -4.55 12.548
-16.1 -4.55 13.166
-15.85 -4.55 13.784
-15.6 -4.55 14.375
-15.35 -4.55 14.921
-15.1 -4.55 15.533
-14.85 -4.55 16.061
-14.6 -4.55 16.604
-14.35 -4.55 17.144
-14.1 -4.55 17.684
-13.85 -4.55 18.104
-13.6 -4.55 18.674
-13.35 -4.55 18.947
-13.1 -4.55 19.604
-12.85 -4.55 20.063
-12.6 -4.55 20.561
-12.35 -4.55 20.999
-12.1 -4.55 21.443
-11.85 -4.55 21.824
-11.6 -4.55 22.223
-11.35 -4.55 22.568
-11.1 -4.55 22.91
-10.85 -4.55 23.3
-10.6 -4.55 23.618
-10.35 -4.55 23.924
-10.1 -4.55 24.227
-9.85 -4.55 24.545
-9.6 -4.55 24.854
-9.35 -4.55 25.13
-9.1 -4.55 25.364
-8.85 -4.55 25.658
-8.6 -4.55 25.907
-8.35 -4.55 26.114
-8.1 -4.55 26.312
-7.85 -4.55 26.453
-7.6 -4.55 26.693
-7.35 -4.55 26.816
-7.1 -4.55 26.975
-6.85 -4.55 27.176
-6.6 -4.55 27.287
-6.35 -4.55 27.359
-6.1 -4.55 27.575
-5.85 -4.55 29.402
-5.6 -4.55 29.504
-5.35 -4.55 29.51
-5.1 -4.55 29.576
-4.85 -4.55 29.618
