-1.771958708500000057e+01 1.691864538000000096e+01 4.502555465999999740e+01
-1.796380019500000103e+01 1.645514058999999918e+01 4.478047180000000083e+01
-1.752631926500000148e+01 1.671486043999999893e+01 4.512611771000000260e+01
-1.765348219499999871e+01 1.663351583000000034e+01 4.502469253999999665e+01
-1.634948515499999999e+01 1.533638524999999930e+01 4.571595001000000025e+01
-1.631142210499999834e+01 1.523671865000000025e+01 4.572601318000000248e+01
-1.761658644499999937e+01 1.681395863999999918e+01 4.507978820999999670e+01
-1.776255202500000152e+01 1.632177495999999906e+01 4.489809035999999764e+01
-1.765595030500000107e+01 1.693184042000000034e+01 4.507180785999999983e+01
-1.770919585500000082e+01 1.674862050999999852e+01 4.500492477000000235e+01
-1.762223219499999871e+01 1.631766271000000046e+01 4.499465178999999893e+01
-1.790881514499999838e+01 1.650998068000000174e+01 4.482754517000000050e+01
-1.769686293499999863e+01 1.693968343999999959e+01 4.504474640000000107e+01
-1.802975249500000032e+01 1.640446233999999848e+01 4.472647857999999843e+01
-1.789249586500000078e+01 1.664427708999999922e+01 4.486083603000000153e+01
-1.766898131499999991e+01 1.694823599000000058e+01 4.506546020999999769e+01
-1.762879347499999838e+01 1.631191778000000170e+01 4.498916245000000202e+01
-1.787148070499999974e+01 1.632073354999999992e+01 4.482244109999999893e+01
-1.791254973499999892e+01 1.621138142999999943e+01 4.477556229000000343e+01
-1.647389769500000156e+01 1.464428471999999992e+01 4.550433350000000132e+01
-1.645553374500000032e+01 1.477432012000000050e+01 4.554106522000000012e+01
-1.628787779499999999e+01 1.505705022999999976e+01 4.571106720000000223e+01
-1.676006865500000131e+01 1.478983449999999955e+01 4.532899474999999967e+01
-1.637670302500000119e+01 1.463492345999999955e+01 4.557121657999999798e+01
-1.623988890500000082e+01 1.478850317000000025e+01 4.569583893000000074e+01
-1.646066450500000045e+01 1.454947804999999939e+01 4.549634551999999843e+01
-1.622457289500000144e+01 1.489907597999999922e+01 4.572686386000000169e+01
-1.630767989499999970e+01 1.501860188999999934e+01 4.569006347999999917e+01
-1.644569563499999987e+01 1.511285542999999976e+01 4.560989380000000182e+01
-1.633688139499999892e+01 1.508977651000000009e+01 4.568246460000000297e+01
-1.616409850499999834e+01 1.485084295000000054e+01 4.576071929999999810e+01
-1.808816313499999850e+01 1.632291937000000104e+01 4.467201996000000008e+01
-1.643231749499999950e+01 1.489925146000000034e+01 4.558028792999999723e+01
-1.676703047499999855e+01 1.472792959000000046e+01 4.531995772999999872e+01
-1.655352950500000020e+01 1.446367788000000054e+01 4.542475509999999872e+01
-1.831993269499999855e+01 1.610382986000000116e+01 4.454373549999999682e+01
-1.813092207500000086e+01 1.605322789999999955e+01 4.464069365999999661e+01
-1.811363768500000049e+01 1.603849553999999955e+01 4.464932250999999752e+01
-1.827818083500000057e+01 1.601776265999999893e+01 4.456341553000000033e+01
-1.830160307499999917e+01 1.581891775000000067e+01 4.454664230000000202e+01
-1.869811034499999991e+01 1.584503317000000067e+01 4.434139251999999942e+01
-1.810587668499999836e+01 1.622096777000000145e+01 4.465758895999999822e+01
-1.692280363500000107e+01 1.466470480000000087e+01 4.523571777000000083e+01
-1.694159102500000103e+01 1.468784856999999988e+01 4.522649764999999888e+01
-1.836247801500000065e+01 1.576071690999999930e+01 4.451368713000000099e+01
-1.823329138500000113e+01 1.628327322000000166e+01 4.459288025000000033e+01
-1.679965758499999851e+01 1.466296911000000058e+01 4.529961013999999864e+01
-1.861420798500000018e+01 1.590823506999999992e+01 4.438641738999999831e+01
-1.830506300500000094e+01 1.618322514999999839e+01 4.455329514000000302e+01
-1.663369917500000028e+01 1.446762990999999943e+01 4.538124083999999669e+01
-1.854266524499999846e+01 1.570375967000000017e+01 4.441881561000000289e+01
-1.813921904500000082e+01 1.615542363999999864e+01 4.463875198000000211e+01
-1.694886946500000136e+01 1.464437627999999947e+01 4.522171402000000029e+01
-1.811471915499999952e+01 1.625367879999999943e+01 4.465375518999999827e+01
-1.680857252499999888e+01 1.463056326000000062e+01 4.529423141000000186e+01
-1.711103224500000053e+01 1.437983084000000034e+01 4.512100601000000211e+01
-1.842945837499999939e+01 1.551221609000000079e+01 4.447139740000000074e+01
-1.700103545500000024e+01 1.422629309000000042e+01 4.517211151000000058e+01
-1.678663420499999859e+01 1.443826817999999967e+01 4.529846572999999665e+01
-1.683722090499999879e+01 1.414916372000000067e+01 4.525614929000000330e+01
-1.693766188500000069e+01 1.441123724000000017e+01 4.521585845999999975e+01
-1.707605528499999892e+01 1.436336279000000005e+01 4.513894652999999835e+01
-1.730362105500000069e+01 1.418342351999999984e+01 4.500719451999999876e+01
-1.672819685500000020e+01 1.432114171999999996e+01 4.532375717000000037e+01
-1.695782637499999979e+01 1.412225484999999914e+01 4.518990326000000124e+01
-1.695474791499999867e+01 1.416600560999999914e+01 4.519384383999999955e+01
-1.714392638500000032e+01 1.411155081000000067e+01 4.508929061999999988e+01
-1.707895445500000164e+01 1.396284245999999918e+01 4.511644362999999913e+01
-1.850230193499999842e+01 1.551814412999999959e+01 4.443254471000000194e+01
-1.701617216500000040e+01 1.448515081000000038e+01 4.517750930999999781e+01
-1.706323790500000115e+01 1.435325002999999988e+01 4.514530944999999917e+01
-1.737036681500000057e+01 1.425068425999999988e+01 4.497482681000000326e+01
-1.734020399499999954e+01 1.407593679000000009e+01 4.499198531999999773e+01
-1.730216002499999917e+01 1.413285207999999926e+01 4.500835418999999860e+01
-1.733790755500000103e+01 1.407607411999999947e+01 4.499304199000000182e+01
-1.614531493499999826e+01 1.533789205000000067e+01 4.587476348999999942e+01
-1.611748671499999830e+01 1.529258107999999972e+01 4.588397216999999983e+01
-1.602647566499999954e+01 1.517583227000000079e+01 4.592712402000000083e+01
-1.595533156499999983e+01 1.508413838999999967e+01 4.596085739000000103e+01
-1.605801176499999983e+01 1.513026190000000071e+01 4.588910294000000079e+01
-1.605700468499999900e+01 1.506767797000000009e+01 4.587537384000000174e+01
-1.581417632500000003e+01 1.564849996000000054e+01 4.630068207000000058e+01
-1.584650969499999995e+01 1.533370732999999930e+01 4.615319061000000289e+01
-1.587172484499999925e+01 1.531488560999999926e+01 4.612255478000000153e+01
-1.606830382500000098e+01 1.549513768999999996e+01 4.600546264999999835e+01
-1.580284285499999974e+01 1.561994696000000005e+01 4.630067061999999822e+01
-1.738253950500000045e+01 1.677626942999999926e+01 4.525098801000000037e+01
-1.601549315500000148e+01 1.529230261000000013e+01 4.597943496999999979e+01
-1.603294920500000131e+01 1.576478338000000079e+01 4.613898468000000008e+01
-1.604572844500000173e+01 1.544582890999999947e+01 4.600826262999999727e+01
-1.594571089499999950e+01 1.555695103999999951e+01 4.614334869000000339e+01
-1.585554289499999925e+01 1.566323994999999947e+01 4.626741409000000260e+01
-1.601261305499999921e+01 1.555599355999999922e+01 4.608030700999999851e+01
-1.595777678500000007e+01 1.558556508999999934e+01 4.614269637999999674e+01
-1.614734816500000036e+01 1.546973181000000075e+01 4.592193985000000112e+01
-1.742865538499999900e+01 1.681435155999999864e+01 4.522195434999999719e+01
-1.587962126500000082e+01 1.538371038000000013e+01 4.614077377000000268e+01
-1.715380263500000169e+01 1.714627600000000029e+01 4.558513260000000145e+01
-1.744000410499999987e+01 1.720759724999999918e+01 4.534516525000000087e+01
-1.751497816499999871e+01 1.713502263999999897e+01 4.525260162000000008e+01
-1.727955031500000160e+01 1.691554022000000046e+01 4.539336395000000124e+01
-1.720425200500000074e+01 1.723699712999999889e+01 4.556961823000000322e+01
-1.745925688499999850e+01 1.725693272999999905e+01 4.534417342999999789e+01
-1.742013335500000082e+01 1.723514700000000133e+01 4.537248993000000041e+01
-1.718155836500000078e+01 1.725437688999999963e+01 4.559609222000000273e+01
-1.715387892500000078e+01 1.745599890000000087e+01 4.568884277000000083e+01
-1.732287001499999946e+01 1.732640981999999852e+01 4.549160384999999707e+01
-1.744363570499999838e+01 1.700478886999999872e+01 4.527390289000000223e+01
-1.748866820499999974e+01 1.708580540999999897e+01 4.526006317000000223e+01
-1.722811674500000123e+01 1.741631841999999963e+01 4.560797881999999959e+01
-1.734732603499999826e+01 1.729864262999999980e+01 4.546003722999999752e+01
-1.724065947500000107e+01 1.754580449999999914e+01 4.563994598000000025e+01
-1.720008253499999995e+01 1.751599644999999938e+01 4.566689681999999806e+01
-1.709581923500000045e+01 1.735961294000000166e+01 4.570940018000000293e+01
-1.746436095500000008e+01 1.714205313000000075e+01 4.530103301999999843e+01
-1.711266493500000152e+01 1.730166005999999967e+01 4.567465210000000297e+01
-1.724553465500000016e+01 1.726948309000000137e+01 4.554292296999999934e+01
-1.698716902500000003e+01 1.730634450999999885e+01 4.579057311999999769e+01
-1.583126997499999966e+01 1.602687596999999897e+01 4.643589400999999839e+01
-1.690034270499999991e+01 1.747445821999999893e+01 4.598822021000000149e+01
-1.704700636500000144e+01 1.761163472999999868e+01 4.589157104000000231e+01
-1.686229872499999871e+01 1.755128240000000162e+01 4.607776642000000322e+01
-1.669183134500000065e+01 1.768348836999999918e+01 4.635739516999999665e+01
-1.694610762499999979e+01 1.790129613999999947e+01 4.617835235999999810e+01
-1.678860640499999946e+01 1.754911947000000083e+01 4.616462325999999905e+01
-1.677755141500000136e+01 1.776603460000000112e+01 4.630227279999999723e+01
-1.564601302500000024e+01 1.572680425999999976e+01 4.648522949000000182e+01
-1.703803801500000148e+01 1.747416829999999877e+01 4.582343673999999822e+01
-1.692588210499999946e+01 1.808325719999999848e+01 4.630691527999999835e+01
-1.700055479499999933e+01 1.765630864999999972e+01 4.597273254000000264e+01
-1.678569197499999888e+01 1.746617651000000038e+01 4.612052916999999752e+01
-1.554469847500000057e+01 1.564066457999999926e+01 4.655743408000000017e+01
-1.539830946500000053e+01 1.618328999999999951e+01 4.705855559999999826e+01
-1.564430785499999921e+01 1.587613439000000071e+01 4.657434845000000223e+01
-1.552419829499999970e+01 1.573591374999999992e+01 4.663901137999999946e+01
-1.550528883499999999e+01 1.613804388000000145e+01 4.690026093000000174e+01
-1.554594206500000020e+01 1.603290700999999885e+01 4.678805541999999917e+01
-1.538022780500000053e+01 1.600524663999999930e+01 4.697540283000000017e+01
-1.555633330500000078e+01 1.611310720000000174e+01 4.682275771999999847e+01
-1.568159651500000074e+01 1.596959065999999972e+01 4.658382415999999893e+01
-1.536242842499999917e+01 1.614090108999999984e+01 4.707757568000000248e+01
-1.553660368499999933e+01 1.630335378999999918e+01 4.695960617000000070e+01
-1.541925978499999950e+01 1.618239355000000046e+01 4.703227233999999868e+01
-1.539547896500000057e+01 1.617386769999999885e+01 4.705645752000000215e+01
-1.546990370500000012e+01 1.611961125999999922e+01 4.693285370000000256e+01
-1.553587126500000082e+01 1.620602560000000025e+01 4.690290069999999645e+01
-1.655421614500000160e+01 1.811131810999999914e+01 4.691482544000000132e+01
-1.667608046499999830e+01 1.826978825999999856e+01 4.686296463000000045e+01
-1.658078932500000136e+01 1.797220373000000038e+01 4.674119948999999963e+01
-1.650335860499999896e+01 1.825219488000000112e+01 4.712994765999999913e+01
-1.662790846500000086e+01 1.792395924999999934e+01 4.661879349000000161e+01
-1.661974120500000041e+01 1.792663336000000029e+01 4.663469314999999682e+01
-1.672838377500000107e+01 1.820462561000000079e+01 4.671623993000000041e+01
-1.666109633499999987e+01 1.794614171999999996e+01 4.658506392999999690e+01
-1.542311644499999979e+01 1.648749304000000038e+01 4.725319671999999827e+01
-1.653544783499999937e+01 1.827444982000000095e+01 4.709808730999999682e+01
-1.645036482500000119e+01 1.809111929000000174e+01 4.706635284000000041e+01
-1.663124251500000028e+01 1.847336720999999926e+01 4.712682343000000174e+01
-1.656614851499999830e+01 1.817568731000000071e+01 4.695541000000000054e+01
-1.669531798499999908e+01 1.804717016000000029e+01 4.662333298000000070e+01
-1.684425520499999962e+01 1.813170385000000095e+01 4.645795440999999926e+01
-1.657985091500000152e+01 1.804414510999999877e+01 4.680998230000000149e+01
-1.526696181500000016e+01 1.621359014000000087e+01 4.725413131999999905e+01
-1.546956038499999941e+01 1.634638737999999947e+01 4.706749725000000240e+01
-1.515439772500000082e+01 1.716085958000000034e+01 4.868291473000000025e+01
-1.515842604500000057e+01 1.694315862999999922e+01 4.830843353000000207e+01
-1.501105284500000003e+01 1.666839742999999885e+01 4.822969817999999975e+01
-1.502110838499999979e+01 1.666023397000000017e+01 4.819006347999999917e+01
-1.506523299500000057e+01 1.665352774000000124e+01 4.806484985000000165e+01
-1.519648146499999974e+01 1.685672140000000141e+01 4.806555557000000078e+01
-1.498113036500000028e+01 1.680840826000000021e+01 4.854115677000000062e+01
-1.511231398500000012e+01 1.675598287000000042e+01 4.811455154000000078e+01
-1.520536208500000086e+01 1.703900288999999901e+01 4.834746169999999665e+01
-1.511622404499999917e+01 1.675200415000000120e+01 4.809780121000000008e+01
-1.504531645500000003e+01 1.661036444000000145e+01 4.804410933999999855e+01
-1.642593932500000165e+01 1.872597646999999910e+01 4.801516723999999670e+01
-1.520072722499999962e+01 1.701020955999999984e+01 4.831127547999999905e+01
-1.499290633500000069e+01 1.686294699000000108e+01 4.860193634000000174e+01
-1.661690306499999892e+01 1.860951757000000129e+01 4.735107802999999649e+01
-1.652268004500000131e+01 1.850893164000000013e+01 4.742362975999999719e+01
-1.638897108500000144e+01 1.862125539999999901e+01 4.793738936999999822e+01
-1.641333937499999962e+01 1.832653952000000075e+01 4.740205382999999983e+01
-1.653861021499999850e+01 1.881234502999999947e+01 4.787265777999999727e+01
-1.652815413500000119e+01 1.879924154000000058e+01 4.787759399000000116e+01
-1.659383177500000173e+01 1.875938558000000000e+01 4.764989853000000153e+01
-1.656827330500000173e+01 1.879575490999999943e+01 4.777209472999999917e+01
-1.649537825499999855e+01 1.856582785000000158e+01 4.758323287999999707e+01
-1.521483397499999946e+01 1.683754491999999914e+01 4.798735427999999814e+01
-1.667552351499999830e+01 1.859339285000000075e+01 4.717917252000000161e+01
-1.643896269500000074e+01 1.844017553000000120e+01 4.752128983000000062e+01
-1.636239409499999908e+01 1.849766302000000096e+01 4.780448531999999773e+01
-1.662111830499999954e+01 1.875498723999999839e+01 4.757488251000000190e+01
-1.651138472499999921e+01 1.878937673000000075e+01 4.790344619999999765e+01
-1.652862715499999879e+01 1.847139882999999827e+01 4.734837341000000066e+01
-1.651592421499999830e+01 1.860673283999999938e+01 4.759797286999999955e+01
-1.658592772500000123e+01 1.870970296999999860e+01 4.758954620000000091e+01
-1.635243391499999888e+01 1.846659993999999827e+01 4.777925110000000331e+01
-1.645768904499999863e+01 1.852592611000000034e+01 4.761278534000000207e+01
-1.658117079499999846e+01 1.866515492999999992e+01 4.752964400999999839e+01
-1.654649901499999842e+01 1.854660558999999864e+01 4.742501067999999975e+01
-1.634158492499999937e+01 1.842175817000000038e+01 4.773403168000000107e+01
-1.640747237500000111e+01 1.865957021999999910e+01 4.795304870999999736e+01
-1.661874174500000123e+01 1.868998861000000034e+01 4.747610473999999670e+01
-1.637176299500000098e+01 1.848580693999999980e+01 4.776207732999999678e+01
-1.524007201500000086e+01 1.679714346000000091e+01 4.787704467999999736e+01
-1.513820815499999917e+01 1.669083546999999967e+01 4.794837188999999711e+01
-1.510453581500000020e+01 1.663183354999999963e+01 4.794827270999999769e+01
-1.507341551500000065e+01 1.645755910999999827e+01 4.782931519000000264e+01
-1.649983382499999962e+01 1.828879308999999864e+01 4.717050934000000240e+01
-1.510701155499999970e+01 1.655711507999999910e+01 4.786980437999999793e+01
-1.526839995499999958e+01 1.639016867000000133e+01 4.742391967999999736e+01
-1.523992323499999912e+01 1.671982335999999947e+01 4.780056380999999988e+01
-1.516371703499999946e+01 1.637052296999999967e+01 4.758616256999999905e+01
-1.522528242499999962e+01 1.673722981999999959e+01 4.784325409000000207e+01
-1.538735747499999995e+01 1.652700949000000108e+01 4.735321807999999777e+01
-1.532073759500000065e+01 1.648401785000000075e+01 4.742620087000000240e+01
-1.516116118499999921e+01 1.642985678000000149e+01 4.764949036000000149e+01
-1.519992232499999929e+01 1.667376469999999955e+01 4.782429123000000004e+01
-1.643307280499999834e+01 1.823809194000000033e+01 4.723609542999999888e+01
-1.537941908500000032e+01 1.651348637999999980e+01 4.735358046999999715e+01
-1.523570036499999958e+01 1.625328587999999996e+01 4.734482956000000087e+01
-2.520968794499999888e+01 1.289688252999999918e+01 4.998396682999999996e+01
-2.493515562500000016e+01 1.290607594999999996e+01 4.944130324999999715e+01
-2.518990111500000140e+01 1.282061910000000005e+01 4.974606322999999719e+01
-2.527024435499999910e+01 1.283958578000000017e+01 4.996083449999999715e+01
-2.514702010499999929e+01 1.271672964000000050e+01 4.938911818999999781e+01
-2.526965117499999991e+01 1.289703511999999996e+01 5.010808182000000244e+01
-2.494593405499999861e+01 1.296462393000000013e+01 4.961484146000000095e+01
-2.527283072499999861e+01 1.262205267000000042e+01 4.940403747999999950e+01
-2.499420332500000086e+01 1.295642613999999959e+01 4.969323729999999983e+01
-2.518440413500000119e+01 1.291895056000000075e+01 4.998882675000000120e+01
-2.490088629499999939e+01 1.302737188000000046e+01 4.968404770000000070e+01
-2.503474211500000024e+01 1.291701650000000079e+01 4.967504500999999806e+01
-2.496744894500000100e+01 1.290811682000000005e+01 4.951320648000000091e+01
-2.515613341499999933e+01 1.286372899999999930e+01 4.978779983999999814e+01
-2.514300894499999828e+01 1.280440663999999984e+01 4.960741806000000054e+01
-2.513073515499999999e+01 1.295974492999999939e+01 4.998351669000000186e+01
-2.522212958500000113e+01 1.266294622000000025e+01 4.940509414999999649e+01
-2.507046866499999993e+01 1.293797827000000034e+01 4.980292130000000128e+01
-2.508273100499999941e+01 1.283167028000000087e+01 4.955350494000000339e+01
-2.502043509499999985e+01 1.299352026000000038e+01 4.984323119999999818e+01
-2.523834204499999956e+01 1.261456442000000067e+01 4.931351852000000235e+01
-2.536373305500000086e+01 1.282030630000000038e+01 5.010391616999999798e+01
-2.521341681499999865e+01 1.282537984999999914e+01 4.980687713999999744e+01
-2.522761511499999898e+01 1.293005514000000034e+01 5.010667801000000310e+01
-2.420284628499999968e+01 1.257108831000000038e+01 4.706468963999999744e+01
-2.456113791499999977e+01 1.248242330000000067e+01 4.757480240000000293e+01
-2.441663718499999902e+01 1.239439534999999992e+01 4.704917908000000182e+01
-2.427485251499999919e+01 1.252023840000000021e+01 4.708185196000000161e+01
-2.435467123500000142e+01 1.249295949999999955e+01 4.717604064999999736e+01
-2.421528983500000010e+01 1.264966345000000025e+01 4.729341887999999727e+01
-2.427454161500000041e+01 1.266645955999999984e+01 4.745907973999999996e+01
-2.465986418499999999e+01 1.236827229999999922e+01 4.748351287999999926e+01
-2.437526678500000088e+01 1.251221609000000079e+01 4.726829528999999752e+01
-2.419180464500000127e+01 1.258664083000000034e+01 4.708209990999999661e+01
-2.440067648500000175e+01 1.262030934999999943e+01 4.760005951000000124e+01
-2.423819899500000119e+01 1.254492712000000054e+01 4.707001876999999723e+01
-2.414448904500000026e+01 1.264173268999999955e+01 4.712684630999999769e+01
-2.420207381499999855e+01 1.261161947000000083e+01 4.716783524000000227e+01
-2.461723875499999892e+01 1.257311392000000083e+01 4.792491531000000293e+01
-2.474207281500000022e+01 1.237265539000000025e+01 4.766444778000000326e+01
-2.477107405499999970e+01 1.259959935999999914e+01 4.831075287000000174e+01
-2.446165442499999898e+01 1.268844366000000079e+01 4.790195083999999781e+01
-2.476255583500000057e+01 1.238988638000000009e+01 4.775123596000000248e+01
-2.453729414500000061e+01 1.271363591999999976e+01 4.812310791000000165e+01
-2.455311560499999857e+01 1.266237019999999980e+01 4.802327346999999946e+01
-2.467868590499999826e+01 1.251360464000000050e+01 4.789791489000000269e+01
-2.444843268500000022e+01 1.267116689999999934e+01 4.783002471999999727e+01
-2.446810126500000138e+01 1.265413427000000013e+01 4.782658768000000293e+01
-2.449776816500000010e+01 1.273545979999999922e+01 4.809795761000000169e+01
-2.465328383499999987e+01 1.248302602999999955e+01 4.776647949000000182e+01
-2.437223410500000043e+01 1.268900441999999984e+01 4.771890258999999901e+01
-2.489262938499999933e+01 1.255048513000000021e+01 4.843463134999999653e+01
-2.462690520499999991e+01 1.244026327000000087e+01 4.760155105999999847e+01
-2.473076605500000014e+01 1.247356558000000071e+01 4.790190125000000165e+01
-2.447380614500000107e+01 1.263025045000000013e+01 4.777663040000000194e+01
-2.464747977500000076e+01 1.263454961999999959e+01 4.814606856999999707e+01
-2.461674666500000086e+01 1.246323538000000042e+01 4.763994979999999657e+01
-2.469602942499999898e+01 1.266442632999999951e+01 4.832345580999999868e+01
-2.478749632499999933e+01 1.254096365000000013e+01 4.819311142000000103e+01
-2.487338232500000146e+01 1.255689764000000075e+01 4.841149520999999822e+01
-2.457071661499999848e+01 1.256728887000000050e+01 4.781388092000000256e+01
-2.487168669500000107e+01 1.263888311000000009e+01 4.861986541999999645e+01
-2.479207587499999832e+01 1.265731191000000067e+01 4.850322341999999765e+01
-2.483488821499999943e+01 1.273564290999999926e+01 4.879398727000000235e+01
-2.489476752499999890e+01 1.256353140000000046e+01 4.847275542999999942e+01
-2.501009726499999886e+01 1.265968084000000005e+01 4.895917891999999938e+01
-2.484812903499999948e+01 1.285500479000000063e+01 4.912976837000000074e+01
-2.503729987499999865e+01 1.264787435000000038e+01 4.898479079999999897e+01
-2.497601866500000156e+01 1.254101705000000067e+01 4.858221053999999839e+01
-2.510210966500000040e+01 1.248595953000000058e+01 4.870009232000000310e+01
-2.495092558500000024e+01 1.262424612000000046e+01 4.874552154999999942e+01
-2.504091811500000020e+01 1.262196111999999992e+01 4.892530059999999992e+01
-2.515313315499999902e+01 1.251722859999999926e+01 4.888617324999999880e+01
-2.500023054500000086e+01 1.257709645999999992e+01 4.872540664999999649e+01
-2.485847258500000123e+01 1.265748739000000000e+01 4.864066695999999723e+01
-2.493259978500000074e+01 1.266956090999999951e+01 4.882481766000000079e+01
-2.498867010500000063e+01 1.256947850999999972e+01 4.868187332000000112e+01
-2.496052527499999840e+01 1.259157324000000067e+01 4.868089293999999967e+01
-2.510901999500000059e+01 1.251207113000000071e+01 4.878182601999999690e+01
-2.484471869500000096e+01 1.280112981999999988e+01 4.898350906000000293e+01
-2.497667097500000111e+01 1.270531607000000029e+01 4.900814056000000107e+01
-2.234948897499999987e+01 1.331838751000000087e+01 4.517194365999999661e+01
-2.241253447500000107e+01 1.315774298000000009e+01 4.488689423000000289e+01
-2.241932654500000055e+01 1.325018453000000029e+01 4.513978194999999971e+01
-2.271109557500000165e+01 1.305465459999999922e+01 4.523649215999999740e+01
-2.261281561499999881e+01 1.309913777999999951e+01 4.514866256999999905e+01
-2.271885085499999946e+01 1.318796681999999976e+01 4.559700394000000045e+01
-2.249695372500000090e+01 1.323945761000000054e+01 4.527223206000000033e+01
-2.272896933499999861e+01 1.304660559000000042e+01 4.525256347999999917e+01
-2.270461249499999923e+01 1.308272694999999963e+01 4.529565810999999798e+01
-2.234683775499999925e+01 1.335954045999999984e+01 4.527283477999999661e+01
-2.243104720499999871e+01 1.322373342000000029e+01 4.509561538999999897e+01
-2.291534590499999879e+01 1.293741750999999951e+01 4.535493850999999665e+01
-2.293067717499999958e+01 1.302011251000000058e+01 4.560027312999999793e+01
-2.297625136499999954e+01 1.291246557000000017e+01 4.541612244000000231e+01
-2.280780196499999946e+01 1.296739720999999967e+01 4.521052932999999996e+01
-2.280172896499999879e+01 1.303766393999999984e+01 4.537958145000000343e+01
-2.251315474500000136e+01 1.311310338999999914e+01 4.497914123999999703e+01
-2.235810446500000026e+01 1.325462102999999914e+01 4.502493285999999983e+01
-2.236140036500000150e+01 1.324526357999999959e+01 4.500755691999999897e+01
-2.246471381499999964e+01 1.323524236999999992e+01 4.519482422000000099e+01
-2.275813460499999863e+01 1.299193333999999922e+01 4.517145537999999760e+01
-2.313940977500000074e+01 1.293980932000000017e+01 4.582342148000000037e+01
-2.322851920500000134e+01 1.281518698000000001e+01 4.568522644000000099e+01
-2.291613745500000121e+01 1.310211325000000038e+01 4.578218841999999711e+01
-2.311122488499999861e+01 1.287138891000000029e+01 4.558845519999999851e+01
-2.322716689499999987e+01 1.284131383999999976e+01 4.574995040999999674e+01
-2.315781378499999832e+01 1.287677144999999967e+01 4.569848250999999806e+01
-2.313210844500000007e+01 1.297653722999999992e+01 4.590326690999999926e+01
-2.362797331499999842e+01 1.260813283999999967e+01 4.597431945999999670e+01
-2.342674231499999848e+01 1.280046605999999976e+01 4.605616760000000198e+01
-2.384904646500000069e+01 1.251984930000000062e+01 4.620230103000000099e+01
-2.391224646499999906e+01 1.265554951999999922e+01 4.668338013000000331e+01
-2.371007704499999846e+01 1.268437338000000025e+01 4.634073257000000012e+01
-2.372327971500000032e+01 1.274430609000000025e+01 4.652285767000000050e+01
-2.369153189500000067e+01 1.279273367000000050e+01 4.658250045999999855e+01
-2.384587263499999921e+01 1.263476323999999984e+01 4.649271774000000335e+01
-2.389227843500000148e+01 1.273030615000000054e+01 4.683536529999999942e+01
-2.410921263499999867e+01 1.253635167999999922e+01 4.678173065000000008e+01
-2.388608908499999828e+01 1.256784200999999968e+01 4.640274810999999744e+01
-2.389049506499999964e+01 1.260246420000000001e+01 4.650131225999999884e+01
-2.410361456500000088e+01 1.255798101000000067e+01 4.682607268999999661e+01
-2.393788885500000063e+01 1.253557348000000005e+01 4.642623520000000070e+01
-2.362916922499999828e+01 1.274933004000000025e+01 4.634166718000000174e+01
-2.398003554499999979e+01 1.256744145999999951e+01 4.659555435000000045e+01
-2.391112494500000096e+01 1.267408132000000087e+01 4.672895813000000231e+01
-2.351230025499999954e+01 1.282626104000000034e+01 4.629935074000000128e+01
-2.377894186500000018e+01 1.263322973000000005e+01 4.635065459999999860e+01
-2.359184431499999945e+01 1.271551657000000013e+01 4.617727660999999983e+01
-2.084347128499999968e+01 1.417942189999999947e+01 4.428977966000000066e+01
-2.051133704500000121e+01 1.444811392000000083e+01 4.429886626999999777e+01
-2.092773795500000134e+01 1.412859105999999976e+01 4.433228683000000103e+01
-2.033268713500000047e+01 1.463240575999999926e+01 4.440652466000000231e+01
-2.041163039499999954e+01 1.458319997999999984e+01 4.444223784999999793e+01
-2.042260336500000051e+01 1.445390081000000038e+01 4.413074875000000219e+01
-2.040554213500000102e+01 1.453231191000000067e+01 4.429816817999999756e+01
-2.083131384500000038e+01 1.427258443999999926e+01 4.450543976000000157e+01
-2.069387793499999972e+01 1.429428625000000075e+01 4.427796554999999756e+01
-2.033296370500000094e+01 1.467085789999999967e+01 4.450645827999999682e+01
-2.037677931500000028e+01 1.453825521000000087e+01 4.425419234999999674e+01
-2.067049002499999943e+01 1.442379140999999976e+01 4.456437301999999789e+01
-2.037930846500000115e+01 1.455661534999999951e+01 4.430685425000000066e+01
-2.070309424499999906e+01 1.427154301999999930e+01 4.423821639999999888e+01
-2.066037344500000117e+01 1.442535924999999963e+01 4.454756164999999868e+01
-2.051806616500000047e+01 1.448969029999999947e+01 4.442018889999999942e+01
-2.082802367500000074e+01 1.425468588000000025e+01 4.445240402000000302e+01
-2.092303061499999828e+01 1.413172293000000046e+01 4.433067702999999682e+01
-2.081392455499999983e+01 1.418242788000000054e+01 4.423657607999999897e+01
-2.080104613499999999e+01 1.429710913000000083e+01 4.450638199000000128e+01
-2.152605032499999993e+01 1.376480244999999947e+01 4.462663650999999732e+01
-2.103840231499999902e+01 1.406138754000000013e+01 4.438694000000000273e+01
-2.124513029499999917e+01 1.399395132000000075e+01 4.463920974999999913e+01
-2.159659552500000146e+01 1.377376699000000038e+01 4.479536056999999971e+01
-2.130576109500000115e+01 1.393263387999999914e+01 4.460583496000000281e+01
-2.096141409499999853e+01 1.412443685000000038e+01 4.439103699000000347e+01
-2.131031012500000088e+01 1.385860205000000001e+01 4.442391586000000103e+01
-2.145978712499999830e+01 1.385728216000000046e+01 4.472890472000000273e+01
-2.147747015499999890e+01 1.386201237999999947e+01 4.477761841000000231e+01
-2.162355399500000175e+01 1.369483327999999922e+01 4.464699936000000235e+01
-2.140963339500000018e+01 1.385770559000000013e+01 4.462652205999999921e+01
-2.126483321499999946e+01 1.394803761999999914e+01 4.456120299999999901e+01
-2.137730193499999842e+01 1.379726553000000067e+01 4.440362929999999864e+01
-2.105802893499999939e+01 1.402820730000000005e+01 4.434169388000000112e+01
-2.135568785499999933e+01 1.392456961000000071e+01 4.468801497999999839e+01
-2.144972205499999873e+01 1.374376821000000071e+01 4.441479874000000194e+01
-2.117037749500000032e+01 1.397545384999999918e+01 4.443716431000000000e+01
-2.186572623500000034e+01 1.360767126000000005e+01 4.492141342000000037e+01
-2.176423239500000051e+01 1.361180258000000087e+01 4.472267532000000045e+01
-2.204141211499999997e+01 1.341385031000000083e+01 4.478300858000000062e+01
-2.190175032499999830e+01 1.360886907000000079e+01 4.499882507000000231e+01
-2.183202147500000123e+01 1.351377629999999996e+01 4.460922622999999732e+01
-2.196054434499999886e+01 1.359327077999999922e+01 4.507982634999999760e+01
-2.169737791500000057e+01 1.368880605999999922e+01 4.478372574000000128e+01
-2.231017661499999960e+01 1.324294805000000075e+01 4.489588164999999975e+01
-2.219094443499999869e+01 1.341744375000000034e+01 4.510081481999999653e+01
-2.171899962499999859e+01 1.359757375999999951e+01 4.459258270000000124e+01
-2.171113943499999976e+01 1.367505406999999984e+01 4.477659606999999653e+01
-2.219795584499999919e+01 1.332871008000000046e+01 4.488597487999999913e+01
-2.171866774500000119e+01 1.358913946000000017e+01 4.457010268999999880e+01
-2.210338568499999923e+01 1.332532263000000050e+01 4.468210601999999909e+01
-2.174476027500000086e+01 1.370929860999999939e+01 4.493445205999999814e+01
-2.197115111500000140e+01 1.350315617999999951e+01 4.486883544999999884e+01
-2.183897185500000049e+01 1.353537129999999955e+01 4.467936706999999785e+01
-1.873800444500000140e+01 1.594038914999999967e+01 4.449641799999999847e+01
-1.835998129500000076e+01 1.630821751999999947e+01 4.466702652000000029e+01
-1.853257155500000053e+01 1.625114964999999856e+01 4.487564086999999802e+01
-1.854322218500000119e+01 1.625206517999999889e+01 4.489998626999999942e+01
-1.854952025500000090e+01 1.624062109000000120e+01 4.488339615000000293e+01
-1.861657500500000140e+01 1.604984808000000029e+01 4.452875518999999827e+01
-1.844883704500000121e+01 1.634758901000000009e+01 4.495209121999999979e+01
-1.872182249500000140e+01 1.598713827000000087e+01 4.458385085999999831e+01
-1.856566977499999993e+01 1.605708836999999889e+01 4.444242858999999868e+01
-1.893225073500000022e+01 1.583330678999999996e+01 4.462047195000000244e+01
-1.842262434499999912e+01 1.633870840000000157e+01 4.487506103999999851e+01
-1.869642996500000010e+01 1.593134451000000062e+01 4.438726806999999752e+01
-1.945495009500000094e+01 1.528414678000000038e+01 4.427977752999999694e+01
-1.914712309500000131e+01 1.556089543999999947e+01 4.435983276000000330e+01
-1.901297163499999954e+01 1.581860112999999934e+01 4.474901581000000306e+01
-1.888111281500000160e+01 1.575989674999999934e+01 4.432525634999999653e+01
-1.907855963500000129e+01 1.557255697000000083e+01 4.424851226999999909e+01
-1.908650183499999997e+01 1.559263754000000013e+01 4.431678390999999806e+01
-1.936800551500000012e+01 1.531463766000000071e+01 4.417919539999999756e+01
-1.938211035499999824e+01 1.541097783999999926e+01 4.445724486999999669e+01
-1.922192358499999898e+01 1.551441716999999976e+01 4.439405441000000252e+01
-1.930780386500000034e+01 1.549049901999999967e+01 4.450942993000000314e+01
-1.945391631500000074e+01 1.542154837000000001e+01 4.463272094999999950e+01
-1.959910750499999921e+01 1.526184605999999988e+01 4.451958465999999959e+01
-1.937631583499999977e+01 1.545991659000000062e+01 4.457176207999999917e+01
-1.918980574500000102e+01 1.564493704000000029e+01 4.466508865000000128e+01
-1.931038451499999908e+01 1.552593373999999926e+01 4.460633468999999707e+01
-1.941831755500000156e+01 1.532384633999999934e+01 4.430678177000000062e+01
-1.912136435500000076e+01 1.561986302999999943e+01 4.445907211000000103e+01
-1.942664503499999995e+01 1.533394765999999976e+01 4.435007858000000169e+01
-1.886107420500000131e+01 1.577824163000000013e+01 4.433131790000000194e+01
-1.939531493499999826e+01 1.535119008999999934e+01 4.432997893999999661e+01
-1.934437918500000109e+01 1.548805379999999943e+01 4.457858276000000330e+01
-1.953188872500000173e+01 1.524492788000000054e+01 4.433717346000000248e+01
-1.967546629499999966e+01 1.517882681000000034e+01 4.446258163000000252e+01
-2.002951979499999879e+01 1.477651357999999959e+01 4.415342331000000087e+01
-1.990622687500000154e+01 1.484550237999999922e+01 4.407731627999999802e+01
-2.001403021499999824e+01 1.483918524000000083e+01 4.428341292999999723e+01
-1.986291289500000090e+01 1.500531149000000042e+01 4.440093231000000173e+01
-1.968002676500000092e+01 1.512626408999999938e+01 4.433616256999999905e+01
-1.991453528499999948e+01 1.496917104999999992e+01 4.441403961000000322e+01
-2.006324744499999824e+01 1.484202718999999959e+01 4.439231491000000318e+01
-2.013320708499999867e+01 1.479125357000000029e+01 4.440543364999999909e+01
-1.986427283500000129e+01 1.488000631000000062e+01 4.407992172000000153e+01
-1.997092223499999974e+01 1.487837743999999951e+01 4.429575348000000190e+01
-2.017642569499999894e+01 1.475535726000000025e+01 4.440184401999999864e+01
-1.987373709499999919e+01 1.490723561999999980e+01 4.416980742999999876e+01
-2.023420882499999962e+01 1.470180273000000071e+01 4.438267516999999884e+01
-1.998072981500000012e+01 1.481175756000000021e+01 4.414383315999999979e+01
-2.007957053499999844e+01 1.481598806000000046e+01 4.435868835000000132e+01
-1.961487364499999941e+01 1.519236135000000054e+01 4.437254332999999917e+01
-1.995771956500000144e+01 1.486229849000000058e+01 4.422696304000000112e+01
-1.978052306500000057e+01 1.503445196000000017e+01 4.430624389999999835e+01
-1.723259138499999921e+01 1.763314198999999860e+01 4.576484298999999822e+01
-1.725554823499999912e+01 1.763426733000000013e+01 4.581511687999999793e+01
-1.716605925500000041e+01 1.770939016000000166e+01 4.582460784999999959e+01
-1.721355223500000164e+01 1.768304586000000000e+01 4.585451126000000244e+01
-1.704950499499999950e+01 1.801387167000000034e+01 4.637097167999999670e+01
-1.749284529499999863e+01 1.752789449999999860e+01 4.602982329999999678e+01
-1.726078581499999842e+01 1.766341162000000153e+01 4.590123367000000343e+01
-1.727834868500000098e+01 1.772303915000000174e+01 4.609155654999999996e+01
-1.714176726499999859e+01 1.777705526000000091e+01 4.594934845000000223e+01
-1.711123061500000020e+01 1.795590733999999955e+01 4.634854125999999752e+01
-1.714975523500000065e+01 1.796907185999999967e+01 4.646203231999999872e+01
-1.715825438499999933e+01 1.775402211999999835e+01 4.592383575000000207e+01
-1.723608183500000024e+01 1.771108770000000021e+01 4.597347641000000351e+01
-1.720385909499999855e+01 1.787949513999999951e+01 4.634217833999999669e+01
-1.746021056500000057e+01 1.753161383000000129e+01 4.597210693000000248e+01
-1.727771925500000094e+01 1.789709616000000025e+01 4.654005432000000297e+01
-1.703522276500000032e+01 1.798519659000000104e+01 4.626739119999999872e+01
-1.729918837499999995e+01 1.779041815000000071e+01 4.630868148999999789e+01
-1.713503432499999946e+01 1.782224417000000116e+01 4.605224228000000153e+01
-1.701727843500000148e+01 1.805734396000000075e+01 4.641681289999999649e+01
-1.728408217500000177e+01 1.772680426000000153e+01 4.611311340000000314e+01
-1.719960570499999974e+01 1.797189854999999881e+01 4.657220078000000285e+01
-1.709187102499999966e+01 1.800105810000000162e+01 4.642527771000000314e+01
-1.746544814499999987e+01 1.731110905999999972e+01 4.541306686000000070e+01
-1.761088728500000045e+01 1.719132756999999856e+01 4.540361404000000078e+01
-1.750081419500000024e+01 1.728264761000000149e+01 4.541249083999999669e+01
-1.734113097499999867e+01 1.752623510000000095e+01 4.571251678000000140e+01
-1.750742506499999962e+01 1.740686559999999972e+01 4.574713134999999653e+01
-1.771221709499999974e+01 1.704868841000000046e+01 4.524405670000000157e+01
-1.735755324499999830e+01 1.748037100000000166e+01 4.562786865000000347e+01
-1.745997023500000012e+01 1.740486287999999959e+01 4.564405059999999992e+01
-1.773043990500000078e+01 1.726005697000000083e+01 4.582787323000000157e+01
-1.741279768500000102e+01 1.749163198000000108e+01 4.577095795000000322e+01
-1.777072691500000090e+01 1.717643118000000158e+01 4.569488907000000211e+01
-1.762539458499999867e+01 1.726637029999999839e+01 4.562747191999999785e+01
-1.774471068500000115e+01 1.724432133999999905e+01 4.581666564999999736e+01
-1.776655363500000107e+01 1.706265782999999914e+01 4.539226913000000252e+01
-1.778215956500000061e+01 1.702534246000000095e+01 4.532803344999999950e+01
-1.762484145499999855e+01 1.738942480000000046e+01 4.594432448999999963e+01
-1.744166350500000107e+01 1.738110494000000017e+01 4.554487610000000331e+01
-1.739139723499999945e+01 1.744664144000000050e+01 4.561053466999999983e+01
-1.767410063499999850e+01 1.712006520999999992e+01 4.534986877000000050e+01
-1.754621291500000169e+01 1.744735860999999844e+01 4.593180084000000107e+01
-1.760074019500000020e+01 1.731619786999999988e+01 4.570536040999999727e+01
-1.758443236500000140e+01 1.724971533000000079e+01 4.549990844999999950e+01
-1.738328719500000119e+01 1.742333363999999918e+01 4.553356552000000335e+01
-1.775135970499999871e+01 1.720713186000000050e+01 4.573426819000000165e+01
-1.806992697500000133e+01 1.668402624000000145e+01 4.503974151999999975e+01
-1.823162817500000088e+01 1.656817007000000075e+01 4.507396698000000157e+01
-1.792949461499999941e+01 1.684182881999999992e+01 4.515779114000000050e+01
-1.818971228499999881e+01 1.647950124999999844e+01 4.475835418999999860e+01
-1.794854903499999921e+01 1.678236532000000025e+01 4.504342651000000330e+01
-1.792415022500000177e+01 1.673982763000000062e+01 4.488315964000000236e+01
-1.807522559499999915e+01 1.672924948000000001e+01 4.516753386999999975e+01
-1.772515654500000082e+01 1.700776052000000149e+01 4.516499328999999818e+01
-1.804469847500000057e+01 1.664830159999999992e+01 4.489535521999999901e+01
-1.791760802499999983e+01 1.678779744999999934e+01 4.499362946000000107e+01
-1.809650206499999925e+01 1.668813467000000017e+01 4.510518265000000326e+01
-1.825059485499999923e+01 1.656227254999999943e+01 4.509785843000000227e+01
-1.818370032500000022e+01 1.644724417000000116e+01 4.466258621000000062e+01
-1.840601515499999863e+01 1.639702368000000021e+01 4.499149323000000322e+01
-1.809952139500000001e+01 1.662775183000000112e+01 4.495536804000000330e+01
-1.800190901499999896e+01 1.682110739000000166e+01 4.525363921999999661e+01
-1.805698752500000026e+01 1.675166464000000133e+01 4.518783187999999740e+01
-1.792408919500000053e+01 1.694065236999999868e+01 4.540201187000000260e+01
-1.784910750499999921e+01 1.688256979000000157e+01 4.509720612000000273e+01
-1.693719267499999859e+01 1.890007161999999852e+01 4.842937850999999938e+01
-1.673487639500000057e+01 1.898734808000000029e+01 4.823749160999999930e+01
-1.674030470499999979e+01 1.892744970000000038e+01 4.809389877000000268e+01
-1.664357924500000152e+01 1.903609227999999831e+01 4.817508315999999979e+01
-1.689177489500000107e+01 1.902058553999999901e+01 4.864710617000000070e+01
-1.665937590500000098e+01 1.909740972000000170e+01 4.836613846000000194e+01
-1.672327589500000045e+01 1.907997273999999877e+01 4.845292664000000116e+01
-1.667470335499999834e+01 1.900745915999999980e+01 4.816532134999999926e+01
-1.698130202500000152e+01 1.874833822000000083e+01 4.812826919999999831e+01
-1.682122588500000049e+01 1.899534368000000129e+01 4.843630600000000186e+01
-1.667638564499999987e+01 1.915088414999999955e+01 4.853942490000000021e+01
-1.671322798499999962e+01 1.911092520000000050e+01 4.851217270000000070e+01
-1.681939864499999970e+01 1.889487600000000000e+01 4.817291259999999653e+01
-1.695585799499999879e+01 1.886855840999999856e+01 4.838645171999999661e+01
-1.665088057499999863e+01 1.924049138999999897e+01 4.871836852999999934e+01
-1.698233961500000078e+01 1.877707433999999864e+01 4.820467376999999942e+01
-1.697847914500000144e+01 1.881152104999999963e+01 4.828572083000000248e+01
-1.698353743499999879e+01 1.875459050999999988e+01 4.814904022000000339e+01
-1.694228911500000123e+01 1.889832449000000025e+01 4.843537903000000000e+01
-1.672635435500000156e+01 1.895599890000000087e+01 4.813890075999999851e+01
-1.676209044499999834e+01 1.904823827999999963e+01 4.845099257999999764e+01
-1.667495131500000127e+01 1.895563650000000067e+01 4.803190613000000297e+01
-1.691781020499999855e+01 1.899935675000000046e+01 4.864595795000000322e+01
-1.682990431500000028e+01 1.890090322000000000e+01 4.821016311999999715e+01
-1.675528502499999917e+01 1.894983815999999877e+01 4.818265533000000289e+01
-1.688955473500000082e+01 1.879153966999999881e+01 4.805061721999999946e+01
-1.677543044500000136e+01 1.879683065000000042e+01 4.782881546000000128e+01
-1.690552306500000057e+01 1.860049963000000162e+01 4.758987044999999938e+01
-1.689164519499999884e+01 1.863926839999999885e+01 4.766142654000000078e+01
-1.687951826500000152e+01 1.869584417000000087e+01 4.778261565999999760e+01
-1.675098586500000053e+01 1.861913060999999914e+01 4.731917571999999694e+01
-1.672698378500000160e+01 1.859725332000000009e+01 4.721311187999999959e+01
-1.695816969499999871e+01 1.856127310000000108e+01 4.759712600999999665e+01
-1.707322478500000074e+01 1.836866140000000058e+01 4.733676909999999793e+01
-1.678153014500000140e+01 1.880149220999999926e+01 4.785346221999999727e+01
-1.676892638500000032e+01 1.878905629999999860e+01 4.779532623000000058e+01
-1.683866286499999987e+01 1.870121526999999872e+01 4.771219634999999926e+01
-1.671946501500000082e+01 1.862070608000000149e+01 4.725821685999999744e+01
-1.691832518500000049e+01 1.853688955000000149e+01 4.745190430000000248e+01
-1.685367369500000123e+01 1.861310720000000174e+01 4.751548386000000335e+01
-1.684068846499999950e+01 1.867991400000000013e+01 4.766133499000000029e+01
-1.674922346500000003e+01 1.866526173999999827e+01 4.743474960000000351e+01
-1.676688551499999846e+01 1.862220144000000133e+01 4.735990905999999967e+01
-1.688677763500000140e+01 1.879117726999999860e+01 4.804394913000000145e+01
-1.665373015500000164e+01 1.881001042999999839e+01 4.761177826000000124e+01
-1.682704329499999929e+01 1.845822285999999934e+01 4.706028747999999950e+01
-1.690741515499999892e+01 1.846553181999999893e+01 4.724500274999999760e+01
-1.694087004500000049e+01 1.821597050999999823e+01 4.666909789999999703e+01
-1.690983366500000074e+01 1.845393513999999868e+01 4.722001266000000186e+01
-1.716521239500000107e+01 1.810941075999999939e+01 4.685660553000000306e+01
-1.683243727500000020e+01 1.849896001999999839e+01 4.717668532999999798e+01
-1.709182524499999900e+01 1.826295995999999988e+01 4.710199355999999682e+01
-1.709819579499999875e+01 1.803443289000000149e+01 4.652456664999999703e+01
-1.675273299499999879e+01 1.847832632000000075e+01 4.695891189999999682e+01
-1.684311079500000119e+01 1.832551335999999864e+01 4.675047683999999748e+01
-1.712497115500000078e+01 1.818194341999999963e+01 4.696100615999999661e+01
-1.719219374500000086e+01 1.809182119000000100e+01 4.686681365999999826e+01
-1.694974303500000090e+01 1.811852026000000038e+01 4.643557358000000335e+01
-1.705404448499999859e+01 1.810995626000000058e+01 4.662864304000000004e+01
-1.711815810499999913e+01 1.808938742000000133e+01 4.670777129999999744e+01
-1.695461440500000094e+01 1.824127722000000063e+01 4.676285172000000046e+01
-1.725487303499999925e+01 1.961021184999999889e+01 5.091999054000000058e+01
-1.739077544499999917e+01 1.955961369999999988e+01 5.106961823000000322e+01
-1.746019148499999929e+01 1.936794423999999992e+01 5.071753693000000141e+01
-1.747239088499999937e+01 1.957822561000000050e+01 5.128609847999999971e+01
-1.729055190500000094e+01 1.944715260999999984e+01 5.057221985000000331e+01
-1.743613600500000160e+01 1.950014257000000129e+01 5.100952529999999996e+01
-1.743935561500000020e+01 1.959466314000000153e+01 5.126042174999999901e+01
-1.767621397499999958e+01 1.943255758000000100e+01 5.133020020000000017e+01
-1.759338164500000090e+01 1.936316824000000025e+01 5.097999954000000145e+01
-1.728508162500000012e+01 1.951571416999999897e+01 5.073810959000000054e+01
-1.724365019500000074e+01 1.951073599000000058e+01 5.063976287999999926e+01
-1.764017271499999850e+01 1.924635457999999844e+01 5.077465819999999752e+01
-1.764953780500000136e+01 1.941372060999999860e+01 5.122648239000000103e+01
-1.735346007500000098e+01 1.959394978999999992e+01 5.108135985999999917e+01
-1.750483107499999846e+01 1.954879903999999868e+01 5.127699660999999764e+01
-1.735416197500000024e+01 1.951261282000000108e+01 5.087262726000000157e+01
-1.742931532500000102e+01 1.960448979999999963e+01 5.126509856999999926e+01
-1.736274886500000036e+01 1.943497228000000021e+01 5.068970107999999897e+01
-1.733698439500000177e+01 1.955939245000000071e+01 5.095806884999999653e+01
-1.733212447500000053e+01 1.950560139999999976e+01 5.080904007000000178e+01
-1.735704970500000144e+01 1.938591909000000157e+01 5.055117416000000219e+01
-1.703034377499999863e+01 1.933453894000000162e+01 4.974431992000000236e+01
-1.718826460500000053e+01 1.923737097000000063e+01 4.981904983999999814e+01
-1.722641539500000007e+01 1.924609136000000120e+01 4.992030333999999669e+01
-1.718611693500000115e+01 1.949086141000000083e+01 5.046969604000000231e+01
-1.727314925499999987e+01 1.943599843999999877e+01 5.050747681000000000e+01
-1.725595259500000012e+01 1.925178289000000120e+01 4.999595261000000335e+01
-1.698277449500000102e+01 1.952448796999999914e+01 5.013705444000000000e+01
-1.727404189499999987e+01 1.921431494000000129e+01 4.993645096000000194e+01
-1.693140196499999917e+01 1.943102026000000038e+01 4.978950499999999835e+01
-1.706960844500000007e+01 1.955981587999999860e+01 5.040750122000000033e+01
-1.698820280500000024e+01 1.951561116999999967e+01 5.012530517999999802e+01
-1.703138518500000131e+01 1.942189550000000153e+01 4.997222899999999868e+01
-1.692336821499999999e+01 1.945609808000000029e+01 4.983773422000000153e+01
-1.712431502500000136e+01 1.930442571000000029e+01 4.986039352000000235e+01
-1.691399931500000164e+01 1.942390965999999963e+01 4.973522186000000289e+01
-1.713411116500000020e+01 1.936170338999999885e+01 5.002861785999999711e+01
-1.731712126500000082e+01 1.925987767999999889e+01 5.014307784999999740e+01
-1.727201628499999941e+01 1.922443150999999872e+01 4.995840835999999996e+01
-1.711319518499999859e+01 1.934296559999999943e+01 4.993704604999999930e+01
-1.701180434500000160e+01 1.928978491000000162e+01 4.959041213999999798e+01
-1.698848509500000148e+01 1.922623205000000013e+01 4.937805938999999711e+01
-1.690586638499999950e+01 1.936871861999999922e+01 4.957582474000000161e+01
-1.676067900500000007e+01 1.934271001999999839e+01 4.920905304000000058e+01
-1.678365874500000032e+01 1.924073552999999848e+01 4.899295044000000132e+01
-1.682385039500000090e+01 1.920133733999999848e+01 4.897405243000000041e+01
-1.706846785500000152e+01 1.929141377999999918e+01 4.971153641000000079e+01
