-4.599599594999999930e+00 2.494011449999999996e+01 1.105386428799999976e+02
-4.782975914999999745e+00 2.489675283000000050e+01 1.105140380899999997e+02
-4.722867725000000405e+00 2.495402288000000013e+01 1.103714675899999946e+02
-4.452398064999999683e+00 2.505487584999999839e+01 1.102425918600000045e+02
-4.692670585000000116e+00 2.502598332999999897e+01 1.100848007200000040e+02
-4.360746145000000240e+00 2.504149389000000170e+01 1.104122695899999940e+02
-4.421029804999999868e+00 2.509274053000000038e+01 1.101102752700000025e+02
-4.378171684999999869e+00 2.502932881999999992e+01 1.104459915200000069e+02
-4.620836015000000074e+00 2.503392553000000120e+01 1.101351013200000040e+02
-4.776765584999999703e+00 2.498410940000000124e+01 1.101720352199999979e+02
-9.021814105000000694e+00 2.286179495000000017e+01 1.119971771200000035e+02
-9.116544485000000364e+00 2.285497044999999972e+01 1.118527984600000025e+02
-8.739316705000000240e+00 2.300977849999999947e+01 1.119607772800000021e+02
-9.003598925000000364e+00 2.293674993000000129e+01 1.117555084199999982e+02
-8.848565815000000612e+00 2.295256948000000108e+01 1.119747772200000071e+02
-8.653150314999999537e+00 2.303785848000000058e+01 1.120120925899999946e+02
-8.668637994999999208e+00 2.305323934000000108e+01 1.119245529199999964e+02
-8.711595295000000405e+00 2.303572988000000166e+01 1.119136810300000064e+02
-7.968118425000000116e+00 2.350874089999999939e+01 1.114168624899999998e+02
-8.253076314999999497e+00 2.329375218999999930e+01 1.117513046300000070e+02
-8.159318685000000571e+00 2.335552739999999972e+01 1.116749191300000064e+02
-7.995664354999999723e+00 2.353447102999999885e+01 1.112744674700000047e+02
-8.099878074999999455e+00 2.345463704999999877e+01 1.114013061499999964e+02
-7.961236715000000075e+00 2.348160314000000071e+01 1.115302276599999942e+02
-8.137414695000000364e+00 2.340385961000000137e+01 1.115297241199999974e+02
-8.161267994999999331e+00 2.332964849000000029e+01 1.117688980100000009e+02
-8.103433365000000776e+00 2.342096472000000063e+01 1.115219039899999984e+02
-7.942647694999999786e+00 2.349057150000000149e+01 1.115274047900000056e+02
-8.134866475000000818e+00 2.347323751000000058e+01 1.112733230599999956e+02
-8.005277395000000240e+00 2.340670155999999835e+01 1.117384719799999999e+02
-7.982087844999999682e+00 2.344838475999999972e+01 1.116203994800000032e+02
-7.737577195000000074e+00 2.357071446999999864e+01 1.115543823200000020e+02
-7.900132894999999600e+00 2.350860356999999823e+01 1.115292205800000005e+02
-7.607114554999999889e+00 2.366064596000000009e+01 1.114244766199999930e+02
-7.654042955000000426e+00 2.363042593000000124e+01 1.114632339500000029e+02
-7.874006034999999848e+00 2.357703160999999881e+01 1.113144149799999951e+02
-7.779805894999999971e+00 2.362089681000000141e+01 1.112995224000000007e+02
-7.813123465000000323e+00 2.361966466999999881e+01 1.112513122600000059e+02
-7.652616264999999807e+00 2.359257649999999984e+01 1.116072006200000004e+02
-9.828969714999999496e+00 2.208044957999999980e+01 1.132970199600000001e+02
-9.805436844999999124e+00 2.210256718999999848e+01 1.132658309899999978e+02
-9.959630725000000240e+00 2.196858740000000054e+01 1.134348831199999950e+02
-9.873239274999999537e+00 2.214848852000000079e+01 1.130013046300000070e+02
-9.931016684999999455e+00 2.198479985999999897e+01 1.134314727799999929e+02
-9.863828415000000405e+00 2.213694905999999918e+01 1.130547180199999957e+02
-9.964841605000000158e+00 2.195831442000000067e+01 1.134591751100000039e+02
-9.760415795000000116e+00 2.214674520000000157e+01 1.132001113900000036e+02
-9.787984605000000116e+00 2.213567876999999839e+01 1.131886749300000048e+02
-9.819154505000000199e+00 2.223003530000000083e+01 1.128303222699999964e+02
-9.750856165000000075e+00 2.224968099000000166e+01 1.128813018799999952e+02
-9.677224875000000281e+00 2.232119893999999860e+01 1.127673950199999950e+02
-9.626386404999999868e+00 2.235834265000000087e+01 1.127295455900000007e+02
-9.634202715000000694e+00 2.239779425000000046e+01 1.125847549399999963e+02
-9.572740315000000777e+00 2.234685277999999897e+01 1.128586273199999965e+02
-9.796571495000000240e+00 2.230696629999999914e+01 1.126129226700000032e+02
-9.511449575000000323e+00 2.239892721000000009e+01 1.127886733999999933e+02
-9.409669635000000198e+00 2.251834630999999831e+01 1.125626525899999990e+02
-9.349344014999999786e+00 2.253192663000000096e+01 1.126194381699999951e+02
-9.483072045000000116e+00 2.244559621999999877e+01 1.126810607900000036e+02
-9.343415974999999207e+00 2.260522222000000170e+01 1.123699951199999987e+02
-9.505048515000000364e+00 2.251236104999999910e+01 1.124164199800000006e+02
-9.358545064999999497e+00 2.255339574999999996e+01 1.125285110500000059e+02
-9.329618214999999992e+00 2.255341862999999947e+01 1.125795288099999993e+02
-9.617769004999999538e+00 2.248629903999999868e+01 1.123104553200000026e+02
-9.614957575000000034e+00 2.249833440999999823e+01 1.122724304200000063e+02
-9.080438374999999951e+00 2.275263357000000042e+01 1.123076324499999998e+02
-9.449392075000000446e+00 2.254860066999999901e+01 1.123851928699999974e+02
-9.366773365000000240e+00 2.259418249000000145e+01 1.123682022100000069e+02
-9.558244464999999579e+00 2.255431508999999934e+01 1.121725158699999980e+02
-9.132638695000000695e+00 2.274551916000000062e+01 1.122408599900000041e+02
-9.387452845000000323e+00 2.263663625999999951e+01 1.121799545300000034e+02
-9.270921465000000694e+00 2.269456243000000129e+01 1.121787414599999977e+02
-9.217122794999999869e+00 2.272504948999999996e+01 1.121626052900000019e+02
-8.740022424999999373e+00 2.297961568999999926e+01 1.120717773399999970e+02
-9.043020005000000694e+00 2.282915639999999868e+01 1.120812530500000008e+02
-9.192025895000000446e+00 2.275961064999999905e+01 1.120667953500000067e+02
-9.320848225000000653e+00 2.268464041000000009e+01 1.121181259199999971e+02
-8.752404925000000446e+00 2.297073126000000087e+01 1.120839233399999983e+02
-1.026930785499999921e+01 2.139260626000000087e+01 1.146793212900000043e+02
-1.045844054500000020e+01 2.125742864000000054e+01 1.147515335100000016e+02
-1.052627730500000069e+01 2.135913610000000062e+01 1.143200607299999945e+02
-1.035736632499999921e+01 2.143523550000000100e+01 1.143929214500000029e+02
-1.033608031500000024e+01 2.152032231999999823e+01 1.141702652000000029e+02
-1.025897002499999999e+01 2.153288793000000112e+01 1.142714309699999973e+02
-1.052740263499999962e+01 2.148750066999999930e+01 1.139242095900000038e+02
-1.017534041500000086e+01 2.160049963000000162e+01 1.142173614499999985e+02
-1.018353438499999974e+01 2.167597341000000100e+01 1.139613342300000056e+02
-1.017926955499999941e+01 2.164973592999999852e+01 1.140537109400000020e+02
-1.029915404499999987e+01 2.170483159999999856e+01 1.136525421099999988e+02
-1.041327834500000016e+01 2.104505681999999922e+01 1.154353103600000026e+02
-9.650724175000000571e+00 2.081249379999999860e+01 1.172295303300000029e+02
-9.885427234999999868e+00 2.075827551000000071e+01 1.170242919899999947e+02
-9.957902665000000653e+00 2.064529179999999897e+01 1.172058715799999931e+02
-9.926385644999999869e+00 2.063035726000000025e+01 1.172899780300000003e+02
-9.812722924999999208e+00 2.077131032999999860e+01 1.170974273700000055e+02
-1.004737257500000069e+01 2.068580388999999897e+01 1.169719161999999955e+02
-9.895627734999999703e+00 2.085104132000000021e+01 1.167732620200000042e+02
-9.912545915000000818e+00 2.080583714999999856e+01 1.168635711700000002e+02
-9.865648034999999538e+00 2.081994008999999934e+01 1.168962631200000004e+02
-1.019375014499999921e+01 2.070542288000000042e+01 1.167010803200000026e+02
-1.003550124500000074e+01 2.091080618000000158e+01 1.164029388400000045e+02
-1.015425658500000061e+01 2.066937399000000042e+01 1.168562698399999960e+02
-1.008979964499999937e+01 2.071674871000000095e+01 1.168302307099999950e+02
-1.018213057500000041e+01 2.075984335000000058e+01 1.165757446300000026e+02
-1.000501799499999933e+01 2.085314320999999893e+01 1.166011962900000043e+02
-1.008936858500000078e+01 2.076148747999999955e+01 1.167132492100000007e+02
-1.023650526499999991e+01 2.071937322000000137e+01 1.165990295400000036e+02
-1.020686125499999974e+01 2.081203221999999897e+01 1.164006957999999941e+02
-1.005079436499999979e+01 2.095601797000000133e+01 1.162606735199999974e+02
-1.040560698500000036e+01 2.072588873000000120e+01 1.163145904499999972e+02
-1.028316664499999966e+01 2.089313650000000067e+01 1.160589675899999946e+02
-1.029044508499999999e+01 2.089539479999999827e+01 1.160410537700000049e+02
-1.019290709500000069e+01 2.091295767000000083e+01 1.161513977099999977e+02
-1.022622466500000016e+01 2.082298803000000120e+01 1.163416442900000050e+02
-1.024818968499999983e+01 2.083180379999999943e+01 1.162821273800000057e+02
-1.034081816499999995e+01 2.075294256000000104e+01 1.163461227399999984e+02
-1.019553160499999933e+01 2.085603856999999905e+01 1.163016510000000068e+02
-1.035956740499999995e+01 2.083909750000000116e+01 1.160818710300000021e+02
-1.015155196499999946e+01 2.097647618999999963e+01 1.160476608299999981e+02
-1.048333525500000007e+01 2.084817647999999934e+01 1.158570175199999994e+02
-1.033411192500000020e+01 2.090848302999999930e+01 1.159358825700000040e+02
-1.017802596499999979e+01 2.100015020000000021e+01 1.159409179700000010e+02
-1.032688307499999958e+01 2.093620824999999996e+01 1.158733444199999951e+02
-1.022101759499999929e+01 2.103475713999999996e+01 1.157763824499999998e+02
-1.053536772500000041e+01 2.087859869000000046e+01 1.156914215099999979e+02
-1.042053008499999933e+01 2.095505667000000116e+01 1.156694259599999981e+02
-1.020290160499999921e+01 2.105396032000000162e+01 1.157534103400000021e+02
-1.044757628500000024e+01 2.112378453999999905e+01 1.151553039599999977e+02
-1.033537459499999933e+01 2.121402502000000112e+01 1.150863494900000035e+02
-1.056195235500000074e+01 2.107716131000000104e+01 1.150958938600000039e+02
-1.040245222499999933e+01 2.113786839999999856e+01 1.151910553000000021e+02
-1.035362791500000057e+01 2.122156667999999868e+01 1.150340347300000019e+02
-1.058357405499999970e+01 2.109645223000000058e+01 1.150042953500000067e+02
-1.041449522499999958e+01 2.116719197999999835e+01 1.150869216899999969e+02
-1.053686690500000012e+01 2.113972234999999955e+01 1.149592742899999962e+02
-1.034345412499999917e+01 2.125326680999999951e+01 1.149605331399999955e+02
-1.033167815500000053e+01 2.124879980000000046e+01 1.149931411700000012e+02
-1.036823439499999999e+01 2.129960394000000079e+01 1.147845001200000041e+02
-8.001489404999999167e+00 2.103764868000000021e+01 1.188372268699999950e+02
-8.534478905000000282e+00 2.079545736000000034e+01 1.187558517500000050e+02
-8.381219624999999951e+00 2.082647847999999868e+01 1.188693161000000060e+02
-8.384427784999999744e+00 2.084125661999999934e+01 1.188312911999999955e+02
-8.167642354999999910e+00 2.099937962999999996e+01 1.187278060900000014e+02
-8.600553274999999331e+00 2.078336095999999955e+01 1.187039871199999936e+02
-8.324155564999999868e+00 2.085807943000000009e+01 1.188652419999999950e+02
-8.049474475000000240e+00 2.102224492999999939e+01 1.188177185100000059e+02
-8.325658555000000405e+00 2.095060490999999914e+01 1.186495971700000069e+02
-8.711595295000000405e+00 2.075860739000000166e+01 1.186270446799999974e+02
-8.673093554999999455e+00 2.084880208999999951e+01 1.184626769999999993e+02
-8.905893085000000653e+00 2.086452245999999988e+01 1.181222534200000069e+02
-8.767495865000000776e+00 2.077797079000000124e+01 1.185109100300000051e+02
-8.682389974999999538e+00 2.087217091999999852e+01 1.183954620399999982e+02
-8.762136225000000778e+00 2.081685017999999943e+01 1.184244232199999942e+02
-8.895204305000000033e+00 2.085372304999999926e+01 1.181621704100000017e+02
-8.918866875000000860e+00 2.086673498000000038e+01 1.181000213599999995e+02
-9.050855394999999248e+00 2.067946385999999848e+01 1.183780670200000031e+02
-8.750943895000000694e+00 2.081834555000000009e+01 1.184354324300000059e+02
-8.791536094999999662e+00 2.086153554999999926e+01 1.182786331199999950e+02
-8.782499075000000488e+00 2.086004399999999848e+01 1.182940139800000026e+02
-9.012490984999999455e+00 2.083712530000000029e+01 1.180490570099999985e+02
-9.283689255000000529e+00 2.074884939000000017e+01 1.178985443100000055e+02
-9.444841144999999827e+00 2.072772360000000091e+01 1.177285232499999950e+02
-9.257882835000000199e+00 2.065815114999999835e+01 1.181559219399999989e+02
-9.220689534999999992e+00 2.076382208000000062e+01 1.179486007699999988e+02
-9.280847315000000819e+00 2.068983602000000133e+01 1.180468215899999933e+02
-9.277932885000000240e+00 2.076201773000000017e+01 1.178742599499999955e+02
-9.390260454999999951e+00 2.076005697000000083e+01 1.177245254500000016e+02
-9.352842094999999745e+00 2.074169682999999864e+01 1.178209075900000045e+02
-9.502885575000000529e+00 2.061212301000000124e+01 1.179311141999999961e+02
-9.578008414999999331e+00 2.061134480999999852e+01 1.178271331800000041e+02
-9.680562735000000529e+00 2.060033941000000013e+01 1.177096328699999930e+02
-9.639951464999999331e+00 2.059253835999999893e+01 1.177860336300000057e+02
-9.528203724999999125e+00 2.061935568000000174e+01 1.178776550299999997e+02
-9.488557574999999744e+00 2.062754582999999897e+01 1.179134140000000031e+02
-9.664056535000000281e+00 2.067291784000000021e+01 1.175545730599999956e+02
-9.532304525000000694e+00 2.076018666999999951e+01 1.175258636500000051e+02
-9.463498834999999332e+00 2.083449697000000000e+01 1.174416351299999945e+02
-9.531648394999999496e+00 2.079265356000000153e+01 1.174480133099999932e+02
-9.625478505000000240e+00 2.076374960000000058e+01 1.173876647900000023e+02
-9.724607224999999744e+00 2.070453404999999947e+01 1.173933715799999931e+02
-7.506383654999999600e+00 2.100903081999999955e+01 1.194642486599999955e+02
-7.416280504999999579e+00 2.115133428000000038e+01 1.192403716999999972e+02
-7.594564195000000240e+00 2.106095648000000153e+01 1.192412643400000007e+02
-7.777391194999999868e+00 2.095108175000000017e+01 1.192772903399999933e+02
-7.777124165000000033e+00 2.097287512000000120e+01 1.192270050000000055e+02
-7.740495444999999641e+00 2.104879521999999881e+01 1.191002349900000041e+02
-7.912408584999999661e+00 2.096454381999999939e+01 1.190939636199999967e+02
-7.943292375000000405e+00 2.101917790999999980e+01 1.189413757300000043e+02
-7.969747305000000281e+00 2.099942541000000062e+01 1.189551467900000006e+02
-7.684980154999999868e+00 2.105848454999999930e+01 1.191402816800000011e+02
-8.139825585000000530e+00 2.090918874999999844e+01 1.189638824499999998e+02
-4.473886255000000034e+00 2.240080786000000046e+01 1.190846023600000052e+02
-4.952893975000000282e+00 2.202292393999999831e+01 1.195449523900000059e+02
-4.998452904999999724e+00 2.200738287000000071e+01 1.195536270099999996e+02
-4.971738574999999827e+00 2.201035451999999992e+01 1.195591125499999947e+02
-4.824250935000000240e+00 2.213222264999999922e+01 1.194078750599999950e+02
-4.742391344999999703e+00 2.221236943999999980e+01 1.193024063099999950e+02
-5.366708515000000013e+00 2.180578755999999885e+01 1.197446899400000007e+02
-4.816812275000000199e+00 2.222206259000000017e+01 1.192399444600000038e+02
-5.281011344999999579e+00 2.185189198999999860e+01 1.197050018300000005e+02
-4.799913165000000426e+00 2.220305776000000009e+01 1.192904663099999993e+02
-5.074952845000000323e+00 2.200659703999999905e+01 1.195185241700000063e+02
-5.349633934999999951e+00 2.185661839999999856e+01 1.196445007300000043e+02
-5.408097985000000385e+00 2.184924077999999881e+01 1.196141204799999969e+02
-5.138620135000000033e+00 2.200909947999999972e+01 1.194675445599999932e+02
-5.369523765000000282e+00 2.186943579000000071e+01 1.195992584199999982e+02
-4.969663384999999600e+00 2.215200949000000108e+01 1.192784423800000013e+02
-5.193544144999999723e+00 2.196643972000000034e+01 1.195203781099999958e+02
-5.431924584999999972e+00 2.181011724000000029e+01 1.196840057400000035e+02
-6.082051994999999600e+00 2.156738805999999897e+01 1.196735458400000027e+02
-6.026475665000000426e+00 2.160143040999999897e+01 1.196437911999999955e+02
-5.785878894999999744e+00 2.176722859999999926e+01 1.194702148399999970e+02
-5.976777795000000282e+00 2.163207006000000021e+01 1.196167068499999999e+02
-5.904382465000000302e+00 2.161121892999999972e+01 1.197365417500000007e+02
-5.600686784999999723e+00 2.187460469999999901e+01 1.193858413699999943e+02
-5.873155354999999744e+00 2.172458410000000129e+01 1.194906158400000038e+02
-5.781438585000000074e+00 2.178375387000000174e+01 1.194342498799999959e+02
-5.811307665000000178e+00 2.178862141999999835e+01 1.193939056399999998e+02
-5.928922414999999724e+00 2.160138081999999926e+01 1.197370452899999975e+02
-5.727193595000000137e+00 2.167489385000000013e+01 1.197508315999999979e+02
-6.105905295000000343e+00 2.160500860000000145e+01 1.195571594200000050e+02
-6.255067584999999930e+00 2.155140829000000124e+01 1.195337676999999985e+02
-6.540124654999999620e+00 2.148656224999999864e+01 1.193944244399999945e+02
-6.593953844999999703e+00 2.144786978000000133e+01 1.194336242699999957e+02
-6.168889765000000303e+00 2.158664845999999926e+01 1.195371398900000059e+02
-6.300428154999999641e+00 2.151151799999999881e+01 1.195848464999999976e+02
-6.570451495000000364e+00 2.147472524999999877e+01 1.193918228099999936e+02
-6.365846395000000157e+00 2.150200415000000120e+01 1.195395736699999958e+02
-6.354860064999999558e+00 2.158208227000000079e+01 1.193527450600000037e+02
-6.403562305000000343e+00 2.151101445999999839e+01 1.194775695799999937e+02
-2.223459005000000044e+00 2.329412221999999844e+01 1.184326400799999988e+02
-2.079217675000000209e+00 2.327219533999999967e+01 1.185697860700000064e+02
-1.664071794999999909e+00 2.353668356000000017e+01 1.181160659800000019e+02
-2.292165515000000209e+00 2.319336462000000054e+01 1.186553192100000018e+02
-1.991212605000000080e+00 2.338488531000000137e+01 1.183269500699999952e+02
-2.257280114999999920e+00 2.329429006000000157e+01 1.184133529700000054e+02
-2.544534445000000034e+00 2.319250249999999980e+01 1.185169448900000049e+02
-2.427774195000000024e+00 2.309896231000000100e+01 1.188242568999999946e+02
-2.166238545000000126e+00 2.326070165000000145e+01 1.185510559100000023e+02
-1.795942064999999976e+00 2.346251820999999893e+01 1.182346725499999991e+02
-1.911760094999999993e+00 2.331706761999999955e+01 1.185468597400000021e+02
-1.728505844999999930e+00 2.347691487999999893e+01 1.182349548300000066e+02
-2.184961074999999919e+00 2.318143605999999934e+01 1.187459335300000021e+02
-1.715268844999999986e+00 2.344790410999999963e+01 1.183174667400000004e+02
-2.112310175000000179e+00 2.333003758999999988e+01 1.184015350300000051e+02
-2.305650475000000199e+00 2.320060490999999914e+01 1.186290435800000012e+02
-2.659013504999999888e+00 2.305440283000000079e+01 1.188108291599999973e+02
-2.697023155000000116e+00 2.300072241000000162e+01 1.189286804200000063e+02
-2.272706744999999806e+00 2.332755421999999967e+01 1.183186187700000005e+02
-8.234841849999999797e-01 2.377960347999999868e+01 1.179975128199999972e+02
-3.617722950000000215e-01 2.395571660999999963e+01 1.177154769899999991e+02
-3.185670349999999984e-01 2.390633534999999910e+01 1.178599395800000025e+02
-5.235726849999999821e-01 2.386845158999999938e+01 1.178805923500000006e+02
-6.105058150000000072e-01 2.387619923999999827e+01 1.178275756799999954e+02
-8.457849050000000313e-01 2.370508337000000054e+01 1.181823959400000064e+02
-7.398049850000000260e-01 2.373465871999999877e+01 1.181458053599999971e+02
-9.241464150000000544e-01 2.370440435000000079e+01 1.181544952400000028e+02
-3.962151950000000200e-01 2.387503957999999926e+01 1.179117279099999962e+02
9.926056499999999505e-02 2.408101797000000133e+01 1.175649948100000017e+02
2.099824499999999872e-02 2.409277486999999951e+01 1.175048599200000012e+02
8.434507850000000362e-01 2.433925009000000017e+01 1.171768722500000024e+02
2.466444999999999835e-03 2.402932501000000087e+01 1.176624450700000040e+02
-7.221353050000000051e-01 2.381265782999999914e+01 1.179501495399999982e+02
-5.668008350000000029e-01 2.388173437000000021e+01 1.178297653200000070e+02
-1.504075549999999983e-01 2.403231191000000067e+01 1.175968093900000042e+02
-5.692651250000000385e-01 2.390469502999999918e+01 1.177692718499999955e+02
-4.573228349999999831e-01 2.394397116000000025e+01 1.177097778299999931e+02
-6.411950549999999582e-01 2.385914754999999943e+01 1.178601913499999938e+02
-1.028775924999999924e+00 2.364854955999999930e+01 1.182597656300000040e+02
1.748373549999999998e-01 2.404863500000000087e+01 1.176907272299999931e+02
6.702787850000000436e-01 2.421238470000000120e+01 1.174657821699999971e+02
5.808508449999999490e-01 2.419817876999999839e+01 1.174586944600000038e+02
5.775129850000000342e-01 2.410281515000000141e+01 1.177530212399999954e+02
4.034140150000000147e-01 2.409082937000000157e+01 1.176905517600000053e+02
6.160414250000000314e-01 2.420742558999999972e+01 1.174501266500000014e+02
-7.096917649999999744e-01 2.372678137000000120e+01 1.181840133700000024e+02
6.432020649999999895e-01 2.411296987000000058e+01 1.177591018699999950e+02
5.994894549999999489e-01 2.408986807000000141e+01 1.178058242799999960e+02
6.014196849999999817e-01 2.419743108999999848e+01 1.174728012100000001e+02
7.027761949999999924e-01 2.424194860000000062e+01 1.173925476099999941e+02
-5.861830500000000249e-02 2.392444371999999930e+01 1.179428329499999961e+02
-3.327996750000000170e-01 2.387529898000000017e+01 1.179384918199999959e+02
-1.409203950000000038e-01 2.390403509000000071e+01 1.179590911899999952e+02
7.213690249999999970e-01 2.427854298999999827e+01 1.172895355200000012e+02
1.034120794999999982e+00 2.428956365000000162e+01 1.173857879600000018e+02
9.328253250000000385e-01 2.423535298999999910e+01 1.175072937000000053e+02
9.635488949999999608e-01 2.423465108999999984e+01 1.175160369900000035e+02
4.452554945000000153e+00 2.497841787000000124e+01 1.161604309100000023e+02
3.739462135000000131e+00 2.490059804999999926e+01 1.163183898900000059e+02
3.856825114999999915e+00 2.493723058999999864e+01 1.162126769999999993e+02
4.354040385000000235e+00 2.498772191999999848e+01 1.161157913199999996e+02
4.271761174999999966e+00 2.494500494000000046e+01 1.162470092800000003e+02
4.323927164999999739e+00 2.500995015999999893e+01 1.160368957499999993e+02
4.087766884999999739e+00 2.502058171999999914e+01 1.159669036899999952e+02
4.232416395000000442e+00 2.496888875999999868e+01 1.161612091100000015e+02
3.928869484999999884e+00 2.496147679999999980e+01 1.161418914799999982e+02
4.153227095000000091e+00 2.493978261999999901e+01 1.162472381599999949e+02
4.326353315000000421e+00 2.502295828000000100e+01 1.159936447099999981e+02
4.327593085000000173e+00 2.495998524999999901e+01 1.162049102799999929e+02
3.857290504999999925e+00 2.498667288000000042e+01 1.160470199600000001e+02
3.803274394999999863e+00 2.485209035999999827e+01 1.164902648900000059e+02
4.011724714999999719e+00 2.492918919999999972e+01 1.162621688800000044e+02
4.155416725000000255e+00 2.497382497999999984e+01 1.161334686299999959e+02
3.795713665000000070e+00 2.491140890000000141e+01 1.162903366099999971e+02
3.655321364999999822e+00 2.488673543999999893e+01 1.163465271000000030e+02
3.692701575000000069e+00 2.491275548999999856e+01 1.162679214500000029e+02
3.661470655000000018e+00 2.485082768999999914e+01 1.164675979600000062e+02
3.263811355000000081e+00 2.480430746000000042e+01 1.165609970099999941e+02
3.579920055000000101e+00 2.487692403999999868e+01 1.163658599900000041e+02
3.485525374999999926e+00 2.484188985999999844e+01 1.164674606300000050e+02
3.374090434999999832e+00 2.489563512999999872e+01 1.162787857099999940e+02
3.369512794999999894e+00 2.490282201999999856e+01 1.162548828099999980e+02
3.512640235000000111e+00 2.493532705000000149e+01 1.161677398700000055e+02
3.321832895000000008e+00 2.478627539000000013e+01 1.166269455000000050e+02
3.226553205000000091e+00 2.482316351000000054e+01 1.164950485199999974e+02
3.658514264999999988e+00 2.494952153999999922e+01 1.161403808599999934e+02
3.487840895000000163e+00 2.490799855999999934e+01 1.162532577500000031e+02
3.230901955000000214e+00 2.473261785000000046e+01 1.167893981900000000e+02
3.324136975000000049e+00 2.481974934999999860e+01 1.165186233499999986e+02
3.548612835000000132e+00 2.490193319000000116e+01 1.162807235700000064e+02
3.590452434999999998e+00 2.487978886999999872e+01 1.163579254200000008e+02
3.189691784999999946e+00 2.478613043000000005e+01 1.166104812600000002e+02
3.032598735000000101e+00 2.476600407999999831e+01 1.166342163099999993e+02
3.054140335000000039e+00 2.478301000000000087e+01 1.165848541299999965e+02
2.764597175000000018e+00 2.465571737000000141e+01 1.169145126300000044e+02
2.924257514999999863e+00 2.469611502000000058e+01 1.168309249899999998e+02
3.081392525000000049e+00 2.469759129999999914e+01 1.168748245200000042e+02
2.831197974999999811e+00 2.480632925000000100e+01 1.164188537600000046e+02
2.682588814999999904e+00 2.464413976999999889e+01 1.169235229500000059e+02
2.815546274999999987e+00 2.478151082999999844e+01 1.164990234400000020e+02
2.923399214999999884e+00 2.478699635999999984e+01 1.165246048000000059e+02
2.875749825000000204e+00 2.473938894000000133e+01 1.166710662800000051e+02
2.853758094999999884e+00 2.480941915000000009e+01 1.164174270599999943e+02
2.547563794999999853e+00 2.461819982000000095e+01 1.169580764800000026e+02
2.418627025000000152e+00 2.470947789999999955e+01 1.165941543600000045e+02
2.598291634999999822e+00 2.470674658000000079e+01 1.166718444800000043e+02
2.472048045000000194e+00 2.467817830999999984e+01 1.167222824100000054e+02
1.718591924999999909e+00 2.446724461999999889e+01 1.171625289899999984e+02
2.420633555000000214e+00 2.467147969999999901e+01 1.167258148199999965e+02
1.997442485000000101e+00 2.458669042000000005e+01 1.168570404099999962e+02
2.643385175000000142e+00 2.474745320999999976e+01 1.165487594599999994e+02
1.572176215000000044e+00 2.448386526000000174e+01 1.170496292100000062e+02
1.943605664999999982e+00 2.452660513000000009e+01 1.170435638400000045e+02
1.720300914999999931e+00 2.450327825000000104e+01 1.170390396100000032e+02
1.758894205000000044e+00 2.445081091000000129e+01 1.172344436599999966e+02
1.767668004999999987e+00 2.446249532999999943e+01 1.171975326499999994e+02
2.136266945000000028e+00 2.458470678000000120e+01 1.169166336100000052e+02
2.225836034999999935e+00 2.461381674000000075e+01 1.168504104600000062e+02
1.880522014999999936e+00 2.451761769999999885e+01 1.170505523700000055e+02
2.034067395000000111e+00 2.456984090999999992e+01 1.169290161100000063e+02
2.174886944999999905e+00 2.458638142999999943e+01 1.169255523700000055e+02
1.850404975000000007e+00 2.446135473000000005e+01 1.172328949000000051e+02
1.880319835000000106e+00 2.446875906000000001e+01 1.172187652599999979e+02
1.561262364999999930e+00 2.444539784999999910e+01 1.171779785199999964e+02
1.723085645000000055e+00 2.449893331000000174e+01 1.170550689699999936e+02
2.548807384999999925e+00 2.466861486000000170e+01 1.167843780500000008e+02
2.183977365000000059e+00 2.463938664999999872e+01 1.167464141800000021e+02
1.964655164999999926e+00 2.458328771000000046e+01 1.168563079799999969e+02
6.984346624999999698e+00 2.538823461000000137e+01 1.147843246500000021e+02
7.385710004999999967e+00 2.537892293999999893e+01 1.147373199499999998e+02
7.397360084999999863e+00 2.538025044999999835e+01 1.147297973600000063e+02
7.151087044999999698e+00 2.537257527999999951e+01 1.148102188099999950e+02
7.441633464999999781e+00 2.540441656000000137e+01 1.146275405899999953e+02
7.221384285000000069e+00 2.532381582000000009e+01 1.149835357700000031e+02
7.197492835000000255e+00 2.539607763000000062e+01 1.147100982700000031e+02
7.352403875000000255e+00 2.541707754000000108e+01 1.145971984899999967e+02
7.585790874999999822e+00 2.538588857999999959e+01 1.146691589400000026e+02
7.199270485000000441e+00 2.536933660000000046e+01 1.148127441400000066e+02
7.122160195000000193e+00 2.534076834000000034e+01 1.149387359600000025e+02
7.599523784999999698e+00 2.541391515999999839e+01 1.145583572400000065e+02
7.571901565000000112e+00 2.537878179000000145e+01 1.146994094799999999e+02
7.557382825000000359e+00 2.538195943999999926e+01 1.146901626599999986e+02
8.862241985000000710e+00 2.545026159000000021e+01 1.140574798600000008e+02
8.563333755000000380e+00 2.544836949999999831e+01 1.141611099200000012e+02
8.439916845000000833e+00 2.545589971000000062e+01 1.141695709199999982e+02
8.364320994999999925e+00 2.545229482999999959e+01 1.142087020900000027e+02
4.873140574999999863e+00 2.715838383999999905e+01 1.068212585400000023e+02
4.796087505000000029e+00 2.719310902999999868e+01 1.065870437600000002e+02
-3.732202050000000271e-01 2.631583928999999955e+01 1.087897872900000067e+02
-3.953568949999999860e-01 2.631282567999999955e+01 1.087865982099999940e+02
-1.629884249999999923e-01 2.634576176999999930e+01 1.088133392299999969e+02
-2.720277349999999927e-01 2.632514714999999939e+01 1.088280029299999967e+02
-1.362969850000000094e-01 2.638710928000000067e+01 1.086183624300000048e+02
-9.807753499999999347e-02 2.642505025999999901e+01 1.084520111100000008e+02
2.134919500000000137e-02 2.644671392000000054e+01 1.084416885400000012e+02
4.096701150000000013e-01 2.653793858999999955e+01 1.082992324800000006e+02
5.202047850000000029e-01 2.656443167000000116e+01 1.082559432999999984e+02
6.711793500000000356e-02 2.644203710000000029e+01 1.085056915299999929e+02
3.555891549999999901e-01 2.647608709000000005e+01 1.085764617899999962e+02
7.266180549999999849e-01 2.662261724000000029e+01 1.081294632000000036e+02
9.199357499999999410e-02 2.644342564999999823e+01 1.085199050899999946e+02
-1.538252499999999932e-02 2.642329167999999839e+01 1.085326309200000026e+02
1.595022650000000042e-01 2.642816686000000104e+01 1.086581039400000037e+02
2.646772849999999844e-01 2.644285345000000120e+01 1.086719970700000033e+02
1.142828449999999940e-01 2.645384359000000174e+01 1.084845962499999956e+02
3.876328500000000149e-02 2.644868994000000129e+01 1.084463806199999993e+02
6.085951349999999538e-01 2.657653188999999827e+01 1.082688980100000009e+02
7.648682499999999440e-02 2.643728399000000095e+01 1.085386733999999933e+02
3.745520150000000159e-01 2.652535008999999988e+01 1.083348388699999987e+02
5.960104449999999998e-01 2.658748770000000050e+01 1.082006454499999961e+02
-6.979155500000000512e-02 2.641352223999999893e+01 1.085368118300000049e+02
3.183157449999999833e-01 2.652853535999999934e+01 1.082695999099999966e+02
1.900541749999999919e-01 2.645483541000000116e+01 1.085448379500000016e+02
-1.025703978499999991e+01 2.176572180000000145e+01 1.135353088399999990e+02
-1.013535857499999970e+01 2.182724522999999905e+01 1.135646438600000039e+02
-1.016377425499999987e+01 2.179281377999999947e+01 1.136223525999999993e+02
-1.007684874499999950e+01 2.180943059999999889e+01 1.137312469499999992e+02
-1.016508650499999966e+01 2.184158850000000029e+01 1.134635238599999951e+02
-1.001460814500000041e+01 2.193868017000000137e+01 1.134335632300000043e+02
-1.016651320499999933e+01 2.185799550999999852e+01 1.134087066700000008e+02
-1.004596495500000053e+01 2.204084921000000108e+01 1.130507202099999944e+02
-1.003243040499999950e+01 2.205174780000000112e+01 1.130411224399999952e+02
-1.006546568499999950e+01 2.197151326999999910e+01 1.132350082399999991e+02
-1.018390440499999983e+01 2.182844685999999967e+01 1.134704437299999995e+02
-1.022763228500000032e+01 2.182053900000000013e+01 1.134145965600000068e+02
-1.010215163500000024e+01 2.190246725000000083e+01 1.133865432700000042e+02
-8.679597615000000488e+00 2.313330602999999996e+01 1.115960006699999951e+02
-8.530896905000000530e+00 2.314031744000000046e+01 1.118402786300000002e+02
-8.767926935000000199e+00 2.309459066000000149e+01 1.115840682999999984e+02
-8.724073174999999125e+00 2.307662343999999877e+01 1.117333297699999974e+02
-8.623227834999999786e+00 2.311724995999999877e+01 1.117607345600000031e+02
-8.237130875000000074e+00 2.341943502000000166e+01 1.112973480200000012e+02
-8.407930135000000860e+00 2.324717473999999839e+01 1.116520614599999988e+02
-8.529538864999999248e+00 2.323092030999999835e+01 1.114926147500000013e+02
-8.279397725000000818e+00 2.339401387999999926e+01 1.113184966999999972e+02
-8.328622575000000694e+00 2.326680135999999877e+01 1.117211151099999995e+02
-8.515840295000000282e+00 2.321827840999999992e+01 1.115666122399999978e+02
-7.152536154999999951e+00 2.121114873999999872e+01 1.193929977399999984e+02
-7.019117115000000240e+00 2.119981145999999939e+01 1.195699691800000011e+02
-7.254167315000000116e+00 2.112387608999999955e+01 1.194779739399999983e+02
-6.685476064999999579e+00 2.140113592000000153e+01 1.194527053799999976e+02
-6.760671375000000261e+00 2.139029455000000013e+01 1.193962326000000047e+02
-6.856469865000000219e+00 2.136232518999999996e+01 1.193586502099999933e+02
-6.772336724999999724e+00 2.130542897999999852e+01 1.195893859899999967e+02
-7.149556875000000034e+00 2.126851033999999885e+01 1.192637176500000038e+02
-7.057477715000000096e+00 2.129242467999999988e+01 1.193070373500000017e+02
-6.835523365000000240e+00 2.133505772999999905e+01 1.194478988599999951e+02
-6.963945145000000281e+00 2.128045416000000145e+01 1.194390640299999973e+02
-6.617841484999999579e+00 2.132761526000000174e+01 1.197056045500000039e+02
-4.383752584999999868e+00 2.511449956999999955e+01 1.100627136199999967e+02
-4.226560355000000158e+00 2.517354727000000025e+01 1.100130310100000059e+02
-4.150167224999999682e+00 2.519032812000000021e+01 1.100394210799999968e+02
-4.109399555000000426e+00 2.522369146000000129e+01 1.099499740600000024e+02
-4.199231864999999786e+00 2.516172933000000000e+01 1.100980682400000035e+02
-3.840657944999999795e+00 2.522029257000000158e+01 1.103076782199999997e+02
-4.247030014999999992e+00 2.508052968999999877e+01 1.103814544699999942e+02
-3.769345995000000116e+00 2.527911137999999980e+01 1.101492614699999990e+02
-4.175889725000000219e+00 2.516174841000000129e+01 1.101278076199999987e+02
-4.083883045000000322e+00 2.519307852000000025e+01 1.101124420200000031e+02
-4.236081835000000240e+00 2.514535665000000009e+01 1.101204605100000009e+02
-4.126493214999999992e+00 2.522043370999999823e+01 1.099419784499999935e+02
-4.383741135000000178e+00 2.510314702999999881e+01 1.101108856200000048e+02
-4.275449515000000034e+00 2.517479467000000071e+01 1.099452972400000021e+02
-3.532460925000000085e+00 2.539351797000000133e+01 1.099390182500000037e+02
-3.790639634999999785e+00 2.535881566999999848e+01 1.097803115800000029e+02
-3.598981615000000023e+00 2.541728352999999885e+01 1.097434844999999939e+02
-3.495336294999999982e+00 2.536355733999999984e+01 1.101270904499999972e+02
-3.503301384999999879e+00 2.540965414000000067e+01 1.098991851800000035e+02
-3.423421625000000024e+00 2.543489217999999852e+01 1.098797225999999938e+02
-5.970998524999999724e+00 2.439852284999999910e+01 1.109468536400000005e+02
-6.945638415000000343e+00 2.400549077999999881e+01 1.110523452799999973e+02
-6.470330954999999662e+00 2.413931035999999963e+01 1.112252502399999941e+02
-5.943952324999999703e+00 2.438508367000000021e+01 1.110383377099999933e+02
-6.276643514999999951e+00 2.427164220999999955e+01 1.109939956700000039e+02
-6.531320335000000199e+00 2.414944600999999835e+01 1.110971679700000010e+02
-5.848680254999999661e+00 2.442915487000000141e+01 1.110061111499999953e+02
-6.367841484999999579e+00 2.428690480999999934e+01 1.108020629899999960e+02
-7.219850304999999580e+00 2.390128088000000162e+01 1.110573349000000007e+02
-5.927823785000000179e+00 2.439892340000000104e+01 1.110081481900000000e+02
-7.036359544999999827e+00 2.395987463000000162e+01 1.110971908599999978e+02
-6.466195824999999786e+00 2.415115117999999939e+01 1.111853561399999961e+02
-7.330522294999999744e+00 2.383066320000000005e+01 1.111701126100000039e+02
-5.709222555000000199e+00 2.450857304999999897e+01 1.109011230499999954e+02
-6.471765275000000095e+00 2.414421224000000166e+01 1.112041549700000047e+02
-6.995698684999999806e+00 2.392382574000000162e+01 1.112961731000000043e+02
-6.156614065000000302e+00 2.433164739000000054e+01 1.109360199000000051e+02
-7.172250505000000054e+00 2.382487631000000050e+01 1.114229202300000026e+02
-6.826944114999999869e+00 2.409196615000000108e+01 1.108897781400000042e+02
-6.472173455000000075e+00 2.415386724000000029e+01 1.111661071799999974e+02
-7.105985405000000199e+00 2.386919546000000025e+01 1.113474960300000021e+02
-6.524434805000000281e+00 2.416130589999999856e+01 1.110612106300000050e+02
-6.846509694999999951e+00 2.399863195000000005e+01 1.112232437100000055e+02
-6.194394824999999827e+00 2.433422994000000017e+01 1.108710098300000055e+02
-6.909814595000000281e+00 2.405418919999999972e+01 1.109156570399999993e+02
-7.378911734999999972e+00 2.378152608999999984e+01 1.112902145399999938e+02
-7.251760244999999827e+00 2.388150548999999856e+01 1.110875930800000049e+02
-6.454171894999999992e+00 2.426999044000000083e+01 1.107420043900000053e+02
-6.366983174999999662e+00 2.427077626999999893e+01 1.108658599900000041e+02
-6.192018264999999744e+00 2.427203894000000162e+01 1.111156463599999995e+02
-6.440080404999999786e+00 2.422368001999999976e+01 1.109420929000000058e+02
-5.905236955000000343e+00 2.444960928000000067e+01 1.108444671599999936e+02
-6.193139794999999559e+00 2.427795172000000079e+01 1.110910873400000014e+02
-6.305940385000000425e+00 2.424601125999999951e+01 1.110507583600000032e+02
-6.771119835000000364e+00 2.400586462000000054e+01 1.113049240099999935e+02
-6.237790825000000261e+00 2.425694799000000046e+01 1.111075363199999941e+02
-6.478097674999999889e+00 2.422124243000000021e+01 1.108962173500000006e+02
-6.226793044999999971e+00 2.433648061999999967e+01 1.108151321400000029e+02
-7.129037614999999661e+00 2.395087575999999885e+01 1.109972000100000002e+02
-7.435983414999999930e+00 2.381922674000000129e+01 1.110609359700000027e+02
-6.665120834999999744e+00 2.413208914000000149e+01 1.109697189299999991e+02
-5.210782765000000261e+00 2.475563955000000149e+01 1.105765991199999974e+02
-6.147466425000000179e+00 2.440118169999999864e+01 1.106701431299999996e+02
-5.411321404999999807e+00 2.466887425999999905e+01 1.106486358599999988e+02
-5.093465564999999806e+00 2.483471823000000001e+01 1.103990096999999935e+02
-5.374650714999999579e+00 2.473479604999999992e+01 1.103961029099999962e+02
-5.491807695000000322e+00 2.466665028999999976e+01 1.105216674800000050e+02
-5.335557695000000322e+00 2.470518254999999996e+01 1.106045532199999997e+02
-5.713189834999999661e+00 2.455426930999999868e+01 1.106805572500000068e+02
-6.097696065000000054e+00 2.442014836999999972e+01 1.106645126300000044e+02
-6.067003015000000055e+00 2.443697882000000021e+01 1.106365203900000012e+02
-5.200017684999999723e+00 2.479769277000000116e+01 1.103939056399999998e+02
-5.367646934999999786e+00 2.472584677000000042e+01 1.104508667000000059e+02
-5.551698445000000426e+00 2.459493399000000124e+01 1.107621994000000001e+02
-5.242944474999999827e+00 2.476647711000000029e+01 1.104697799700000047e+02
-5.863881824999999992e+00 2.448515843999999930e+01 1.107534179700000010e+02
-6.021589034999999868e+00 2.447846364999999835e+01 1.105157852199999979e+02
-5.806939834999999661e+00 2.452178716999999963e+01 1.106756134000000031e+02
-5.913259264999999765e+00 2.452003240000000162e+01 1.105022201499999994e+02
-5.506917715000000157e+00 2.468075323000000054e+01 1.104283981300000050e+02
-5.615503075000000344e+00 2.456284094000000096e+01 1.108065948499999962e+02
-5.522981405000000343e+00 2.461419821000000141e+01 1.107192001300000044e+02
-5.321397544999999951e+00 2.472630833999999922e+01 1.105277481100000045e+02
-5.650052784999999744e+00 2.455224370999999906e+01 1.107982025099999959e+02
-5.418527365000000096e+00 2.465075827000000075e+01 1.107229461700000002e+02
-5.193521265000000220e+00 2.481078481999999852e+01 1.103430252099999933e+02
-5.234487295000000096e+00 2.480022573000000108e+01 1.103245315599999969e+02
-4.976266625000000055e+00 2.492395544000000029e+01 1.101960830700000002e+02
-1.397165055000000100e+00 2.352391194999999868e+01 1.183679046599999936e+02
-1.597879175000000096e+00 2.346887350000000083e+01 1.183570556600000003e+02
-1.672429794999999997e+00 2.338894033000000050e+01 1.185301284800000019e+02
-1.933851004999999956e+00 2.325967169000000112e+01 1.186874084500000066e+02
-1.295102835000000008e+00 2.352717733000000067e+01 1.184470138500000047e+02
-1.523133995000000018e+00 2.352127600000000029e+01 1.182660980200000012e+02
-1.417928454999999976e+00 2.348323201999999910e+01 1.184709320099999985e+02
-1.699941394999999966e+00 2.339723730000000046e+01 1.184814758299999937e+02
-1.769391775000000111e+00 2.335335684000000001e+01 1.185516662600000046e+02
-1.260560754999999977e+00 2.364833211999999918e+01 1.180823974599999957e+02
-1.100579975000000044e+00 2.367616796000000079e+01 1.181204070999999942e+02
-7.775208949999999897e-01 2.384852362000000170e+01 1.178121032699999944e+02
-1.291478874999999915e+00 2.363332510000000042e+01 1.181069641100000069e+02
-1.392045734999999951e+00 2.362406683000000029e+01 1.180557479900000004e+02
-1.302053214999999931e+00 2.360561895000000021e+01 1.181902236899999963e+02
-8.966424450000000101e-01 2.375935507000000158e+01 1.180107269300000041e+02
-1.198510884999999915e+00 2.361446524000000124e+01 1.182452468900000042e+02
-1.283788444999999889e+00 2.356033087000000137e+01 1.183552475000000044e+02
-1.293462515000000090e+00 2.366839742999999885e+01 1.179890670799999981e+02
-1.090604544999999925e+00 2.374663686999999967e+01 1.178948898299999968e+02
-1.278581385000000070e+00 2.355870198999999943e+01 1.183648834199999982e+02
5.672147995000000442e+00 2.519031285999999881e+01 1.156052169799999945e+02
5.454672095000000276e+00 2.525183248000000091e+01 1.153715896599999979e+02
5.773668524999999718e+00 2.517675923999999910e+01 1.156554718000000008e+02
5.733522654999999801e+00 2.520342398000000017e+01 1.155530242899999962e+02
5.259680034999999698e+00 2.519126654000000087e+01 1.155872497600000059e+02
5.315325024999999926e+00 2.520078420000000108e+01 1.155553970299999946e+02
5.609007124999999760e+00 2.519985342000000017e+01 1.155691223099999974e+02
5.197580574999999925e+00 2.508650349999999918e+01 1.159314193700000004e+02
5.220930335000000255e+00 2.509980154000000141e+01 1.158888855000000007e+02
5.138189555000000297e+00 2.512136983999999984e+01 1.158003311199999956e+02
5.053831334999999925e+00 2.517133092999999988e+01 1.156054000900000034e+02
5.158170935000000235e+00 2.510292958999999868e+01 1.158687591599999962e+02
5.178331615000000276e+00 2.513236378999999943e+01 1.157759094200000050e+02
4.747286084999999822e+00 2.506385183000000083e+01 1.159165420500000039e+02
4.548536535000000214e+00 2.506062078000000071e+01 1.158989028900000022e+02
4.887090924999999864e+00 2.508326101000000108e+01 1.158717651399999937e+02
4.978159194999999926e+00 2.515276479999999992e+01 1.156528778100000068e+02
4.698660134999999904e+00 2.512744664999999955e+01 1.156973876999999931e+02
4.861013654999999822e+00 2.509514761000000149e+01 1.158283691400000066e+02
4.876367805000000111e+00 2.505864477000000079e+01 1.159523696899999976e+02
4.625238655000000421e+00 2.506084584999999976e+01 1.159091186499999964e+02
4.862680675000000008e+00 2.514798117000000133e+01 1.156523361200000011e+02
1.195703745000000096e+00 2.427715444000000033e+01 1.175141601600000030e+02
1.309553385000000070e+00 2.439312123999999926e+01 1.172220306399999998e+02
1.495779275000000075e+00 2.438916159000000050e+01 1.173169097899999969e+02
1.496702434999999998e+00 2.442769383999999988e+01 1.172033615099999935e+02
1.307050945000000075e+00 2.432683324999999996e+01 1.174169693000000052e+02
1.403780224999999993e+00 2.435042715000000157e+01 1.173903884900000065e+02
1.555898905000000054e+00 2.436354971000000091e+01 1.174195175199999994e+02
1.083200694999999936e+00 2.427288961000000000e+01 1.174606628399999977e+02
1.103662734999999895e+00 2.430515431999999976e+01 1.173614578199999983e+02
1.944135904999999998e+00 2.459338139999999839e+01 1.168135910000000024e+02
2.514715434999999832e+00 2.473894261999999955e+01 1.165238800000000055e+02
1.704580545000000003e+00 2.455253743999999827e+01 1.168394622800000064e+02
1.465711835000000018e+00 2.448544835999999947e+01 1.169898223900000005e+02
-4.229482414999999662e+00 2.241029882000000129e+01 1.192432785000000024e+02
-4.261815784999999579e+00 2.239477301000000153e+01 1.192526474000000007e+02
1.184832596500000079e+01 2.574746083999999868e+01 1.113106155400000006e+02
1.155485749500000026e+01 2.576785040000000038e+01 1.114448318499999999e+02
1.144572663499999976e+01 2.578061818999999844e+01 1.114732132000000036e+02
1.167105317500000083e+01 2.570139456000000067e+01 1.116340637200000003e+02
1.166332459500000063e+01 2.574559926999999959e+01 1.114563140900000064e+02
1.168309235499999943e+01 2.566032934000000054e+01 1.117921905500000008e+02
1.150519394500000026e+01 2.574137640000000005e+01 1.115903549199999958e+02
1.149658036499999980e+01 2.572302389000000034e+01 1.116702652000000029e+02
1.150148606499999993e+01 2.571913671000000079e+01 1.116824798600000008e+02
6.932337044999999698e+00 2.533558797999999967e+01 1.149919433599999934e+02
6.912180185000000421e+00 2.530676794000000029e+01 1.151022415200000069e+02
6.920992134999999656e+00 2.533699178999999901e+01 1.149886856100000045e+02
6.885015724999999698e+00 2.538694525000000013e+01 1.148096237200000047e+02
6.838594675000000400e+00 2.537448262999999926e+01 1.148607711800000004e+02
5.866670844999999801e+00 2.520739508000000129e+01 1.155346679700000010e+02
6.457941295000000359e+00 2.534772252999999864e+01 1.149775466899999969e+02
5.935278174999999656e+00 2.520816183000000166e+01 1.155301589999999976e+02
6.455560925000000339e+00 2.534114599000000112e+01 1.150031051600000040e+02
6.008211375000000132e+00 2.526424932000000112e+01 1.153111190799999974e+02
6.193662885000000173e+00 2.532322072999999918e+01 1.150784072900000012e+02
6.082769635000000008e+00 2.528832006000000021e+01 1.152161560100000059e+02
6.328756574999999884e+00 2.533587788999999901e+01 1.150263519300000041e+02
5.898138284999999925e+00 2.522285223000000087e+01 1.154740371700000026e+02
5.864282844999999966e+00 2.527404927999999984e+01 1.152763366700000063e+02
6.641477824999999946e+00 2.534434651999999843e+01 1.149859924299999960e+02
6.416071174999999904e+00 2.526489782000000162e+01 1.152977905300000003e+02
6.496515514999999574e+00 2.526689290999999926e+01 1.152876205400000060e+02
6.493993995000000297e+00 2.527703999999999951e+01 1.152487792999999954e+02
6.530691384999999904e+00 2.527010870000000153e+01 1.152741928100000024e+02
6.494421244999999843e+00 2.530864477000000079e+01 1.151275405899999953e+02
6.378645184999999884e+00 2.528413915000000145e+01 1.152251586900000007e+02
6.005216834999999698e+00 2.520676565000000124e+01 1.155336532599999941e+02
6.710851905000000173e+00 2.526921606000000153e+01 1.152605972300000019e+02
6.574114084999999719e+00 2.523392628999999943e+01 1.154051895099999996e+02
6.479116675000000214e+00 2.522512197000000000e+01 1.154474792500000007e+02
6.725172285000000194e+00 2.529035710999999864e+01 1.151809158300000036e+02
1.153130173499999955e+01 2.641579580000000149e+01 1.086322479199999975e+02
1.158539033499999960e+01 2.644886160000000075e+01 1.084225997900000067e+02
1.164952302500000059e+01 2.639848852000000079e+01 1.086145172100000025e+02
1.134781479499999968e+01 2.645615529999999893e+01 1.085933914200000032e+02
1.135169053499999947e+01 2.648844289999999901e+01 1.084312515299999973e+02
1.168567490500000083e+01 2.642292166000000009e+01 1.084629058799999939e+02
1.152876877499999964e+01 2.645541525000000149e+01 1.084396286000000060e+02
1.135754609500000001e+01 2.645163107000000124e+01 1.086071624799999995e+02
1.144098877499999922e+01 2.649915457000000174e+01 1.083009033200000033e+02
1.140976548499999943e+01 2.649178457000000009e+01 1.083643112200000047e+02
1.153449082500000067e+01 2.638266133999999852e+01 1.087920379600000018e+02
9.871565105000000173e+00 2.700860356999999823e+01 1.067871932999999984e+02
9.915201424999999347e+00 2.702276373000000120e+01 1.066862030000000061e+02
