2.664251160499999926e+01 1.730275105999999852e+01 4.837250518999999827e+01
2.701981568500000108e+01 1.797925710999999893e+01 4.806254578000000066e+01
2.649669861499999968e+01 1.694003439000000100e+01 4.855540847999999698e+01
2.709367585500000075e+01 1.791912603000000104e+01 4.812187194999999917e+01
2.703031373500000001e+01 1.790278387000000038e+01 4.811330794999999938e+01
2.681379914500000083e+01 1.688269186000000133e+01 4.868497085999999996e+01
2.741651368500000174e+01 1.858610678000000149e+01 4.780173110999999864e+01
2.752179169500000100e+01 1.866550588000000133e+01 4.778340529999999831e+01
2.649930787499999951e+01 1.700760793999999976e+01 4.851406860000000165e+01
2.731672120500000034e+01 1.853167104999999992e+01 4.780613326999999657e+01
2.707245087500000125e+01 1.792800665000000038e+01 4.811006164999999868e+01
2.646152710499999827e+01 1.744434117999999856e+01 4.823071671000000293e+01
2.632790589500000067e+01 1.729440068999999980e+01 4.828462219000000033e+01
2.670359253499999852e+01 1.796997976000000108e+01 4.797476196000000215e+01
2.645137238499999910e+01 1.770700215999999827e+01 4.806401824999999661e+01
2.648627686500000067e+01 1.716142415999999926e+01 4.841435242000000017e+01
2.664458680499999943e+01 1.774046468999999959e+01 4.810033416999999645e+01
2.686516785499999926e+01 1.795902776999999872e+01 4.802939223999999996e+01
2.614728760499999893e+01 1.734809255000000050e+01 4.819771956999999674e+01
2.653639435499999877e+01 1.719930409999999910e+01 4.840557479999999657e+01
2.651982331500000001e+01 1.759725332000000009e+01 4.815266799999999847e+01
2.698825287500000059e+01 1.806363821000000058e+01 4.800062179999999756e+01
2.686232972499999860e+01 1.796765660999999881e+01 4.802317810000000264e+01
2.681073975500000017e+01 1.813245915999999980e+01 4.790520859000000087e+01
2.619874024499999976e+01 1.720504521999999881e+01 4.830208969000000252e+01
2.690556550499999844e+01 1.786770010000000042e+01 4.809826278999999971e+01
2.644233155499999910e+01 1.723567342999999852e+01 4.835507202000000149e+01
2.614856171499999959e+01 1.726175070000000034e+01 4.825189971999999727e+01
2.719376587500000042e+01 1.865177296999999967e+01 4.769490050999999653e+01
2.665597748500000108e+01 1.793617773000000071e+01 4.798173522999999818e+01
2.651761841500000116e+01 1.759157705000000149e+01 4.815555573000000322e+01
2.711409974500000075e+01 1.847201680999999951e+01 4.778335571000000215e+01
2.674789643500000125e+01 1.768159246000000095e+01 4.816759490999999826e+01
2.713567566500000083e+01 1.853723669000000029e+01 4.774909209999999860e+01
2.610203003499999852e+01 1.704305409999999910e+01 4.837442398000000310e+01
2.650380158500000150e+01 1.708513784000000157e+01 4.846707535000000178e+01
2.717716431499999885e+01 1.847520207999999897e+01 4.780002593999999760e+01
2.692434907499999852e+01 1.800478123999999980e+01 4.801839446999999694e+01
2.649624085499999993e+01 1.732496022999999852e+01 4.831538391000000132e+01
2.670287537500000141e+01 1.772975302000000042e+01 4.812425995000000256e+01
2.614869904500000075e+01 1.712115239999999972e+01 4.833956145999999876e+01
2.675873780499999910e+01 1.780438374999999951e+01 4.809427643000000074e+01
2.634768128500000017e+01 1.738336324999999860e+01 4.823503113000000297e+01
2.721078705500000083e+01 1.844280767000000054e+01 4.783016586000000103e+01
2.623829865500000125e+01 1.727850103000000104e+01 4.826802063000000231e+01
2.677001404499999992e+01 1.804333258000000129e+01 4.794869994999999818e+01
2.639189362500000158e+01 1.721010350999999972e+01 4.835608673000000124e+01
2.628782868500000092e+01 1.700896596999999844e+01 4.845064545000000322e+01
2.846232056499999885e+01 1.643987798999999939e+01 4.944871140000000054e+01
2.732078003499999852e+01 1.652766180000000062e+01 4.905623626999999942e+01
2.741504120500000141e+01 1.647295141000000029e+01 4.911822128000000021e+01
2.739199280500000100e+01 1.677451466999999852e+01 4.892346572999999665e+01
2.790013337499999935e+01 1.623563528000000034e+01 4.940964890000000054e+01
2.765852570499999885e+01 1.667141867000000133e+01 4.906658173000000289e+01
2.815999817499999835e+01 1.649151373000000120e+01 4.932707976999999744e+01
2.738084626499999885e+01 1.671755360999999951e+01 4.895566939999999789e+01
2.796662354500000092e+01 1.660156011000000120e+01 4.920128249999999781e+01
2.714666199499999877e+01 1.659479666000000009e+01 4.896287536999999901e+01
2.793500733500000166e+01 1.661567448999999996e+01 4.918312835999999777e+01
2.800329041499999860e+01 1.665955496000000124e+01 4.917598723999999777e+01
2.783597779500000158e+01 1.654030370999999988e+01 4.920079803000000140e+01
2.821068787500000141e+01 1.641224431999999922e+01 4.939147567999999922e+01
2.809649872500000001e+01 1.653106831999999926e+01 4.928364181999999971e+01
2.809376740500000125e+01 1.617934560999999860e+01 4.950202560000000318e+01
2.743403840499999902e+01 1.678909063000000046e+01 4.892682648000000256e+01
2.760331177500000166e+01 1.901964330999999930e+01 4.758682632000000012e+01
2.780878663500000059e+01 1.653486394999999831e+01 4.919614792000000136e+01
2.776938843499999976e+01 1.663841009000000071e+01 4.911995316000000145e+01
2.739367127499999910e+01 1.683382939999999905e+01 4.888700104000000124e+01
2.719445252499999910e+01 1.675985478999999856e+01 4.887415313999999711e+01
2.851043915500000026e+01 1.627022313999999881e+01 4.956867980999999901e+01
2.722544312500000174e+01 1.690842961999999972e+01 4.879073334000000273e+01
2.842270112499999968e+01 1.612504721000000174e+01 4.963319015999999806e+01
2.772915101499999935e+01 1.656913899999999984e+01 4.915121840999999847e+01
2.793245911500000034e+01 1.641177893000000054e+01 4.930944442999999922e+01
2.730410981500000034e+01 1.665854406000000054e+01 4.896973801000000037e+01
2.829725098500000158e+01 1.644335699000000162e+01 4.939769745000000256e+01
2.806466126500000158e+01 1.648356008000000017e+01 4.930382537999999926e+01
2.848011231499999951e+01 1.595755911000000005e+01 4.975455855999999955e+01
2.742399811499999984e+01 1.665624761000000120e+01 4.900664138999999864e+01
2.774899506499999902e+01 1.657318258000000100e+01 4.915457152999999835e+01
2.803560853500000150e+01 1.644002675999999852e+01 4.932236481000000339e+01
2.817209076500000009e+01 1.619086980999999881e+01 4.951801681999999971e+01
2.817043519499999960e+01 1.631375646000000046e+01 4.944094467000000037e+01
2.842092347499999860e+01 1.601114416000000062e+01 4.970365143000000074e+01
2.773712372500000001e+01 1.656157445999999922e+01 4.915829086000000103e+01
2.771122956500000001e+01 1.655776738999999864e+01 4.915299988000000297e+01
2.767907929500000108e+01 1.645360326999999856e+01 4.920840453999999653e+01
2.737026429499999836e+01 1.661714697000000029e+01 4.901511002000000161e+01
2.779814362500000158e+01 1.871211385999999877e+01 4.783612822999999992e+01
2.835471558500000100e+01 1.643969488000000112e+01 4.941698836999999855e+01
2.791848969500000166e+01 1.659169530999999864e+01 4.919318390000000107e+01
2.861223054499999918e+01 1.607375478999999885e+01 4.972123718000000281e+01
2.891239380500000067e+01 1.628776693000000009e+01 4.967667388999999645e+01
2.883854127500000075e+01 1.626595448999999860e+01 4.966841887999999727e+01
2.899070191499999893e+01 1.611258077000000100e+01 4.980902480999999682e+01
2.778275513499999860e+01 1.880522679999999980e+01 4.777354050000000285e+01
2.870881867499999984e+01 1.615861654000000058e+01 4.969693374999999946e+01
2.920157075499999877e+01 1.575769949000000025e+01 5.009258270000000124e+01
2.895705628500000017e+01 1.601984930000000062e+01 4.985686110999999698e+01
2.793724274499999893e+01 1.853654240999999914e+01 4.798669815000000227e+01
2.916690278500000133e+01 1.566000891000000017e+01 5.014320754999999963e+01
2.911194825500000150e+01 1.580287694999999992e+01 5.003791045999999909e+01
2.905928254499999852e+01 1.594483709000000005e+01 4.993385314999999736e+01
2.877854371500000141e+01 1.587282704999999972e+01 4.989566422000000046e+01
2.885817170500000017e+01 1.608171987000000058e+01 4.978904724000000215e+01
2.856860566499999976e+01 1.631226492000000050e+01 4.955969238000000132e+01
2.902845215500000009e+01 1.585517645000000009e+01 4.998060988999999665e+01
2.896510529500000075e+01 1.589543676000000083e+01 4.993677902000000302e+01
2.878053498499999918e+01 1.599676275000000025e+01 4.981901932000000244e+01
2.777314972499999968e+01 1.886542654000000141e+01 4.773318863000000079e+01
2.870743775500000083e+01 1.631761694000000062e+01 4.959743118000000095e+01
2.884437775500000001e+01 1.613490437999999827e+01 4.975181960999999831e+01
3.068377900500000166e+01 1.698404837000000001e+01 4.976688384999999926e+01
2.797101807499999993e+01 1.899646519999999938e+01 4.771007156000000293e+01
2.956304383499999844e+01 1.770573949999999996e+01 4.898551558999999855e+01
3.365378022499999844e+01 1.588340520999999939e+01 5.133160399999999868e+01
3.119137024500000166e+01 1.727031850999999918e+01 4.973867797999999851e+01
2.968567872499999893e+01 1.573588705000000054e+01 5.024942017000000050e+01
2.781344819499999943e+01 1.908722829999999959e+01 4.760688018999999827e+01
3.117415070499999885e+01 1.674835347999999868e+01 5.005886841000000231e+01
3.457787537499999786e+01 1.524916600999999972e+01 5.200029373000000277e+01
2.875821900500000083e+01 1.840884160999999963e+01 4.830920410000000231e+01
3.272934937499999819e+01 1.609625769000000162e+01 5.092542267000000322e+01
3.450110840499999654e+01 1.527420567999999967e+01 5.196197509999999653e+01
2.809424042499999885e+01 1.874832677999999930e+01 4.790117263999999864e+01
3.004729676499999869e+01 1.552761601999999996e+01 5.048621367999999876e+01
3.461369538499999976e+01 1.494046544999999959e+01 5.220327758999999901e+01
3.198002076499999902e+01 1.627516698999999889e+01 5.059220885999999950e+01
3.242877411500000306e+01 1.630593633999999881e+01 5.070581818000000141e+01
3.329480195499999695e+01 1.569547795999999984e+01 5.134250259000000227e+01
3.180250763500000133e+01 1.671492529000000005e+01 5.026562881000000260e+01
3.406151032500000042e+01 1.566832113000000071e+01 5.158628844999999785e+01
3.169524598499999968e+01 1.685293722000000116e+01 5.014788055000000355e+01
2.854486298500000174e+01 1.860819387000000091e+01 4.812183762000000087e+01
3.406035065500000059e+01 1.521825169999999972e+01 5.186643218999999760e+01
2.944246888500000026e+01 1.800544500000000170e+01 4.876306152000000083e+01
3.417006898500000034e+01 1.563212346999999980e+01 5.164096831999999893e+01
3.086876130499999960e+01 1.741528081999999955e+01 4.955287933000000322e+01
3.151092743499999926e+01 1.682869099999999918e+01 5.010845184000000074e+01
3.483487153499999778e+01 1.519078969999999984e+01 5.211272049000000095e+01
3.428499054499999943e+01 1.533427572000000083e+01 5.186059189000000202e+01
3.292866730499999761e+01 1.598576878999999984e+01 5.105326079999999678e+01
3.348609376499999968e+01 1.580937718999999930e+01 5.132812500000000000e+01
2.933118653500000050e+01 1.593446493000000075e+01 5.002077102999999880e+01
2.836448884500000034e+01 1.859338521999999827e+01 4.807769394000000318e+01
3.106295228500000150e+01 1.703469992000000133e+01 4.984751891999999884e+01
3.009868073499999852e+01 1.547284840999999922e+01 5.053554534999999959e+01
3.207517457499999836e+01 1.628448629000000025e+01 5.061455535999999711e+01
3.144857239499999935e+01 1.702517080000000149e+01 4.996755600000000186e+01
3.357137513499999670e+01 1.573139334000000034e+01 5.140195846999999674e+01
2.922341370499999869e+01 1.816331625000000116e+01 4.859985732999999897e+01
2.808991456500000083e+01 1.870227957000000174e+01 4.792858886999999868e+01
2.956901764499999885e+01 1.565535878999999930e+01 5.026508712999999773e+01
3.089571595500000001e+01 1.683153294999999972e+01 4.992464827999999954e+01
3.219226288499999811e+01 1.627455664000000013e+01 5.065539169000000186e+01
3.300167298499999902e+01 1.611033391999999864e+01 5.099723053000000306e+01
3.080828309500000017e+01 1.722821187999999992e+01 4.965156173999999822e+01
3.032410645499999902e+01 1.757427357999999984e+01 4.929263687000000260e+01
3.530081391499999910e+01 1.491261053000000025e+01 5.242394637999999674e+01
3.237650513500000216e+01 1.618790196999999864e+01 5.076390838999999744e+01
2.816783356499999869e+01 1.889728308000000112e+01 4.783011626999999777e+01
3.408770966499999844e+01 1.540824270000000062e+01 5.175611877000000050e+01
3.114290070499999885e+01 1.713165044999999864e+01 4.981075287000000174e+01
3.299431061500000339e+01 1.593488836000000042e+01 5.110438918999999913e+01
3.187378144499999877e+01 1.681860494000000017e+01 5.022210311999999988e+01
3.478667664500000001e+01 1.504307318000000038e+01 5.219050980000000095e+01
2.836760163499999976e+01 1.880236959000000141e+01 4.794837569999999971e+01
3.064120698500000017e+01 1.695475529999999864e+01 4.977254867999999988e+01
3.063901734499999918e+01 1.694635916000000009e+01 4.977713013000000331e+01
3.370994782500000042e+01 1.581454229000000034e+01 5.139113997999999839e+01
3.046891236500000133e+01 1.724257421000000079e+01 4.954219817999999975e+01
3.400130677500000331e+01 1.512395238999999947e+01 5.190772628999999938e+01
2.976065278500000133e+01 1.801829671999999860e+01 4.884920120000000310e+01
3.058738160500000092e+01 1.714206075999999968e+01 4.963989258000000149e+01
3.371610474500000265e+01 1.555532217000000017e+01 5.155450821000000161e+01
3.151059174499999926e+01 1.668172597999999951e+01 5.019994353999999959e+01
2.960966706500000001e+01 1.574435186000000009e+01 5.022165679999999810e+01
3.378599762500000026e+01 1.581924580999999996e+01 5.141071319999999645e+01
2.963633942499999918e+01 1.571328497000000013e+01 5.024890899999999760e+01
3.027382111500000050e+01 1.767189168999999893e+01 4.921692276000000277e+01
2.889637971499999836e+01 1.818457937000000157e+01 4.848984146000000095e+01
2.956647706500000083e+01 1.809498739000000000e+01 4.874395369999999872e+01
3.228899598499999968e+01 1.623919439000000153e+01 5.070605086999999855e+01
3.431530976500000207e+01 1.541357183000000042e+01 5.182014846999999946e+01
2.796673798500000174e+01 1.883677816000000149e+01 4.780831908999999769e+01
3.046024537499999951e+01 1.746233129000000162e+01 4.940268326000000343e+01
2.893006348500000158e+01 1.838810110000000009e+01 4.837297820999999942e+01
2.983351349499999827e+01 1.562148808999999972e+01 5.036445617999999769e+01
2.994848084499999885e+01 1.753045797000000050e+01 4.920880127000000215e+01
3.267572236499999860e+01 1.631804418000000112e+01 5.077133941999999678e+01
3.143225312499999902e+01 1.685199880000000050e+01 5.007064819000000000e+01
2.842561554499999943e+01 1.844148779000000005e+01 4.819044113000000351e+01
2.940291810500000125e+01 1.564749669999999959e+01 5.022084044999999719e+01
2.976986908499999984e+01 1.573053121000000054e+01 5.027767181000000107e+01
2.908967804499999943e+01 1.833920811999999856e+01 4.845067215000000260e+01
2.860859131500000174e+01 1.867198705999999930e+01 4.810093688999999983e+01
3.410896515499999992e+01 1.550067282000000013e+01 5.170481110000000058e+01
3.177118897500000116e+01 1.687234258999999881e+01 5.015826034999999905e+01
2.883185792500000133e+01 1.848162603000000104e+01 4.828563308999999748e+01
2.931923890499999885e+01 1.587092351999999984e+01 5.005683899000000281e+01
3.324350953500000116e+01 1.569736623999999914e+01 5.132614899000000008e+01
2.917527985499999943e+01 1.594238806000000075e+01 4.996970748999999756e+01
3.360800385499999976e+01 1.559460591999999934e+01 5.149804306000000054e+01
3.243818879500000207e+01 1.609497594999999848e+01 5.084007644999999798e+01
2.957534241500000149e+01 1.579668187999999951e+01 5.017888640999999694e+01
2.825294709499999968e+01 1.855061102000000162e+01 4.807134628000000021e+01
3.396293854500000009e+01 1.542093037999999972e+01 5.171129607999999678e+01
2.977162385500000141e+01 1.554538106999999947e+01 5.039357376000000244e+01
3.491532349500000265e+01 1.488105153999999963e+01 5.232955170000000322e+01
3.498259186500000339e+01 1.480042028000000087e+01 5.239970397999999818e+01
2.819384980499999926e+01 1.862053441999999848e+01 4.801028441999999785e+01
3.002862763499999943e+01 1.742581320000000034e+01 4.929772949000000182e+01
2.865796113500000075e+01 1.865102148000000071e+01 4.812860870000000091e+01
3.146279358500000001e+01 1.700838613000000166e+01 4.998222350999999719e+01
3.414428162499999786e+01 1.537839269000000009e+01 5.179146576000000124e+01
3.467109131499999819e+01 1.515155934999999943e+01 5.208870316000000145e+01
2.804580903500000133e+01 1.888619375000000034e+01 4.780092238999999665e+01
2.845905518500000042e+01 1.864693593999999877e+01 4.807230376999999777e+01
2.808563447499999910e+01 1.856610249999999951e+01 4.801218795999999855e+01
3.061368775500000083e+01 1.731784581999999872e+01 4.953812789999999922e+01
3.012815308500000100e+01 1.774048756999999910e+01 4.913106917999999723e+01
3.309265351500000207e+01 1.614452504999999860e+01 5.100284194999999698e+01
3.425811982500000141e+01 1.539616155000000042e+01 5.181407546999999880e+01
3.367615723499999802e+01 1.563236378999999943e+01 5.149467468000000281e+01
3.437749695499999802e+01 1.549680852999999914e+01 5.178667449999999661e+01
3.306395936500000232e+01 1.602308415999999980e+01 5.107003020999999876e+01
3.345601868499999654e+01 1.583105611999999951e+01 5.130571365000000128e+01
3.219854950500000257e+01 1.630441808999999864e+01 5.063864136000000116e+01
2.847766327500000116e+01 1.860247182999999893e+01 4.810551834000000326e+01
3.171850037500000141e+01 1.657573079999999877e+01 5.032751846000000029e+01
3.483339142500000207e+01 1.517836903999999976e+01 5.212001801000000256e+01
2.904946351499999935e+01 1.803909445000000034e+01 4.862580489999999855e+01
3.231263947499999745e+01 1.634742117000000050e+01 5.064559936999999934e+01
3.302001404500000348e+01 1.588768911000000017e+01 5.114141082999999810e+01
2.800513672499999984e+01 1.874863576999999992e+01 4.787461471999999674e+01
3.330257630500000232e+01 1.601557302000000149e+01 5.114532089000000070e+01
3.042083191500000083e+01 1.727857351000000108e+01 4.950553894000000099e+01
3.035856080499999976e+01 1.544349049999999934e+01 5.063074112000000326e+01
2.912594056500000050e+01 1.615107869999999934e+01 4.982504654000000244e+01
2.966037201500000009e+01 1.784558630000000079e+01 4.892716217000000256e+01
3.158749604500000174e+01 1.651539372999999955e+01 5.032635497999999785e+01
3.475747895500000340e+01 1.507047415000000079e+01 5.216479874000000194e+01
3.185869050499999844e+01 1.680129765999999947e+01 5.022842407000000264e+01
3.218972230499999654e+01 1.650089025000000120e+01 5.051358795000000157e+01
3.175787568499999836e+01 1.696088934000000137e+01 5.009913253999999938e+01
2.973818421500000042e+01 1.554671620999999959e+01 5.038284682999999831e+01
3.129710602500000149e+01 1.678119038999999901e+01 5.007478713999999798e+01
2.995752167499999885e+01 1.769856405000000166e+01 4.910671234000000140e+01
2.843107819500000133e+01 1.866644048999999939e+01 4.805186843999999979e+01
3.359479737499999885e+01 1.552218389000000087e+01 5.153926468000000227e+01
3.214373231500000117e+01 1.659014653999999922e+01 5.044435501000000244e+01
2.918966126500000158e+01 1.815288686999999967e+01 4.859637450999999686e+01
2.831142640499999885e+01 1.856492375999999922e+01 4.807973099000000161e+01
3.097163605500000116e+01 1.683974600000000166e+01 4.994199370999999843e+01
2.949031281499999935e+01 1.779148625999999922e+01 4.891056060999999744e+01
2.801457429499999918e+01 1.850946187999999992e+01 4.802645874000000248e+01
2.850277924499999926e+01 1.832961034999999939e+01 4.828299712999999826e+01
3.098883271500000092e+01 1.700536870999999906e+01 4.984386443999999727e+01
2.961732697500000100e+01 1.585558842999999918e+01 5.015459823999999855e+01
2.941006684499999935e+01 1.583063650000000067e+01 5.010881805000000355e+01
2.945457673499999984e+01 1.801379537000000042e+01 4.876144028000000219e+01
2.955068421500000042e+01 1.797952413000000149e+01 4.881123733999999814e+01
2.947792267499999852e+01 1.805697011999999901e+01 4.874143981999999653e+01
3.403988862500000323e+01 1.539436483000000067e+01 5.175062179999999756e+01
3.262210297499999712e+01 1.591338872999999943e+01 5.100765609999999839e+01
3.291588807499999803e+01 1.631418370999999823e+01 5.084481049000000041e+01
3.103856873499999836e+01 1.695591115999999943e+01 4.988940430000000248e+01
3.089070344499999976e+01 1.704017019000000133e+01 4.979313659999999686e+01
3.044695496499999976e+01 1.753764486000000034e+01 4.935181426999999843e+01
2.957287812499999902e+01 1.579847479000000021e+01 5.017703628999999665e+01
2.837301850500000100e+01 1.848793935999999860e+01 4.814593124000000302e+01
3.462040162499999951e+01 1.497010945999999976e+01 5.218678665000000194e+01
2.939161896499999926e+01 1.800431203999999852e+01 4.874872208000000029e+01
3.009117341500000009e+01 1.747197866000000133e+01 4.928746413999999731e+01
3.009420991500000042e+01 1.552315283000000079e+01 5.050287628000000240e+01
3.313693451500000009e+01 1.590796804000000009e+01 5.116336823000000322e+01
3.188198304499999836e+01 1.661277532000000079e+01 5.035280609000000140e+01
3.394872498499999836e+01 1.557990788999999943e+01 5.160802077999999682e+01
3.267545533500000232e+01 1.606937933000000029e+01 5.092623137999999727e+01
3.075673127499999993e+01 1.695424032000000025e+01 4.980704879999999690e+01
3.292173218500000331e+01 1.579977560000000025e+01 5.116711807000000078e+01
2.885561585499999993e+01 1.854944753999999918e+01 4.825039672999999851e+01
2.942410492500000174e+01 1.579473257000000075e+01 5.013534926999999897e+01
3.048728394500000149e+01 1.759076452000000046e+01 4.933063889000000302e+01
3.203821778500000050e+01 1.629249334000000005e+01 5.059863280999999802e+01
3.439367890500000158e+01 1.540691136999999955e+01 5.184748840000000314e+01
2.786607575500000067e+01 1.884727239000000054e+01 4.777199553999999893e+01
2.953143525500000166e+01 1.570031117999999992e+01 5.022595214999999769e+01
3.260152649500000166e+01 1.621471547999999885e+01 5.081378174000000314e+01
3.164512085499999827e+01 1.649448156000000054e+01 5.035643767999999909e+01
3.149446320499999885e+01 1.680038594999999901e+01 5.012121963999999963e+01
2.982902741499999877e+01 1.793110799999999827e+01 4.892376708999999835e+01
3.194832062500000092e+01 1.654089880000000079e+01 5.041722870000000256e+01
3.184172272500000034e+01 1.666027975000000083e+01 5.031128693000000141e+01
3.091208863499999993e+01 1.698487615000000162e+01 4.983393096999999727e+01
2.771846222499999968e+01 1.916207265999999976e+01 4.753213500999999752e+01
3.481516480500000199e+01 1.526776266000000071e+01 5.205891799999999847e+01
3.523002076499999902e+01 1.497189091999999988e+01 5.236605071999999694e+01
3.032728028500000050e+01 1.773703526999999980e+01 4.919214249000000194e+01
3.496962189500000306e+01 1.509412144999999938e+01 5.221283340000000095e+01
3.179472565500000059e+01 1.679747151999999843e+01 5.021187972999999971e+01
3.007872223500000075e+01 1.561497259000000071e+01 5.044107056000000000e+01
3.029780030499999910e+01 1.732914114000000083e+01 4.943761826000000070e+01
3.379001069499999943e+01 1.557410574000000025e+01 5.156467056000000326e+01
3.231314301500000141e+01 1.639644003000000083e+01 5.061520003999999773e+01
2.816986298500000174e+01 1.887844228999999885e+01 4.784246062999999793e+01
3.239015412500000224e+01 1.661533879999999996e+01 5.050157166000000331e+01
2.972735047500000150e+01 1.576161718000000000e+01 5.024571227999999934e+01
3.001546692499999835e+01 1.565030432000000005e+01 5.040033721999999727e+01
2.964822602499999959e+01 1.808331060000000079e+01 4.877542113999999884e+01
3.100254273499999869e+01 1.704118108999999848e+01 4.982560348999999889e+01
3.492118287499999951e+01 1.485165167000000075e+01 5.234960937999999686e+01
3.441483521499999654e+01 1.495512914999999943e+01 5.213529587000000021e+01
2.883070588500000042e+01 1.845815419999999918e+01 4.829991912999999926e+01
3.256125092500000306e+01 1.633439779000000058e+01 5.072727966000000066e+01
3.418557953500000224e+01 1.542778539999999943e+01 5.177289962999999773e+01
2.967752289499999918e+01 1.776895666000000062e+01 4.897999191000000252e+01
3.307409882500000009e+01 1.603632115999999996e+01 5.106478881999999686e+01
3.278740906499999852e+01 1.597205877000000029e+01 5.102000427000000116e+01
2.766159272499999844e+01 1.921170186999999885e+01 4.748437881000000260e+01
3.110837769500000149e+01 1.724092625999999839e+01 4.973243713000000099e+01
3.211033845499999728e+01 1.659283972000000063e+01 5.043279265999999694e+01
2.868865418500000075e+01 1.814590597000000116e+01 4.845248031999999938e+01
2.940587830500000166e+01 1.587040471999999980e+01 5.008279799999999682e+01
2.941807770500000174e+01 1.574628973000000087e+01 5.016375732000000198e+01
3.125920319500000133e+01 1.722033452999999881e+01 4.978989409999999793e+01
2.899002289499999918e+01 1.828566503000000054e+01 4.845455550999999872e+01
3.023852753499999935e+01 1.774879598000000058e+01 4.915855408000000182e+01
2.913440156500000100e+01 1.609597158000000050e+01 4.986189651000000111e+01
3.010616517500000100e+01 1.760823965000000157e+01 4.920698165999999674e+01
3.082269501500000075e+01 1.732466649999999930e+01 4.959571838000000099e+01
3.485597443500000026e+01 1.481831883999999988e+01 5.235108947999999884e+01
3.221863770499999902e+01 1.644597386999999955e+01 5.055636977999999715e+01
3.302891755499999960e+01 1.621167897999999852e+01 5.094213486000000302e+01
2.872644257500000009e+01 1.857449101999999996e+01 4.819656753999999665e+01
3.001330018499999852e+01 1.738022374999999897e+01 4.932160950000000099e+01
2.924868226499999935e+01 1.596028279999999988e+01 4.998027802000000008e+01
3.125690674499999844e+01 1.473344945999999922e+01 5.133905410999999930e+01
3.093792176499999869e+01 1.488803243000000087e+01 5.114833069000000165e+01
3.143461060499999959e+01 1.487598943999999968e+01 5.130280304000000058e+01
3.101725220499999836e+01 1.493405294000000083e+01 5.114312362999999806e+01
2.968457245500000141e+01 1.542028952000000075e+01 5.044577789000000223e+01
2.965707612499999968e+01 1.539827870999999959e+01 5.045135497999999785e+01
3.104971528500000133e+01 1.513363026999999938e+01 5.102835083000000083e+01
2.991594147500000034e+01 1.542999410000000005e+01 5.050818252999999913e+01
3.105842804499999943e+01 1.495295476999999984e+01 5.114352798000000178e+01
3.116911530499999827e+01 1.513007879000000067e+01 5.106589507999999711e+01
2.990498566500000166e+01 1.531681966999999922e+01 5.057546997000000033e+01
3.067615723500000158e+01 1.527778005000000050e+01 5.082798386000000335e+01
3.041929841500000009e+01 1.513633107999999972e+01 5.084013367000000017e+01
2.952289795500000125e+01 1.553675604000000021e+01 5.032535553000000306e+01
3.117650055500000050e+01 1.486509084999999963e+01 5.123321914999999649e+01
3.022721314500000034e+01 1.536214207999999992e+01 5.064257431000000054e+01
3.019812226499999852e+01 1.543441533999999926e+01 5.058892440999999707e+01
3.112892365500000125e+01 1.506909704000000083e+01 5.109200667999999723e+01
3.071124482500000141e+01 1.484215307000000017e+01 5.110985183999999748e+01
3.036577820500000158e+01 1.503293752999999988e+01 5.088873291000000165e+01
3.008210206500000083e+01 1.523064184000000054e+01 5.068158721999999727e+01
3.081644654500000158e+01 1.510363530999999959e+01 5.097801970999999810e+01
3.067291474499999993e+01 1.531817387999999980e+01 5.080185318000000194e+01
3.157078766500000100e+01 1.480129003000000054e+01 5.138964844000000198e+01
3.039724946500000158e+01 1.524449682000000017e+01 5.076620482999999950e+01
3.145726990500000042e+01 1.472805928999999914e+01 5.140169906999999938e+01
3.093005585499999910e+01 1.513742590000000021e+01 5.099057770000000289e+01
3.554038453500000116e+01 1.467299032000000025e+01 5.264416503999999719e+01
3.025960755499999877e+01 1.520245122999999943e+01 5.075167847000000165e+01
3.048964905500000100e+01 1.523014212000000001e+01 5.080248642000000103e+01
3.150931763499999860e+01 1.495367955999999943e+01 5.127648925999999818e+01
3.080710816499999893e+01 1.516961049999999922e+01 5.093414306999999752e+01
3.114299988499999827e+01 1.478860998000000038e+01 5.127097321000000107e+01
2.977253174499999844e+01 1.543704748000000038e+01 5.046135712000000240e+01
3.065503907500000125e+01 1.502215338000000067e+01 5.098104476999999690e+01
2.986468720499999918e+01 1.528231953999999959e+01 5.058505249000000248e+01
3.044083619499999926e+01 1.530449437999999951e+01 5.074170684999999992e+01
3.001135468500000059e+01 1.537793493000000034e+01 5.056885909999999740e+01
3.126634430500000050e+01 1.492898701999999922e+01 5.121998596000000248e+01
3.033468842499999951e+01 1.507222508999999988e+01 5.085505295000000103e+01
3.065561890500000075e+01 1.524297475999999918e+01 5.084359741000000099e+01
3.046888184499999852e+01 1.525723791000000062e+01 5.077945709000000107e+01
3.021898102500000149e+01 1.511663961000000000e+01 5.079313659999999686e+01
3.129526734499999918e+01 1.491624593999999959e+01 5.123648452999999847e+01
3.079519105500000009e+01 1.478297567000000079e+01 5.117156982000000198e+01
3.066499543500000158e+01 1.521172857000000000e+01 5.086584472999999917e+01
3.195092988500000075e+01 1.464715338000000067e+01 5.159818649000000335e+01
3.122867035499999844e+01 1.463984059999999943e+01 5.138903427000000335e+01
3.183009553500000166e+01 1.468020390999999947e+01 5.154183196999999694e+01
3.560801911499999761e+01 1.465327214999999939e+01 5.267646408000000235e+01
3.119597840500000174e+01 1.464342259999999918e+01 5.137713242000000236e+01
3.503934693499999753e+01 1.464905309999999972e+01 5.251082992999999988e+01
3.197667908500000067e+01 1.457841252999999959e+01 5.164864348999999777e+01
3.129944825500000150e+01 1.463202809999999943e+01 5.141484451000000178e+01
3.114727234500000108e+01 1.462641286999999934e+01 5.137331772000000285e+01
3.097060608500000001e+01 1.470848226000000025e+01 5.126989746000000281e+01
3.184309601500000042e+01 1.467484044999999959e+01 5.154902266999999938e+01
3.201338410500000009e+01 1.466024922999999980e+01 5.160850525000000033e+01
3.170096039499999918e+01 1.434093617999999992e+01 5.171505356000000120e+01
3.178462433500000017e+01 1.444305944000000075e+01 5.167617034999999959e+01
3.529120850500000017e+01 1.462655782999999943e+01 5.259937667999999888e+01
3.197070527500000026e+01 1.429326009999999947e+01 5.182458115000000021e+01
3.160402894499999960e+01 1.439424275999999914e+01 5.165315627999999748e+01
3.168307709500000158e+01 1.441835164999999996e+01 5.166152573000000103e+01
3.171785950499999984e+01 1.427100133999999976e+01 5.176364136000000116e+01
3.218694520500000067e+01 1.436552954000000071e+01 5.184352874999999727e+01
3.218293213500000149e+01 1.438728857000000083e+01 5.182878113000000297e+01
3.178634858499999893e+01 1.426184987999999976e+01 5.178961181999999752e+01
3.231759095500000001e+01 1.431297063999999963e+01 5.191493987999999860e+01
3.240664124500000298e+01 1.431330632999999963e+01 5.194108200000000153e+01
3.239998841500000282e+01 1.429974127000000017e+01 5.194756698999999855e+01
3.198975586499999935e+01 1.428122091000000005e+01 5.183772659000000260e+01
3.219230103499999984e+01 1.407613897000000058e+01 5.202546310000000318e+01
3.207285523499999869e+01 1.419358206000000067e+01 5.191692734000000087e+01
3.248098969499999811e+01 1.414672994000000017e+01 5.206688690000000008e+01
3.267213654500000075e+01 1.412901068000000038e+01 5.213448714999999822e+01
3.215802216499999844e+01 1.420408010000000054e+01 5.193558501999999777e+01
3.228257966500000009e+01 1.417549275999999914e+01 5.199025725999999992e+01
3.270697999499999753e+01 1.422831869000000005e+01 5.208291245000000202e+01
3.315478730499999926e+01 1.391950749999999992e+01 5.240785979999999711e+01
3.266343903500000323e+01 1.405436848999999988e+01 5.217843246000000335e+01
3.296856141500000348e+01 1.373001623000000038e+01 5.247085189999999955e+01
3.498929047499999712e+01 1.404477834999999963e+01 5.287260436999999769e+01
3.461155152500000298e+01 1.334511709000000046e+01 5.319686508000000202e+01
3.475790619499999679e+01 1.378236914000000013e+01 5.296767426000000256e+01
3.441009736499999860e+01 1.278123236000000063e+01 5.348867034999999959e+01
3.306242585500000075e+01 1.351109456999999914e+01 5.263505935999999963e+01
3.405842804499999943e+01 1.311921071999999988e+01 5.317398452999999847e+01
3.489328217500000306e+01 1.346696614999999930e+01 5.320428848000000244e+01
3.380881714499999902e+01 1.345079183000000000e+01 5.289348601999999744e+01
3.294927430500000298e+01 1.356950521000000087e+01 5.256517410000000012e+01
3.365342927500000059e+01 1.323543309999999984e+01 5.298172378999999665e+01
3.502152466500000116e+01 1.376683187000000075e+01 5.305535889000000083e+01
3.314115357499999703e+01 1.348359823000000013e+01 5.267549132999999983e+01
3.433224701500000009e+01 1.308144902999999992e+01 5.327853774999999814e+01
3.548704743500000092e+01 1.443012380000000050e+01 5.277973938000000231e+01
3.317999482500000141e+01 1.373425053999999967e+01 5.253077316000000252e+01
3.474066376500000075e+01 1.374697255999999967e+01 5.298463058000000103e+01
3.311480927499999893e+01 1.375958776000000050e+01 5.249569702000000149e+01
3.478750825499999877e+01 1.327366400000000013e+01 5.329346085000000244e+01
3.332311463500000315e+01 1.382175587999999955e+01 5.251858902000000029e+01
3.525931763500000216e+01 1.429717778999999922e+01 5.279520415999999727e+01
3.369315552500000166e+01 1.362732457999999980e+01 5.274925231999999653e+01
3.486103272500000116e+01 1.351024770999999980e+01 5.316777419999999665e+01
3.266718506499999819e+01 1.395428609999999914e+01 5.224191666000000112e+01
3.530807709500000158e+01 1.405526876000000058e+01 5.296039581000000140e+01
3.402445435500000315e+01 1.333298635000000054e+01 5.303071212999999773e+01
3.378112244500000116e+01 1.335411595999999967e+01 5.294554138000000165e+01
3.319809174499999926e+01 1.340664433999999972e+01 5.274029541000000165e+01
3.520937562499999984e+01 1.414886236000000075e+01 5.287285994999999872e+01
3.546319031499999852e+01 1.416907643999999955e+01 5.293536377000000215e+01
3.581445527500000026e+01 1.460343313000000087e+01 5.276860809000000074e+01
3.557192444500000050e+01 1.444207525000000025e+01 5.279740524000000335e+01
3.241236329499999869e+01 1.389038228999999980e+01 5.220633698000000322e+01
3.399915528500000050e+01 1.337930440999999959e+01 5.299435806000000326e+01
3.520439362500000158e+01 1.404856252999999988e+01 5.293389129999999909e+01
3.274236512499999918e+01 1.401241444999999963e+01 5.222793198000000103e+01
3.569025635500000249e+01 1.446768712999999984e+01 5.281645203000000066e+01
3.421265626499999968e+01 1.318510960999999959e+01 5.317855071999999694e+01
3.441214203500000224e+01 1.322579336000000083e+01 5.321222687000000207e+01
3.413186097500000216e+01 1.316248082999999980e+01 5.316874694999999917e+01
3.264537262500000026e+01 1.402758932000000058e+01 5.218977737000000161e+01
3.544619202500000199e+01 1.424135732999999959e+01 5.288529204999999678e+01
3.514903473500000075e+01 1.431856679999999926e+01 5.274924468999999760e+01
3.524611878500000017e+01 1.392566442000000038e+01 5.302283096000000029e+01
3.343548798500000174e+01 1.334404516000000029e+01 5.284954833999999835e+01
3.467186951499999736e+01 1.312438344999999984e+01 5.335227584999999806e+01
3.430887818499999753e+01 1.275475072999999959e+01 5.347521972999999917e+01
3.500811219500000249e+01 1.362878942000000038e+01 5.313742065000000281e+01
3.446301484499999646e+01 1.327412557000000071e+01 5.319715500000000219e+01
3.370427155499999827e+01 1.305756140000000087e+01 5.310761641999999938e+01
3.354571747499999645e+01 1.351572943000000038e+01 5.277517318999999674e+01
3.484972596499999753e+01 1.392418432000000017e+01 5.290645981000000120e+01
3.472288727499999794e+01 1.340700673999999992e+01 5.319123840000000314e+01
3.271859192499999835e+01 1.402009724999999918e+01 5.221611022999999818e+01
3.577436280500000265e+01 1.457821035000000087e+01 5.277246474999999748e+01
3.570366120500000306e+01 1.439671086999999972e+01 5.286465453999999653e+01
3.509720063500000009e+01 1.398629140999999976e+01 5.294098282000000211e+01
3.446872162500000059e+01 1.305251836999999959e+01 5.333695220999999975e+01
3.374399018500000125e+01 1.342556143000000013e+01 5.289003371999999814e+01
3.496812653500000323e+01 1.385760641000000071e+01 5.298298644999999851e+01
3.316505646499999926e+01 1.372994757000000021e+01 5.252903747999999950e+01
3.579507660499999844e+01 1.462458943999999939e+01 5.274969100999999938e+01
3.374177002500000100e+01 1.352120352000000025e+01 5.282976913000000252e+01
3.320911622500000249e+01 1.364404440000000029e+01 5.259560776000000004e+01
3.381551575499999984e+01 1.342595434000000054e+01 5.291094970999999703e+01
3.440368104499999902e+01 1.280564642000000042e+01 5.347155380000000235e+01
3.313223481499999679e+01 1.382975912000000029e+01 5.245711898999999789e+01
3.390645051500000307e+01 1.312648916000000021e+01 5.312448119999999818e+01
3.479583954499999976e+01 1.355494451000000034e+01 5.312062835999999777e+01
3.383522248500000273e+01 1.306237935999999955e+01 5.314336013999999864e+01
3.450022339499999902e+01 1.287151479999999992e+01 5.345907211000000103e+01
3.439092469500000249e+01 1.284099722000000021e+01 5.344575119000000285e+01
3.404947877499999720e+01 1.317388676999999930e+01 5.313726425000000120e+01
3.471543335500000182e+01 1.335530615000000054e+01 5.322125244000000066e+01
3.536475586499999935e+01 1.411362218999999918e+01 5.294079589999999769e+01
3.515220856500000224e+01 1.403793096000000062e+01 5.292507934999999719e+01
3.331826996499999893e+01 1.393302296999999967e+01 5.244781112999999806e+01
3.460048127499999993e+01 1.310378026999999967e+01 5.334399032999999690e+01
3.337052369500000282e+01 1.329418324999999967e+01 5.286140060000000318e+01
3.528239655499999827e+01 1.431760930999999992e+01 5.278930282999999690e+01
3.431471467499999761e+01 1.281593465999999992e+01 5.343882370000000037e+01
3.479064393499999852e+01 1.326416539999999955e+01 5.330030441000000252e+01
3.351748871499999893e+01 1.358176564999999947e+01 5.272566222999999752e+01
3.502596497500000083e+01 1.361043309999999984e+01 5.315414047000000153e+01
3.368329835499999803e+01 1.340928792999999963e+01 5.288221741000000264e+01
3.460497498499999836e+01 1.311846685000000079e+01 5.333617019999999798e+01
3.507093262499999753e+01 1.365074300999999934e+01 5.314232254000000211e+01
3.496419739499999935e+01 1.361078404999999947e+01 5.313564301000000256e+01
3.525462555499999695e+01 1.393930959999999963e+01 5.301684189000000202e+01
3.472619843500000059e+01 1.344277716000000034e+01 5.316992568999999946e+01
3.455527710500000182e+01 1.347407675000000005e+01 5.309984588999999744e+01
3.308058381499999712e+01 1.373511648000000029e+01 5.250082016000000351e+01
3.436178040499999753e+01 1.310446310000000025e+01 5.327293776999999864e+01
3.237956452499999926e+01 1.398547506000000062e+01 5.213737488000000297e+01
3.361374878499999852e+01 1.362878560999999955e+01 5.272484207000000112e+01
3.559141755499999960e+01 1.430058430999999963e+01 5.289134978999999959e+01
3.494838929499999836e+01 1.346047734999999967e+01 5.322463988999999884e+01
3.522399354499999902e+01 1.399012517999999972e+01 5.297611237000000273e+01
3.348179078500000116e+01 1.333675908999999926e+01 5.286779022000000339e+01
3.459696412499999951e+01 1.319378805000000021e+01 5.328685759999999760e+01
3.520558381499999712e+01 1.390826558999999918e+01 5.302168274000000281e+01
3.457365632500000174e+01 1.348744725999999972e+01 5.309695434999999719e+01
3.388636994499999844e+01 1.337344502999999918e+01 5.296463776000000223e+01
3.456558442499999728e+01 1.325182485000000021e+01 5.324140548999999822e+01
3.457613587499999852e+01 1.312883519999999926e+01 5.332117080999999814e+01
3.274037385500000141e+01 1.408381795999999930e+01 5.218284606999999653e+01
3.412180543499999885e+01 1.320726155999999918e+01 5.313786316000000198e+01
3.487124085500000348e+01 1.379923772999999976e+01 5.299069595000000277e+01
3.381183838500000149e+01 1.339502859000000079e+01 5.292913436999999988e+01
3.364702820499999802e+01 1.347047567000000079e+01 5.283334732000000145e+01
3.616588044499999910e+01 1.267627477999999996e+01 5.069684981999999707e+01
3.642249512499999753e+01 1.300128317000000067e+01 5.057559203999999653e+01
3.610222077499999926e+01 1.283164739000000054e+01 5.093034743999999847e+01
3.543885254500000315e+01 1.184297323000000013e+01 5.111582184000000240e+01
3.465224671499999687e+01 1.245132588999999967e+01 5.287059401999999864e+01
3.455932068500000298e+01 1.244209050999999988e+01 5.300798798000000289e+01
3.493689942500000001e+01 1.190408468000000042e+01 5.195366668999999860e+01
3.487162232499999703e+01 1.197593831999999914e+01 5.211769484999999946e+01
3.485993409499999984e+01 1.162898397000000017e+01 5.183692932000000297e+01
3.497238373500000108e+01 1.178868246000000042e+01 5.179867935000000045e+01
3.523932862499999885e+01 1.162827444000000021e+01 5.124285889000000083e+01
3.580658936500000067e+01 1.206080389000000075e+01 5.072835159000000260e+01
3.498726868499999654e+01 1.157037496000000054e+01 5.158723830999999649e+01
3.610851502500000265e+01 1.283635473000000005e+01 5.092455672999999905e+01
3.491369843500000059e+01 1.206107854999999951e+01 5.212526703000000339e+01
3.541198945499999695e+01 1.169095373000000038e+01 5.102680969000000033e+01
3.475874543500000158e+01 1.187391423999999951e+01 5.220632171999999827e+01
3.481953644499999712e+01 1.157145071000000058e+01 5.185051726999999744e+01
3.506396699500000125e+01 1.144120550000000058e+01 5.135593032999999963e+01
3.568956971499999753e+01 1.231235266000000017e+01 5.112821960000000132e+01
3.603257203500000116e+01 1.251527929000000050e+01 5.076660538000000145e+01
3.470079255499999960e+01 1.215673207999999939e+01 5.254073714999999822e+01
3.550933289500000001e+01 1.199748373000000079e+01 5.113875961000000103e+01
3.569817566500000083e+01 1.209482717000000029e+01 5.092726898000000091e+01
3.483687043500000158e+01 1.240916967000000071e+01 5.254546737999999806e+01
3.490027070499999695e+01 1.208380269999999967e+01 5.216585540999999893e+01
3.571578431500000050e+01 1.233535909999999980e+01 5.110704041000000331e+01
3.551095032500000315e+01 1.202411032000000013e+01 5.115916823999999963e+01
3.547197175499999844e+01 1.186137532999999955e+01 5.107987212999999826e+01
3.621250367500000067e+01 1.263406896000000046e+01 5.058754349000000161e+01
3.502038788499999811e+01 1.190814351999999943e+01 5.182655333999999669e+01
3.493403840500000257e+01 1.200824880000000050e+01 5.204791640999999913e+01
3.506601929499999670e+01 1.170388173999999992e+01 5.157911301000000037e+01
3.476343751499999968e+01 1.242633200000000038e+01 5.267513275000000306e+01
3.477930665499999918e+01 1.171064138000000021e+01 5.203342819000000219e+01
3.504716706499999646e+01 1.120026541000000009e+01 5.117452240000000074e+01
3.526989960499999910e+01 1.157949591000000034e+01 5.115300368999999847e+01
3.460923981500000224e+01 1.235670995999999988e+01 5.285631561000000289e+01
3.623706269499999877e+01 1.260525273999999918e+01 5.052428436000000289e+01
3.468927216499999844e+01 1.226768254999999996e+01 5.265440369000000231e+01
3.485545563499999844e+01 1.174484014000000087e+01 5.194379044000000079e+01
3.622424531499999745e+01 1.274725484999999914e+01 5.066674041999999645e+01
3.556387543499999992e+01 1.199488211000000071e+01 5.105118942000000004e+01
3.481830048500000174e+01 1.169968556999999976e+01 5.196298217999999736e+01
3.526828217500000306e+01 1.162708044000000029e+01 5.119654464999999988e+01
3.485014557499999910e+01 1.177281712999999996e+01 5.197620772999999872e+01
3.472619843500000059e+01 1.200571584999999963e+01 5.237083435000000264e+01
3.459758210500000075e+01 1.217900228000000062e+01 5.272137070000000136e+01
3.445480561499999794e+01 1.242365788999999943e+01 5.315558243000000260e+01
3.510632538499999811e+01 1.151957464000000009e+01 5.135721587999999826e+01
3.486039185500000315e+01 1.239763021000000087e+01 5.249873352000000182e+01
3.588604188499999736e+01 1.216284323000000001e+01 5.069203567999999649e+01
3.522715973500000075e+01 1.149465703999999988e+01 5.114672852000000347e+01
3.471749329499999703e+01 1.246462773999999918e+01 5.278001022000000120e+01
3.512739777499999860e+01 1.161898184000000001e+01 5.140993499999999727e+01
3.569265961499999662e+01 1.215183400999999996e+01 5.098503113000000297e+01
3.594131684500000290e+01 1.232317877000000017e+01 5.074375916000000331e+01
3.533276581500000191e+01 1.187054967999999988e+01 5.130553436000000289e+01
3.481781983500000166e+01 1.229284048000000062e+01 5.247500610000000165e+01
3.529543519500000315e+01 1.176904058000000042e+01 5.127642821999999967e+01
3.602017426500000141e+01 1.248499059999999972e+01 5.075988007000000124e+01
3.650380158499999794e+01 1.293710088999999996e+01 5.039308928999999893e+01
3.480143189500000034e+01 1.190537023000000083e+01 5.216667557000000244e+01
3.467491364499999662e+01 1.241725682999999947e+01 5.280577468999999979e+01
3.623296570499999802e+01 1.269466543000000058e+01 5.060776520000000289e+01
3.469323945499999695e+01 1.256670141000000029e+01 5.290592956999999785e+01
3.622480988499999910e+01 1.260496282000000079e+01 5.054320144999999798e+01
3.553266358500000166e+01 1.191597128000000083e+01 5.103200531000000240e+01
3.517694306500000323e+01 1.149649572000000042e+01 5.122685623000000277e+01
3.484648346499999860e+01 1.239831685999999955e+01 5.252108001999999942e+01
3.581128907499999769e+01 1.218303442000000025e+01 5.082636641999999938e+01
3.484491944500000216e+01 1.223637152000000050e+01 5.238394164999999703e+01
3.555140137499999753e+01 1.198386525999999996e+01 5.106121445000000136e+01
3.473211121500000331e+01 1.212605809999999984e+01 5.246530914000000223e+01
3.523663544499999745e+01 1.169621420000000001e+01 5.130563354000000231e+01
3.494808411500000034e+01 1.189818716000000087e+01 5.193107223999999889e+01
3.533658814500000034e+01 1.153738545999999943e+01 5.101238631999999740e+01
3.629072785500000009e+01 1.275913762999999967e+01 5.057299041999999645e+01
3.526792359499999918e+01 1.159419774999999930e+01 5.116875076000000178e+01
3.581685853500000150e+01 1.234784078000000029e+01 5.095970535000000012e+01
3.488792634499999679e+01 1.152113484999999926e+01 5.170017242000000124e+01
3.474852967500000034e+01 1.253920126000000046e+01 5.279573821999999694e+01
3.566328644499999712e+01 1.206379461000000042e+01 5.095509338000000099e+01
3.575574708500000298e+01 1.227461386000000054e+01 5.099217605999999847e+01
3.490123200499999712e+01 1.220403433000000071e+01 5.226798248000000058e+01
3.492574524500000166e+01 1.210090399000000083e+01 5.214073180999999835e+01
3.473359131499999819e+01 1.201171255000000038e+01 5.236444091999999983e+01
3.469571137500000191e+01 1.187051534999999980e+01 5.230198287999999707e+01
3.610908722500000323e+01 1.244868993999999951e+01 5.058952713000000045e+01
3.495942902499999860e+01 1.138241720000000079e+01 5.146876525999999785e+01
3.542842316499999811e+01 1.178630590000000034e+01 5.108328628999999665e+01
3.652207398499999869e+01 1.310069035999999976e+01 5.050551987000000054e+01
3.468898987499999720e+01 1.263249348999999988e+01 5.296928405999999967e+01
3.549743866499999712e+01 1.394348669000000029e+01 5.283469390999999860e+01
3.494181275500000083e+01 1.313136815999999918e+01 5.300381469999999950e+01
3.548301911499999761e+01 1.386994696000000005e+01 5.279386519999999905e+01
3.600042176499999869e+01 1.396719885000000083e+01 5.206836318999999946e+01
3.516015076499999736e+01 1.337128590999999922e+01 5.286908721999999727e+01
3.580468201499999736e+01 1.417136525999999996e+01 5.255053328999999707e+01
3.592051911499999761e+01 1.457222508999999988e+01 5.271485519000000153e+01
3.543602967500000034e+01 1.374681615999999984e+01 5.276124572999999884e+01
3.619954133499999926e+01 1.410271597000000021e+01 5.187371445000000136e+01
3.548085236499999695e+01 1.383054875999999922e+01 5.276330184999999773e+01
3.654729676499999869e+01 1.333875798999999951e+01 5.067125320000000244e+01
3.577854371499999786e+01 1.421739720999999967e+01 5.263108825999999851e+01
3.632551789499999728e+01 1.312283850000000029e+01 5.083205794999999938e+01
3.602590394500000315e+01 1.366030645000000021e+01 5.176398468000000008e+01
3.459617066500000249e+01 1.264429617000000050e+01 5.312464522999999872e+01
3.637649750500000323e+01 1.336146306999999922e+01 5.095798873999999756e+01
3.534478211500000100e+01 1.383755254999999984e+01 5.298218917999999888e+01
3.484039521500000092e+01 1.306707907000000013e+01 5.310704421999999880e+01
