4.182787184999999575e+00 2.888640737000000058e+01 6.334832381999999740e+01
3.124517674999999883e+00 2.902276754000000025e+01 6.400214386000000388e+01
4.809923415000000091e+00 2.889012669999999972e+01 6.307232284999999905e+01
4.717104195000000111e+00 2.890694952000000129e+01 6.313608551000000091e+01
5.674688575000000235e+00 2.878314351999999943e+01 6.254391097999999971e+01
4.899187324999999760e+00 2.889479207999999844e+01 6.303849411000000202e+01
5.035089734999999678e+00 2.886921835000000058e+01 6.294389724999999913e+01
3.576677564999999781e+00 2.901861715000000075e+01 6.379414367999999769e+01
2.842745064999999904e+00 2.909247732000000042e+01 6.422027588000000264e+01
2.685819865000000028e+00 2.909854650000000120e+01 6.429856872999999950e+01
5.064707044999999574e+00 2.888814688000000075e+01 6.295559311000000235e+01
3.281152964999999977e+00 2.902426671999999996e+01 6.393396377999999913e+01
3.753916025000000101e+00 2.898676061000000104e+01 6.367275237999999860e+01
5.263586284999999698e+00 2.882124471999999926e+01 6.277828216999999711e+01
4.782545325000000069e+00 2.886544179999999926e+01 6.305203247000000033e+01
4.044245004999999615e+00 2.893217230000000129e+01 6.347072983000000335e+01
2.651865245000000204e+00 2.909933995999999823e+01 6.431482696999999860e+01
2.227045294999999925e+00 2.917611073999999860e+01 6.461426543999999694e+01
2.612661604999999998e+00 2.914280461999999972e+01 6.439878081999999893e+01
1.712034464999999894e+00 2.924775075999999885e+01 6.495114135999999405e+01
3.774477244999999925e+00 2.904060888000000062e+01 6.374619675000000285e+01
4.286768194999999615e+00 2.897613287000000071e+01 6.342336273000000091e+01
2.353716134999999987e+00 2.914961767000000137e+01 6.451536559999999554e+01
4.868887185000000173e+00 2.891778706999999926e+01 6.308348465000000260e+01
2.538370374999999957e+00 2.918251562000000021e+01 6.450046539000000223e+01
3.091650244999999853e+00 2.909026860999999897e+01 6.411093139999999835e+01
2.252104044999999832e+00 2.921632527999999951e+01 6.467685699000000454e+01
2.322805644999999863e+00 2.919078587999999996e+01 6.460222625999999480e+01
2.226057294999999936e+00 2.919445181000000034e+01 6.464781188999999983e+01
5.328504804999999678e+00 2.893308782000000079e+01 6.292605208999999888e+01
4.893503424999999574e+00 2.893547964000000050e+01 6.310555267000000157e+01
3.528909924999999781e+00 2.909816503000000054e+01 6.394911957000000058e+01
5.346189735000000276e+00 2.890620184000000137e+01 6.287032700000000318e+01
4.886793374999999884e+00 2.893774937999999963e+01 6.311235427999999814e+01
5.302297835000000070e+00 2.894794226000000137e+01 6.296345901000000111e+01
3.533396005000000173e+00 2.910147618999999963e+01 6.395329284999999686e+01
3.089384315000000214e+00 2.913795995999999988e+01 6.419804381999999521e+01
5.144151925000000070e+00 2.895409918000000005e+01 6.303827285999999930e+01
2.199819805000000184e+00 2.926928854000000157e+01 6.481029510000000471e+01
4.313219304999999615e+00 2.906654118999999881e+01 6.358694839000000343e+01
2.596739055000000018e+00 2.921774435000000025e+01 6.454539490000000512e+01
3.780592205000000039e+00 2.910251378999999972e+01 6.385579299999999847e+01
3.837843185000000101e+00 2.910755681999999922e+01 6.385014343000000281e+01
2.972875834999999967e+00 2.921972798999999910e+01 6.442700958000000355e+01
2.897783514999999976e+00 2.920382070000000141e+01 6.441015625000000000e+01
2.217561964999999802e+00 2.927036427999999901e+01 6.480727385999999512e+01
2.866857764999999780e+00 2.922877645000000157e+01 6.448545074000000454e+01
3.468302014999999905e+00 2.916286230000000046e+01 6.411587523999999405e+01
3.701902624999999780e+00 2.914653540000000120e+01 6.399652100000000132e+01
3.516744854999999781e+00 2.916741323000000108e+01 6.411182404000000190e+01
4.364389655000000090e+00 2.909209584999999976e+01 6.363682938000000178e+01
1.062348771499999955e+01 2.914405203000000100e+01 7.000267028999999752e+01
1.062313294500000005e+01 2.917959738000000058e+01 7.016556549000000587e+01
1.062363267499999964e+01 2.917819738000000029e+01 7.023651123000000496e+01
1.062072587499999976e+01 2.919991827000000129e+01 6.990775299000000587e+01
1.061681199500000083e+01 2.923964452999999963e+01 6.994287871999999595e+01
1.062055420499999947e+01 2.843821859000000174e+01 6.520265197999999884e+01
1.061780381500000026e+01 2.927553701000000075e+01 7.021635437000000479e+01
1.061157441499999976e+01 2.846578359000000091e+01 6.489903259000000446e+01
1.060272431499999968e+01 2.872300862999999893e+01 6.620370483000000661e+01
1.060220170500000059e+01 2.903400946000000005e+01 6.810334014999999397e+01
1.059732651500000067e+01 2.907590245999999823e+01 6.820855713000000264e+01
1.060322785500000009e+01 2.870948552999999848e+01 6.613619995000000529e+01
1.060099625500000009e+01 2.855523824999999860e+01 6.511594390999999860e+01
1.059601807499999993e+01 2.870428990999999996e+01 6.587924194000000000e+01
1.058752274499999935e+01 2.907798909999999992e+01 6.799354553000000578e+01
1.058562684500000017e+01 2.933039999000000009e+01 6.950669861000000083e+01
1.059597992499999997e+01 2.895163870000000017e+01 6.740225220000000661e+01
1.059032654499999992e+01 2.902835989000000083e+01 6.774981689000000529e+01
1.059442353500000067e+01 2.876591253000000137e+01 6.622354126000000463e+01
1.059278702499999980e+01 2.888006735000000091e+01 6.689067841000000669e+01
1.058545517499999988e+01 2.933591986000000063e+01 6.953689574999999934e+01
1.058149552499999935e+01 2.907358311999999856e+01 6.783306885000000364e+01
1.058055710500000046e+01 2.905807257000000021e+01 6.771676635999999405e+01
1.057635331500000042e+01 2.880896901999999926e+01 6.608905792000000190e+01
1.059096360500000067e+01 2.869534825999999939e+01 6.571234893999999827e+01
1.059447693499999943e+01 2.854161596000000145e+01 6.484290314000000421e+01
1.057598710499999939e+01 2.891686772999999988e+01 6.674564361999999562e+01
1.058680558500000046e+01 2.873715733999999955e+01 6.587783813000000066e+01
1.058890748500000001e+01 2.856614446000000029e+01 6.487080382999999983e+01
1.056418442500000054e+01 2.876571034999999910e+01 6.562834929999999645e+01
1.057238221499999931e+01 2.915958928999999955e+01 6.817853546000000620e+01
1.053491044499999951e+01 2.894892644999999831e+01 6.631605530000000215e+01
1.054492783499999931e+01 2.883622121999999877e+01 6.577262115000000620e+01
1.053542542499999968e+01 2.875892782000000025e+01 6.515323639000000355e+01
1.052108979499999997e+01 2.875749349000000166e+01 6.492837523999999405e+01
1.053025269499999972e+01 2.885909795999999972e+01 6.569244385000000364e+01
1.053098511500000001e+01 2.873730229999999963e+01 6.495307158999999331e+01
1.056502747500000083e+01 2.863320303000000067e+01 6.482473754999999471e+01
1.055238556499999980e+01 2.873658895000000157e+01 6.527116393999999389e+01
1.054947114500000005e+01 2.878346013999999897e+01 6.551598357999999678e+01
1.056903290500000026e+01 2.896096182000000141e+01 6.690435791000000165e+01
1.053489899500000071e+01 2.883555364000000054e+01 6.561736297999999579e+01
1.055867981499999964e+01 2.908808279000000141e+01 6.753150177000000554e+01
1.056525254499999988e+01 2.868502188000000075e+01 6.514734649999999760e+01
1.055522751500000034e+01 2.883110951999999827e+01 6.589630126999999504e+01
1.053830170500000030e+01 2.883922719999999984e+01 6.569128417999999670e+01
1.054861664499999918e+01 2.878774023000000071e+01 6.552947998000000496e+01
1.052216935500000083e+01 2.959737920999999972e+01 7.011909484999999620e+01
1.056945252500000088e+01 2.945502614999999835e+01 6.995455169999999612e+01
1.054276108500000042e+01 2.940261221000000091e+01 6.922946167000000628e+01
1.052479386499999947e+01 2.909303427000000042e+01 6.705142974999999694e+01
1.052847123499999960e+01 2.904196310000000025e+01 6.679217529000000297e+01
1.051854920499999935e+01 2.892776631999999992e+01 6.593910216999999818e+01
1.054682755500000013e+01 2.921677542000000116e+01 6.814583588000000702e+01
1.054455399499999935e+01 2.939097356999999988e+01 6.918476868000000479e+01
1.051827836500000046e+01 2.938228750000000034e+01 6.873529815999999926e+01
1.054039216500000009e+01 2.913245915999999980e+01 6.752931976000000702e+01
1.052455353500000079e+01 2.950362538999999984e+01 6.957742310000000430e+01
1.052504944500000050e+01 2.943735647000000100e+01 6.917659759999999380e+01
1.056074357500000005e+01 2.946511221000000091e+01 6.988546752999999967e+01
1.052662873499999918e+01 2.928735113000000112e+01 6.827622986000000083e+01
1.053419327499999980e+01 2.957103491000000162e+01 7.013795471000000248e+01
1.053780579500000059e+01 2.933233403999999922e+01 6.872180176000000529e+01
1.052314591500000063e+01 2.944794607000000042e+01 6.921318053999999620e+01
1.054110550500000087e+01 2.947582006000000021e+01 6.965552520999999331e+01
1.048691773500000046e+01 2.916869497000000067e+01 6.708288573999999471e+01
1.048484253500000030e+01 2.921220921999999831e+01 6.732984924000000149e+01
1.046842789499999959e+01 2.913847493999999827e+01 6.670837401999999372e+01
1.049826645499999955e+01 2.878643942000000067e+01 6.484342956999999785e+01
1.050697541499999943e+01 2.892246008000000046e+01 6.577014923000000124e+01
1.047710251500000034e+01 2.923733663000000149e+01 6.740582274999999868e+01
1.048111176499999964e+01 2.891768788999999984e+01 6.547730255000000454e+01
1.051053452500000063e+01 2.956187962999999996e+01 6.974583434999999554e+01
1.050011277499999984e+01 2.948504781999999835e+01 6.916629790999999727e+01
1.049679398500000005e+01 2.910665274000000124e+01 6.680126952999999901e+01
1.046614289500000083e+01 2.914970921999999831e+01 6.675431061000000454e+01
1.051055741499999918e+01 2.932998037000000124e+01 6.831733703999999818e+01
1.050483918499999980e+01 2.927521275999999872e+01 6.792166901000000223e+01
1.051144242500000026e+01 2.886847067000000067e+01 6.548305510999999512e+01
1.048736405500000046e+01 2.910913229000000157e+01 6.672047424000000149e+01
1.049828553500000083e+01 2.916040562999999963e+01 6.714762115000000620e+01
1.048545670500000071e+01 2.884752415999999897e+01 6.508931732000000636e+01
1.047560715500000050e+01 2.885869359999999872e+01 6.505776215000000207e+01
1.049077820499999980e+01 2.951752232999999848e+01 6.927132416000000603e+01
1.046455597499999968e+01 2.968446112000000170e+01 7.003269957999999917e+01
1.049343705499999935e+01 2.948313283999999967e+01 6.908650208000000248e+01
1.043289399500000059e+01 2.940665960000000112e+01 6.799871826000000397e+01
1.046724915499999931e+01 2.953895711999999918e+01 6.916370392000000322e+01
1.044572281499999988e+01 2.912136601999999996e+01 6.637171173000000124e+01
1.044680619500000063e+01 2.969472264999999922e+01 6.991513061999999934e+01
1.045517182500000075e+01 2.930126333000000116e+01 6.757629394999999306e+01
1.048057007499999926e+01 2.951442860999999951e+01 6.914826202000000421e+01
1.044802689499999993e+01 2.963461828000000153e+01 6.955725861000000521e+01
1.047379517499999935e+01 2.955862570000000034e+01 6.935153961000000322e+01
1.049791169500000088e+01 2.960236502000000058e+01 6.986666870000000529e+01
1.044269776500000013e+01 2.970435094999999848e+01 6.993263244999999984e+01
1.045587372500000001e+01 2.923076010000000124e+01 6.714906311000000017e+01
1.048417115500000030e+01 2.942501211000000083e+01 6.863403320000000463e+01
1.043897843499999922e+01 2.942186498999999955e+01 6.815438079999999843e+01
1.045426392499999935e+01 2.913155507999999827e+01 6.652148438000000397e+01
1.036073517500000030e+01 2.907113790000000009e+01 6.540396880999999496e+01
1.039708924500000009e+01 2.940466452000000075e+01 6.772445679000000496e+01
1.040268540499999972e+01 2.936360310999999967e+01 6.751239777000000686e+01
1.039161896499999926e+01 2.922506475000000137e+01 6.657798766999999884e+01
1.040743088500000013e+01 2.905652380000000079e+01 6.565518188000000066e+01
1.035705399499999935e+01 2.918971395000000157e+01 6.610761261000000388e+01
1.041735673500000026e+01 2.907489538000000096e+01 6.584090424000000041e+01
1.037232804499999972e+01 2.904781866000000079e+01 6.534502410999999711e+01
1.041226410500000021e+01 2.921906805000000062e+01 6.669190978999999686e+01
1.038657975499999964e+01 2.934584570000000170e+01 6.728530883999999901e+01
1.042137742499999931e+01 2.919876623000000038e+01 6.663345336999999802e+01
1.042022538500000017e+01 2.913896704000000071e+01 6.625661469000000636e+01
1.041563248499999972e+01 2.959511708999999868e+01 6.903336333999999397e+01
1.042583680499999943e+01 2.950524663999999930e+01 6.855424499999999455e+01
1.040511918500000021e+01 2.914182806000000170e+01 6.616384125000000438e+01
1.039789033499999960e+01 2.932521200000000050e+01 6.724082183999999529e+01
1.037507081500000083e+01 2.899257040000000174e+01 6.502471160999999711e+01
1.034123826499999943e+01 2.971264409999999856e+01 6.921375274999999760e+01
1.035147309499999935e+01 2.951715231000000017e+01 6.808413695999999504e+01
1.037470460499999980e+01 2.948102712000000025e+01 6.803133391999999446e+01
1.035597825500000013e+01 2.950156927000000096e+01 6.802108001999999942e+01
1.041029572499999922e+01 2.971563100999999918e+01 6.973683929000000603e+01
1.038962769499999972e+01 2.953367757999999910e+01 6.846478270999999438e+01
1.040854096500000026e+01 2.976793050999999934e+01 7.004618073000000322e+01
1.034504151500000013e+01 2.920905447000000166e+01 6.613899231000000611e+01
1.033500504500000083e+01 2.906760167999999922e+01 6.519416046000000620e+01
1.038410401500000013e+01 2.946228169999999835e+01 6.798456572999999992e+01
1.034596467499999939e+01 2.915857838999999885e+01 6.583474730999999736e+01
1.034325242499999931e+01 2.971644354000000021e+01 6.925188445999999942e+01
1.038670945500000009e+01 2.958217382000000129e+01 6.874223327999999356e+01
1.035017228499999931e+01 2.934084843999999848e+01 6.698846435999999471e+01
1.033299851499999988e+01 2.920506810999999914e+01 6.602642821999999967e+01
1.036761307499999951e+01 2.961371755000000050e+01 6.879705810999999471e+01
1.023307633499999980e+01 2.914450979000000075e+01 6.511648560000000430e+01
1.025261521500000050e+01 2.930680990000000108e+01 6.622053527999999289e+01
1.029342103499999972e+01 2.921452092999999905e+01 6.586948395000000289e+01
1.024690842500000088e+01 2.914372777999999897e+01 6.518540192000000388e+01
1.026501298500000026e+01 2.925325155000000166e+01 6.595668793000000107e+01
1.030765748500000001e+01 2.944952153999999922e+01 6.739320374000000413e+01
1.031992554500000026e+01 2.968515538999999848e+01 6.891033172999999579e+01
1.030868363499999951e+01 2.949677800999999988e+01 6.768981171000000074e+01
1.029984498500000001e+01 2.911745976999999996e+01 6.530577087000000347e+01
1.030231309500000059e+01 2.952598332999999897e+01 6.783579253999999992e+01
1.029422593500000005e+01 2.937442921999999967e+01 6.685897063999999546e+01
1.027839493499999968e+01 2.910097646999999910e+01 6.508987426999999570e+01
1.026016450500000055e+01 2.940615988000000058e+01 6.687287139999999397e+01
1.030730652499999955e+01 2.934205006999999910e+01 6.672922515999999860e+01
1.029740738499999964e+01 2.909239339999999885e+01 6.513832854999999711e+01
1.032634568499999972e+01 2.974289845999999926e+01 6.930027771000000314e+01
1.027332520500000079e+01 2.922349309999999889e+01 6.581764221000000248e+01
1.022779679499999972e+01 2.943490362000000005e+01 6.687742615000000512e+01
1.023780655500000059e+01 2.941065740000000162e+01 6.678141021999999793e+01
1.022343278499999997e+01 2.981722402000000116e+01 6.920957946999999422e+01
1.026830887500000067e+01 2.983851003999999918e+01 6.957996368000000587e+01
1.023386216499999968e+01 2.974051808999999835e+01 6.879259491000000537e+01
1.021546387499999931e+01 2.992982243999999881e+01 6.986082457999999917e+01
1.023564744499999968e+01 2.953293370999999823e+01 6.752323914000000116e+01
1.021517396499999997e+01 2.941360235000000145e+01 6.667888641000000405e+01
1.029701829500000088e+01 2.973503256000000050e+01 6.909548187000000041e+01
1.027400803499999959e+01 2.980562352999999831e+01 6.940770720999999810e+01
1.031579041500000038e+01 2.985809851000000137e+01 6.995375061000000017e+01
1.028026413499999947e+01 2.974028540000000120e+01 6.903853607000000636e+01
1.021229004499999959e+01 2.926307820999999976e+01 6.573614501999999504e+01
1.021266388499999955e+01 2.968460225999999835e+01 6.833510590000000207e+01
1.024632477499999972e+01 2.949403142999999972e+01 6.734045410000000231e+01
1.024941468499999964e+01 2.939059209999999922e+01 6.671964264000000355e+01
1.025221467499999939e+01 2.963705587000000108e+01 6.825301360999999645e+01
1.017068314499999993e+01 2.949112463000000162e+01 6.698090363000000025e+01
1.014798188500000009e+01 2.945334768000000025e+01 6.666133118000000479e+01
1.019454407499999959e+01 2.917429875999999922e+01 6.512022399999999323e+01
1.014887070500000021e+01 2.921050023999999823e+01 6.516858673000000124e+01
1.017067551499999922e+01 2.929399251999999976e+01 6.576635742000000562e+01
1.017831635499999976e+01 2.926703404999999947e+01 6.562948608000000661e+01
1.018307709499999980e+01 2.919395971000000145e+01 6.519747925000000066e+01
1.017981171499999959e+01 2.949851370000000017e+01 6.706131743999999628e+01
1.018634247500000001e+01 2.920255803999999955e+01 6.526296234000000140e+01
1.020675492500000026e+01 2.979969931000000116e+01 6.901995850000000132e+01
1.016688752499999993e+01 2.947107457999999980e+01 6.684285735999999645e+01
1.019830155500000046e+01 2.929285574000000025e+01 6.586502837999999826e+01
1.017854523499999964e+01 2.965760945999999976e+01 6.803666687000000479e+01
1.020610642499999976e+01 2.967149876999999947e+01 6.822765350000000240e+01
1.009861588499999918e+01 2.950319052000000042e+01 6.677957152999999835e+01
1.009245514500000063e+01 2.957117223999999922e+01 6.717485809000000074e+01
1.017666459500000009e+01 2.983978032999999996e+01 6.915178679999999645e+01
1.014104294500000059e+01 2.995170355000000129e+01 6.970510864000000595e+01
1.008157944499999914e+01 2.936626195999999922e+01 6.587081908999999769e+01
1.009668946500000075e+01 2.979947805000000116e+01 6.859760283999999331e+01
1.015683198500000017e+01 2.972088383999999905e+01 6.834344482000000198e+01
1.016917634500000034e+01 2.981583928999999955e+01 6.897565459999999860e+01
1.016937851500000001e+01 2.972764348999999839e+01 6.843306732000000636e+01
1.008626771499999997e+01 2.939043951000000021e+01 6.603771209999999314e+01
1.011401200499999931e+01 2.971335363000000029e+01 6.813327789000000223e+01
1.010041642500000059e+01 2.943185949000000079e+01 6.634700775000000306e+01
1.013991379500000001e+01 2.956671284999999827e+01 6.732891845999999703e+01
1.009699463499999972e+01 2.978600454000000042e+01 6.851576233000000116e+01
1.012833237499999939e+01 2.953658438000000075e+01 6.709899901999999372e+01
1.012610077499999939e+01 2.996154165000000091e+01 6.970858001999999942e+01
1.005871796499999959e+01 2.991772985000000062e+01 6.920453643999999827e+01
1.004268479499999955e+01 2.972803259000000153e+01 6.799436950999999851e+01
1.002938675500000087e+01 2.975951527999999868e+01 6.815397643999999389e+01
9.992517714999999967e+00 2.940100621999999930e+01 6.584991454999999405e+01
1.007545685500000054e+01 2.970224142000000001e+01 6.792021178999999620e+01
1.006606125499999926e+01 2.959128713000000133e+01 6.721231842000000256e+01
9.970537424999999843e+00 2.937446355999999881e+01 6.562955474999999694e+01
9.985327005000000256e+00 2.948282766000000166e+01 6.633539580999999430e+01
1.005560135500000030e+01 2.970541906000000054e+01 6.788843536000000256e+01
1.004174637500000067e+01 2.931347798999999910e+01 6.543791199000000347e+01
1.007483506500000026e+01 2.962655400999999955e+01 6.745230103000000099e+01
1.005764603499999943e+01 2.975333546999999967e+01 6.818894195999999397e+01
1.000063157499999988e+01 2.951896046999999967e+01 6.659757996000000446e+01
9.933290725000000876e+00 2.958619069999999951e+01 6.683766937000000041e+01
9.974428415000000214e+00 2.969798039999999872e+01 6.763276672000000644e+01
9.938394784999999843e+00 3.004719305000000062e+01 6.969104767000000322e+01
9.960253005000000215e+00 2.990644978999999992e+01 6.888045501999999942e+01
9.957903144999999512e+00 2.988555287999999877e+01 6.874565886999999975e+01
9.998888255000000669e+00 2.963952779999999976e+01 6.733585358000000554e+01
9.963873145000000875e+00 2.989977788999999930e+01 6.884871674000000041e+01
9.955217604999999637e+00 2.948216771999999963e+01 6.625347899999999868e+01
9.940473795000000834e+00 2.934753561000000133e+01 6.538590240000000620e+01
9.958853004999999925e+00 2.970026921999999914e+01 6.760658263999999917e+01
9.952722785000000627e+00 2.939928961000000029e+01 6.573644256999999413e+01
1.001898408499999960e+01 2.974154805999999951e+01 6.801636505000000454e+01
9.903097394999999636e+00 2.976319265000000058e+01 6.788238524999999868e+01
9.922479864999999677e+00 2.947833775999999872e+01 6.615647124999999562e+01
9.916979075000000421e+00 2.950005482999999984e+01 6.628200531000000240e+01
9.914907695000000132e+00 2.936841344999999848e+01 6.546788788000000636e+01
9.846735235000000586e+00 2.942858647999999988e+01 6.573643493999999521e+01
9.924677134999999595e+00 2.947007894000000050e+01 6.610887146000000314e+01
9.926115275000000793e+00 2.981570959000000087e+01 6.824044037000000174e+01
9.922502755000000008e+00 2.954250860000000145e+01 6.655186462000000347e+01
9.920118575000000050e+00 2.992204046000000162e+01 6.888652802000000008e+01
9.925729994999999306e+00 2.980564259999999877e+01 6.817784118999999521e+01
9.891477825000000834e+00 2.969038152999999980e+01 6.741641235000000165e+01
9.833765265000000255e+00 2.994909811000000133e+01 6.892386627000000487e+01
9.867613074999999512e+00 2.994535971000000174e+01 6.895153808999999967e+01
9.855989694999999884e+00 2.979469441999999901e+01 6.800586699999999496e+01
9.825052505000000380e+00 2.996761846000000062e+01 6.902490996999999595e+01
9.845369574999999429e+00 3.001094579999999823e+01 6.932228087999999389e+01
9.773699045000000751e+00 2.944755315999999823e+01 6.575042725000000132e+01
1.703970194999999910e+00 2.952293157000000079e+01 6.637239074999999389e+01
1.675775765000000028e+00 2.931071233999999848e+01 6.510716247999999950e+01
1.657003645000000081e+00 2.945931768000000162e+01 6.605084990999999661e+01
1.672514204999999921e+00 2.979125356999999852e+01 6.807263946999999860e+01
1.688719035000000090e+00 2.987474203000000017e+01 6.856274414000000661e+01
1.641145945000000106e+00 2.950710439999999934e+01 6.638342285000000231e+01
1.611494304999999905e+00 2.951740025999999872e+01 6.652352904999999339e+01
1.592626815000000029e+00 2.930775213000000079e+01 6.528066253999999446e+01
1.616388565000000055e+00 2.960228872000000067e+01 6.703385925000000611e+01
1.630197764999999910e+00 2.986802816000000149e+01 6.863533019999999851e+01
1.609796765000000018e+00 2.969560766000000029e+01 6.762583922999999686e+01
1.615793465000000095e+00 2.982251501000000005e+01 6.839218139999999835e+01
1.559602975000000002e+00 2.938159323000000001e+01 6.582098388999999372e+01
1.635153054999999966e+00 2.971953725999999918e+01 6.770769500999999480e+01
1.572683574999999889e+00 2.943954228999999856e+01 6.614419556000000000e+01
1.536268474999999967e+00 2.937902593000000095e+01 6.586550139999999942e+01
1.604841474999999962e+00 2.939081334999999839e+01 6.576083373999999537e+01
1.559747935000000085e+00 2.944956350000000000e+01 6.623937225000000240e+01
1.616117714999999899e+00 2.929774618000000075e+01 6.515830993999999521e+01
1.632959604999999925e+00 2.978894949000000025e+01 6.814101410000000669e+01
1.543085335000000002e+00 2.985996388999999951e+01 6.881086731000000611e+01
1.521967174999999894e+00 2.941910696000000058e+01 6.614940642999999909e+01
1.588476425000000081e+00 2.974348210999999864e+01 6.797592163000000198e+01
1.542265175000000044e+00 2.952751303000000149e+01 6.676480103000000099e+01
1.574671034999999941e+00 2.973523854999999827e+01 6.796079253999999992e+01
1.526106114999999930e+00 2.936279439999999852e+01 6.579175567999999430e+01
1.520872355000000065e+00 2.953037786000000153e+01 6.683778381000000479e+01
1.574461225000000075e+00 2.993576574000000079e+01 6.919678496999999595e+01
1.511038064999999930e+00 2.954690695000000034e+01 6.696501159999999686e+01
1.518327954999999951e+00 3.001192998999999872e+01 6.981111144999999851e+01
1.575918434999999951e+00 2.969554662999999906e+01 6.771303557999999612e+01
1.578478094999999914e+00 2.963339376000000058e+01 6.732350922000000537e+01
1.542520764999999905e+00 2.952862692000000067e+01 6.677100371999999595e+01
1.536512614999999915e+00 2.941692876999999839e+01 6.609838867000000562e+01
1.536733864999999977e+00 2.992890691999999930e+01 6.925207519999999306e+01
1.471594094999999935e+00 2.930751942999999926e+01 6.563906097000000273e+01
1.497053385000000070e+00 2.967761755000000079e+01 6.782179259999999488e+01
1.472841505000000106e+00 2.959716939999999852e+01 6.741879271999999901e+01
1.507292035000000086e+00 2.939507817999999872e+01 6.604195403999999314e+01
1.477201704999999921e+00 2.972127293999999864e+01 6.816668701000000397e+01
1.457300424999999899e+00 2.940345144000000133e+01 6.628475951999999438e+01
1.484148264999999967e+00 2.962365484000000038e+01 6.753872681000000000e+01
1.489008185000000095e+00 2.944316625000000087e+01 6.640815734999999620e+01
1.434095625000000096e+00 2.941161488999999918e+01 6.642380523999999298e+01
1.399751905000000018e+00 2.919715260999999984e+01 6.523387146000000314e+01
1.505056624999999926e+00 2.964550923999999910e+01 6.759340668000000107e+01
1.507250074999999967e+00 2.985789632999999910e+01 6.889347838999999851e+01
1.409689184999999956e+00 2.918575047999999938e+01 6.512561035000000231e+01
1.428640605000000008e+00 2.947827291000000116e+01 6.685533904999999777e+01
1.477060554999999997e+00 2.946341466999999881e+01 6.657859039000000223e+01
1.494089365000000003e+00 2.942642736000000170e+01 6.628559113000000025e+01
1.429697275000000101e+00 2.949619818000000038e+01 6.696172332999999810e+01
1.412618874999999941e+00 2.986089468000000124e+01 6.927389526000000330e+01
1.435384985000000002e+00 2.963168858999999955e+01 6.777471160999999711e+01
1.440248725000000007e+00 2.993603277000000062e+01 6.963115691999999513e+01
1.430402994999999899e+00 2.985707234999999926e+01 6.918233490000000074e+01
1.423773055000000065e+00 2.963004446000000058e+01 6.780898285000000669e+01
1.386297464999999951e+00 2.978732060999999831e+01 6.892130280000000653e+01
1.471864934999999930e+00 2.992875813999999934e+01 6.946539307000000463e+01
1.426508185000000095e+00 2.976720189999999988e+01 6.864356232000000091e+01
1.433626414999999987e+00 2.990827322000000166e+01 6.948543549000000041e+01
1.420343635000000049e+00 2.943387746999999877e+01 6.661357117000000017e+01
1.408205275000000034e+00 2.939238118999999827e+01 6.640432739000000595e+01
1.400491954999999900e+00 2.959349965999999910e+01 6.767289734000000578e+01
1.401182415000000070e+00 2.987219762999999872e+01 6.938726807000000463e+01
1.378553624999999894e+00 2.976583623999999872e+01 6.881855011000000388e+01
1.433737044999999988e+00 2.975580739999999835e+01 6.854570006999999521e+01
1.410993815000000096e+00 2.948011922999999967e+01 6.693420410000000231e+01
1.331884625000000044e+00 2.912372732000000042e+01 6.510695647999999380e+01
1.304655314999999982e+00 2.935043858999999955e+01 6.664888000000000545e+01
1.330145125000000039e+00 2.933537434999999860e+01 6.642016601999999637e+01
1.370424504999999904e+00 2.918440007999999963e+01 6.527530670000000157e+01
1.346815344999999997e+00 2.933979177000000149e+01 6.635852814000000421e+01
1.373831035000000034e+00 2.959425497000000149e+01 6.778222655999999802e+01
1.367567304999999900e+00 2.984178685999999914e+01 6.934065246999999488e+01
1.362482315000000055e+00 2.944462346999999980e+01 6.692088318000000413e+01
1.311403515000000075e+00 2.909894704999999959e+01 6.506349181999999587e+01
1.294332744999999951e+00 2.921393727999999967e+01 6.586291504000000430e+01
1.348245855000000049e+00 2.957705067999999926e+01 6.781262207000000330e+01
1.374635934999999920e+00 2.992367314999999905e+01 6.980744934000000512e+01
1.375208144999999993e+00 2.955600881000000157e+01 6.753927611999999669e+01
1.355245824999999904e+00 2.915493153999999976e+01 6.517467498999999975e+01
1.322660685000000003e+00 2.925283956000000174e+01 6.595159148999999843e+01
1.289514784999999941e+00 2.906570195999999839e+01 6.497532653999999752e+01
1.370184185000000054e+00 2.925103139999999868e+01 6.568710326999999438e+01
1.285635234999999987e+00 2.938623189999999852e+01 6.697077941999999950e+01
1.260099655000000096e+00 2.913857030999999864e+01 6.558109283000000289e+01
1.320055245000000044e+00 2.983716726000000108e+01 6.956546020999999769e+01
1.270525214999999930e+00 2.953233862000000087e+01 6.795147704999999405e+01
1.294176344999999895e+00 2.964020299999999963e+01 6.848992157000000702e+01
1.278787855000000029e+00 2.954177617999999939e+01 6.796555327999999463e+01
1.275438545000000090e+00 2.974810933999999918e+01 6.925463104000000669e+01
1.273058175000000070e+00 2.981415700999999885e+01 6.967422485000000165e+01
1.364034895000000081e+00 2.993213795999999860e+01 6.991609954999999843e+01
1.308008435000000080e+00 2.944702673000000104e+01 6.722606659000000207e+01
1.309152845000000065e+00 2.956290960000000112e+01 6.793389129999999909e+01
1.311781164999999971e+00 2.966723393999999914e+01 6.856262207000000330e+01
1.257814645000000064e+00 2.946262884000000071e+01 6.758974456999999347e+01
1.358919385000000091e+00 2.982182072999999889e+01 6.926371002000000487e+01
1.325891734999999905e+00 2.974751806000000087e+01 6.898204040999999620e+01
1.297025915000000085e+00 2.946820592999999988e+01 6.741506957999999372e+01
1.257215734999999945e+00 2.948534918000000005e+01 6.773291016000000297e+01
1.248987435000000090e+00 2.965937566999999930e+01 6.886344146999999793e+01
1.249853375000000044e+00 2.929419087999999860e+01 6.660723876999999504e+01
1.208456275000000080e+00 2.921398306000000034e+01 6.641558075000000372e+01
1.189531565000000013e+00 2.900829840000000104e+01 6.528668976000000157e+01
1.196733714999999920e+00 2.918727635999999848e+01 6.633673095999999703e+01
1.255899665000000054e+00 2.958509588000000079e+01 6.835526276000000223e+01
1.226019144999999977e+00 2.902474356000000100e+01 6.512133789000000661e+01
1.251028304999999952e+00 2.927517462000000137e+01 6.648146819999999479e+01
1.229524854999999972e+00 2.932227087000000054e+01 6.692879485999999645e+01
1.246080634999999992e+00 2.921745443000000009e+01 6.616203308000000050e+01
1.195486304999999971e+00 2.918618153999999976e+01 6.633912659000000644e+01
1.250070814999999946e+00 2.976376103999999856e+01 6.949863433999999529e+01
1.219000104999999889e+00 2.918337392999999835e+01 6.614994812000000479e+01
1.214658975000000085e+00 2.932764959000000005e+01 6.707054900999999347e+01
1.202951674999999998e+00 2.903418492999999856e+01 6.534808350000000132e+01
1.219232794999999925e+00 2.917354345000000038e+01 6.608768462999999826e+01
1.191362625000000008e+00 2.921693945000000170e+01 6.655870819000000438e+01
1.211488965000000029e+00 2.957016897000000100e+01 6.858786773999999298e+01
1.192503214999999894e+00 2.976873159000000157e+01 6.994996643000000347e+01
1.163133865000000045e+00 2.903287268000000054e+01 6.563101195999999504e+01
1.219061135000000018e+00 2.968583440999999823e+01 6.924513244999999984e+01
1.177721264999999962e+00 2.937032841999999988e+01 6.760345458999999835e+01
1.170187234999999992e+00 2.943631123999999843e+01 6.806501006999999959e+01
1.164266824999999894e+00 2.927697514999999839e+01 6.712663268999999389e+01
1.207094434999999910e+00 2.949211263999999844e+01 6.813908385999999950e+01
1.159956215000000013e+00 2.935909413999999984e+01 6.766405487000000107e+01
1.197645424999999930e+00 2.971069860000000062e+01 6.955481720000000223e+01
1.181059124999999987e+00 2.952961492000000021e+01 6.856040192000000388e+01
1.162370925000000055e+00 2.897937917999999868e+01 6.530698395000000289e+01
1.211050275000000065e+00 2.954247044999999972e+01 6.842039490000000512e+01
1.160379644999999904e+00 2.920770024999999848e+01 6.672821808000000487e+01
1.163088085000000049e+00 2.907447957999999844e+01 6.588767242000000124e+01
1.164716955000000054e+00 2.934260321000000005e+01 6.752765655999999694e+01
1.179960494999999998e+00 2.916030264000000116e+01 6.629312896999999793e+01
1.157457594999999895e+00 2.938895558999999835e+01 6.786628722999999752e+01
1.138983014999999988e+00 2.898864889000000034e+01 6.557941436999999496e+01
1.152124645000000003e+00 2.894831990999999860e+01 6.519708251999999504e+01
1.120470284999999899e+00 2.906138371999999848e+01 6.621607971000000248e+01
1.128294235000000034e+00 2.921975468999999848e+01 6.711209105999999736e+01
1.140482184999999982e+00 2.930116415000000174e+01 6.748950958000000355e+01
1.084585424999999992e+00 2.881847142999999889e+01 6.508502959999999860e+01
1.090463874999999971e+00 2.888518286000000046e+01 6.543612670999999636e+01
1.106615305000000049e+00 2.889707326999999992e+01 6.534489440999999488e+01
1.114519355000000100e+00 2.889909124000000062e+01 6.527680968999999322e+01
1.096582654999999962e+00 2.881846379999999996e+01 6.496279144000000372e+01
1.126886604999999930e+00 2.929315709999999839e+01 6.757865142999999364e+01
1.139429334999999988e+00 2.897295141000000029e+01 6.547816466999999818e+01
1.124887704999999904e+00 2.898925923999999910e+01 6.572672271999999793e+01
1.111860515000000049e+00 2.889926290000000009e+01 6.530494690000000446e+01
1.107221844999999982e+00 2.911753225000000000e+01 6.669695282000000702e+01
1.111620185000000038e+00 2.885369253000000000e+01 6.502664185000000430e+01
1.097147225000000059e+00 2.887194966999999934e+01 6.528654480000000149e+01
1.125036474999999925e+00 2.924340962999999860e+01 6.729103087999999389e+01
1.117201094999999977e+00 2.954025030000000029e+01 6.919965363000000025e+01
1.081766365000000008e+00 2.938517141000000166e+01 6.860507964999999331e+01
1.088682415000000070e+00 2.962136221000000091e+01 6.998979187000000479e+01
1.097318884999999966e+00 2.942615269999999938e+01 6.869921112000000107e+01
1.083368544999999905e+00 2.935082388000000009e+01 6.837715149000000281e+01
1.136362314999999956e+00 2.963383244999999988e+01 6.958104706000000306e+01
1.088819744999999894e+00 2.917434072000000000e+01 6.723437500000000000e+01
1.081217054999999982e+00 2.890319204000000042e+01 6.564129638999999372e+01
1.122434855000000065e+00 2.960685872999999901e+01 6.955668640000000380e+01
1.132967234999999961e+00 2.964106130000000050e+01 6.966013336000000322e+01
1.095392464999999982e+00 2.924179983000000149e+01 6.758304596000000686e+01
1.148805854999999987e+00 2.973214482999999930e+01 7.005997467000000256e+01
1.086977244999999925e+00 2.926203680000000062e+01 6.779338837000000240e+01
1.081259015000000101e+00 2.939151143999999860e+01 6.864934540000000140e+01
1.098959205000000106e+00 2.955623388000000062e+01 6.948387146000000314e+01
1.081835034999999889e+00 2.929486607999999848e+01 6.804803467000000694e+01
1.107618575000000050e+00 2.927600241000000025e+01 6.766921234000000140e+01
1.066828015000000018e+00 2.953103017999999835e+01 6.968312072999999884e+01
1.069784405000000049e+00 2.885550070000000034e+01 6.547668457000000330e+01
1.072050334999999910e+00 2.882476186999999967e+01 6.525316619999999546e+01
1.048704384999999961e+00 2.916534185000000079e+01 6.770329284999999686e+01
1.035471204999999895e+00 2.875689840000000075e+01 6.538630675999999653e+01
1.059458014999999920e+00 2.896237706999999872e+01 6.629079437000000041e+01
1.045606854999999946e+00 2.911733007000000129e+01 6.745412444999999479e+01
1.056810615000000064e+00 2.879420995999999988e+01 6.529460143999999389e+01
1.067842724999999993e+00 2.903135061000000050e+01 6.658937072999999884e+01
1.046068435000000019e+00 2.896954489000000166e+01 6.653669739000000050e+01
1.038465734999999945e+00 2.902980184000000108e+01 6.702250671000000182e+01
1.060556655000000070e+00 2.900819540000000174e+01 6.655649567000000388e+01
1.058584455000000091e+00 2.881394720000000120e+01 6.538948059000000512e+01
1.046152355000000034e+00 2.869663381000000157e+01 6.485404205000000388e+01
1.023958445000000106e+00 2.866755055999999868e+01 6.500927733999999703e+01
1.063169714999999904e+00 2.936654805999999951e+01 6.872488402999999835e+01
1.046770334999999941e+00 2.890912770999999992e+01 6.615386963000000264e+01
1.047159434999999972e+00 2.942388676999999930e+01 6.931937408000000289e+01
1.048856975000000080e+00 2.937890004999999860e+01 6.901664734000000578e+01
1.028898475000000090e+00 2.918265676000000042e+01 6.810843658000000289e+01
1.052904365000000064e+00 2.936376715000000104e+01 6.886244202000000314e+01
1.027479414999999952e+00 2.946682119000000100e+01 6.988046264999999835e+01
1.048696754999999925e+00 2.954308080999999930e+01 7.003056334999999422e+01
1.061949014999999941e+00 2.956664037999999906e+01 6.997600554999999645e+01
1.019151925000000070e+00 2.917593527000000009e+01 6.821381377999999529e+01
1.044237375000000023e+00 2.946692037000000042e+01 6.962857056000000000e+01
1.035932784999999967e+00 2.923496008000000046e+01 6.832466125000000545e+01
1.063707594999999895e+00 2.951583241999999885e+01 6.963652802000000008e+01
1.058115244999999982e+00 2.939957189000000071e+01 6.900451660000000231e+01
1.030901194999999992e+00 2.936663961000000000e+01 6.921168518000000347e+01
1.028234724999999905e+00 2.932323979999999963e+01 6.898450470000000223e+01
1.047563795000000075e+00 2.938112783000000050e+01 6.904990386999999430e+01
1.018800974999999998e+00 2.949622105999999988e+01 7.019238280999999802e+01
1.030996564999999920e+00 2.921798848999999976e+01 6.829447174000000587e+01
1.046488045000000033e+00 2.948394155000000083e+01 6.969951629999999909e+01
1.014971014999999976e+00 2.866636418999999947e+01 6.513745880000000454e+01
1.001379255000000024e+00 2.908839941000000096e+01 6.801986694000000000e+01
1.012087104999999987e+00 2.901350546000000108e+01 6.732152557000000570e+01
1.012102365000000059e+00 2.912075949000000108e+01 6.798195647999999380e+01
9.981787250000000444e-01 2.929267644999999831e+01 6.934928893999999389e+01
1.006265874999999976e+00 2.930649328000000153e+01 6.925538634999999488e+01
1.010706185000000090e+00 2.919135427000000149e+01 6.844774628000000405e+01
1.011610275000000003e+00 2.935412741000000025e+01 6.943062591999999711e+01
9.995939750000000235e-01 2.935170889000000116e+01 6.968161010999999405e+01
1.010595565000000029e+00 2.902604055000000116e+01 6.743175506999999413e+01
9.948599350000000285e-01 2.905735539999999872e+01 6.797287749999999562e+01
1.008203745000000096e+00 2.860138845000000174e+01 6.486843109000000140e+01
9.981443850000000229e-01 2.897525548999999856e+01 6.739437866000000099e+01
9.955046149999999816e-01 2.896472311000000133e+01 6.738795471000000248e+01
9.941504049999999593e-01 2.922349309999999889e+01 6.901213837000000240e+01
9.984762649999999740e-01 2.893024969000000013e+01 6.710977936000000454e+01
9.873526150000000445e-01 2.934154271999999963e+01 6.992398833999999397e+01
9.893057349999999639e-01 2.886058569000000062e+01 6.689966583000000355e+01
9.905378849999999513e-01 2.900799702999999852e+01 6.776908111999999562e+01
9.867498850000000488e-01 2.873564671999999831e+01 6.621014404000000297e+01
9.788420249999999490e-01 2.886399220999999926e+01 6.724893950999999959e+01
9.891912950000000260e-01 2.855394888000000009e+01 6.501412200999999413e+01
9.726660249999999897e-01 2.866639470999999872e+01 6.629091644000000372e+01
9.721510450000000469e-01 2.864364767000000001e+01 6.617794800000000066e+01
9.702017349999999540e-01 2.862803029999999893e+01 6.618451690999999926e+01
9.754011649999999589e-01 2.867685460999999947e+01 6.621105957000000330e+01
9.675543349999999876e-01 2.862002324999999914e+01 6.627477263999999479e+01
9.716207949999999816e-01 2.930340337999999889e+01 7.027054596000000686e+01
9.645903150000000315e-01 2.837225485000000091e+01 6.510744476000000702e+01
9.660971149999999508e-01 2.859383534999999910e+01 6.623294067000000496e+01
9.644148350000000258e-01 2.836185598000000141e+01 6.507150269000000264e+01
9.644682449999999463e-01 2.920377111000000170e+01 7.024998474000000215e+01
6.019632575000000152e+00 2.967382955000000067e+01 7.294262695000000463e+01
6.032694105000000029e+00 2.962550497000000149e+01 7.294503783999999769e+01
5.806272745000000235e+00 2.965278005000000050e+01 7.307275391000000297e+01
1.046073746499999935e+01 2.926921987000000058e+01 7.041038512999999455e+01
5.819929365000000132e+00 2.977963400000000149e+01 7.303155517999999802e+01
6.027986764999999636e+00 2.976622151999999843e+01 7.291119385000000364e+01
1.051527237500000034e+01 2.931591557999999864e+01 7.036470031999999719e+01
1.046394944500000079e+01 2.938787221999999844e+01 7.037025452000000314e+01
7.289713145000000338e+00 2.971139669000000083e+01 7.216704559000000074e+01
9.250276805000000380e+00 2.953539801000000153e+01 7.104755402000000686e+01
7.084112404999999946e+00 2.970705557000000141e+01 7.229373169000000132e+01
1.030901551500000046e+01 2.945324850000000083e+01 7.043679810000000430e+01
9.799158334999999553e+00 2.950394200999999939e+01 7.072554015999999422e+01
9.136835335000000669e+00 2.957732916000000145e+01 7.109674834999999860e+01
7.319780585000000173e+00 2.973650503000000000e+01 7.213685608000000116e+01
9.112371684999999388e+00 2.957552481000000100e+01 7.111278534000000207e+01
7.304132704999999781e+00 2.973333883000000100e+01 7.214815520999999876e+01
9.438467264999999884e+00 2.956170034000000157e+01 7.091853333000000248e+01
5.980856185000000380e+00 2.990612172999999885e+01 7.287631989000000488e+01
6.055685285000000029e+00 2.987275457000000145e+01 7.284730530000000215e+01
6.585268254999999904e+00 2.980982351000000108e+01 7.255268859999999620e+01
9.404073954999999430e+00 2.959555196999999893e+01 7.092233276000000330e+01
9.538690804999999884e+00 2.957849644999999938e+01 7.084798431000000107e+01
7.845876934999999719e+00 2.971136617999999885e+01 7.182492064999999570e+01
1.044155335499999993e+01 2.958492422000000133e+01 7.027236938000000066e+01
7.263075115000000359e+00 2.981880330999999984e+01 7.212552642999999364e+01
8.554613355000000752e+00 2.970636511000000013e+01 7.138460541000000603e+01
9.246881724999999719e+00 2.965273046000000079e+01 7.098286437999999521e+01
9.276067975000000132e+00 2.965548086000000083e+01 7.096244049000000587e+01
9.944360975000000380e+00 2.966394186000000133e+01 7.053276825000000372e+01
9.555418254999999306e+00 2.962213659000000021e+01 7.080845641999999884e+01
8.992246865000000255e+00 2.967220830999999848e+01 7.113080596999999727e+01
9.937292335000000421e+00 2.964743565999999930e+01 7.054872131000000479e+01
1.027079224500000088e+01 2.961242436999999939e+01 7.036154175000000066e+01
9.359636545000000751e+00 2.966859579000000124e+01 7.090033721999999727e+01
9.944914105000000504e+00 2.958964681000000141e+01 7.058402252000000487e+01
1.022810196500000046e+01 2.958532094999999984e+01 7.040745544000000677e+01
7.713705305000000401e+00 2.977643347000000063e+01 7.186918640000000380e+01
5.970766304999999718e+00 2.992091131000000104e+01 7.287409972999999752e+01
8.672964334999999636e+00 2.967037343999999877e+01 7.133454894999999851e+01
9.831873175000000131e+00 2.960328816999999901e+01 7.064624023000000363e+01
9.860353704999999636e+00 2.965604924999999881e+01 7.059152222000000165e+01
1.022855973499999926e+01 2.965190266999999835e+01 7.036091614000000050e+01
6.530370955000000421e+00 2.989732121999999848e+01 7.253562164000000223e+01
8.043962714999999264e+00 2.984628057000000112e+01 7.161124420000000157e+01
7.434950115000000359e+00 2.986562109000000120e+01 7.198401642000000322e+01
7.815523384999999656e+00 2.986969519000000162e+01 7.173984527999999727e+01
7.227331405000000153e+00 2.990018987999999922e+01 7.209165955000000281e+01
7.923738714999999821e+00 2.982061148000000017e+01 7.170530700999999851e+01
9.253084425000000834e+00 2.971138524999999930e+01 7.093818665000000578e+01
8.874391794999999306e+00 2.973824452999999934e+01 7.115966797000000099e+01
6.064447645000000442e+00 2.993592595999999872e+01 7.280427550999999653e+01
6.206102614999999822e+00 3.002473974000000112e+01 7.265276337000000240e+01
7.105139014999999780e+00 2.993805074999999860e+01 7.214286040999999727e+01
7.176836255000000442e+00 2.984629201999999992e+01 7.216111755000000016e+01
6.630033734999999595e+00 2.993937826000000157e+01 7.244321442000000388e+01
7.242655035000000296e+00 2.990691136999999955e+01 7.207727814000000421e+01
7.361330275000000256e+00 2.983553838999999996e+01 7.205158996999999488e+01
6.612596755000000215e+00 2.998682545999999860e+01 7.242132567999999537e+01
9.984453444999999761e+00 2.976275014999999868e+01 7.041400908999999331e+01
1.035691666499999997e+01 2.965071249000000009e+01 7.027798461999999802e+01
8.813204054999999926e+00 2.984044790000000091e+01 7.111161040999999727e+01
8.951868295000000586e+00 2.982327413000000149e+01 7.103685760000000471e+01
9.246065375000000586e+00 2.977176427999999930e+01 7.089307404000000190e+01
9.296556714999999471e+00 2.978427267000000001e+01 7.084741974000000653e+01
9.760450605000000834e+00 2.978828954999999823e+01 7.053693389999999397e+01
9.920755624999999966e+00 2.972436284999999856e+01 7.049382018999999389e+01
8.306959394999999802e+00 2.988195561999999939e+01 7.140534209999999860e+01
7.942087414999999595e+00 2.989386891999999918e+01 7.163474273999999298e+01
7.989019635000000008e+00 2.990271901999999926e+01 7.159503936999999496e+01
9.239084484999999347e+00 2.978019094000000067e+01 7.088941192999999430e+01
1.030901551500000046e+01 2.969840383000000017e+01 7.026277161000000149e+01
8.320585494999999554e+00 2.983294057999999893e+01 7.144451141000000405e+01
1.032521271499999926e+01 2.967737722000000034e+01 7.027272797000000537e+01
9.982179885000000752e+00 2.970457983000000013e+01 7.047267150999999785e+01
8.722849135000000587e+00 2.988128804999999844e+01 7.113118744000000504e+01
6.818998575000000173e+00 3.005407094999999984e+01 7.221943665000000578e+01
6.687910314999999883e+00 3.009763479000000075e+01 7.226324463000000264e+01
7.615595104999999698e+00 2.998444127999999864e+01 7.176147460999999339e+01
6.252302405000000007e+00 3.010748051999999930e+01 7.254141998000000058e+01
7.414129495000000070e+00 3.002479695999999976e+01 7.185494232000000636e+01
8.527570965000000669e+00 2.991595601999999943e+01 7.122614287999999760e+01
7.219637155000000028e+00 2.997393942000000067e+01 7.203344726999999637e+01
6.782480474999999842e+00 3.007463217000000100e+01 7.222336577999999463e+01
8.949815985000000751e+00 2.988851689999999905e+01 7.097409820999999397e+01
6.478864905000000007e+00 3.002692937999999856e+01 7.247087097000000711e+01
6.597669845000000421e+00 3.001547765999999839e+01 7.240362548999999603e+01
7.451261754999999987e+00 2.996627950999999968e+01 7.188791655999999364e+01
8.637647864999999925e+00 2.991780615000000054e+01 7.115159606999999653e+01
7.888406995000000421e+00 2.995185612999999947e+01 7.161322783999999331e+01
5.825296644999999884e+00 3.006978369000000129e+01 7.286063384999999926e+01
6.302065135000000318e+00 3.007663488000000029e+01 7.253885651000000223e+01
9.125196694999999636e+00 2.986145162000000042e+01 7.088480377000000487e+01
1.025493073500000030e+01 2.977094411999999934e+01 7.022642516999999884e+01
9.778253794999999471e+00 2.984590672999999938e+01 7.045587157999999306e+01
7.436743025000000173e+00 3.004047917999999839e+01 7.182038115999999661e+01
6.031557324999999636e+00 3.016013861000000063e+01 7.263529968000000281e+01
9.387064215000000544e+00 2.988810490999999914e+01 7.067058563000000504e+01
9.352941754999999802e+00 2.985887289000000067e+01 7.073431395999999438e+01
8.990038155000000586e+00 2.990690756000000050e+01 7.092135620000000529e+01
6.103811505000000359e+00 3.015653371999999877e+01 7.258991240999999661e+01
9.973398445000000834e+00 2.984513615999999914e+01 7.032103729000000669e+01
8.267286535000000214e+00 2.997421788999999848e+01 7.133262634000000446e+01
8.060274364999999719e+00 3.000680303000000038e+01 7.143222045999999636e+01
9.045820474999999306e+00 2.992448949999999996e+01 7.085846709999999860e+01
7.345545054999999657e+00 3.006346655000000112e+01 7.185246277000000248e+01
7.867468115000000317e+00 2.999890279999999976e+01 7.157728577000000314e+01
6.213220835000000442e+00 3.014501333000000116e+01 7.252947998000000496e+01
7.512747055000000174e+00 3.003605032000000108e+01 7.177351378999999554e+01
6.653688664999999780e+00 3.014712666999999868e+01 7.221985626000000025e+01
6.750044104999999739e+00 3.016170645000000050e+01 7.213282012999999893e+01
