2.553390564500000082e+01 1.732610539999999943e+01 4.906953048999999822e+01
2.578378357500000106e+01 1.714088277999999832e+01 4.898024368000000095e+01
2.598608460499999850e+01 1.690381079000000142e+01 4.866949080999999921e+01
2.565522828499999974e+01 1.736034993999999898e+01 4.936607742000000343e+01
2.564544739500000148e+01 1.731850653000000051e+01 4.923519516000000351e+01
2.583358063500000057e+01 1.699403982000000113e+01 4.866154860999999698e+01
2.617663636500000024e+01 1.679906683000000100e+01 4.870131302000000062e+01
2.597946991499999925e+01 1.690665273999999840e+01 4.866620255000000128e+01
2.572331299500000057e+01 1.703515081000000109e+01 4.858972931000000273e+01
2.553916993500000032e+01 1.737141255999999956e+01 4.920235825000000318e+01
2.597528901500000131e+01 1.692806081999999890e+01 4.871782302999999814e+01
2.569464936500000007e+01 1.690177373999999944e+01 4.819898986999999835e+01
2.572614350499999958e+01 1.687213734999999915e+01 4.816824721999999781e+01
2.558560242500000115e+01 1.707628851000000125e+01 4.849055480999999901e+01
2.557022156500000065e+01 1.715035085999999964e+01 4.865893172999999905e+01
2.529399170499999983e+01 1.745496968999999865e+01 4.904368972999999698e+01
2.560643067499999859e+01 1.697628621999999865e+01 4.826325989000000050e+01
2.572704377499999850e+01 1.697448568000000080e+01 4.843297195000000244e+01
2.556230225499999875e+01 1.700261525999999890e+01 4.826725387999999839e+01
2.552933564499999974e+01 1.721719961000000154e+01 4.877189635999999950e+01
2.539411988499999850e+01 1.724062185000000014e+01 4.863673400999999785e+01
2.541046967500000164e+01 1.725206976000000125e+01 4.868983078000000120e+01
2.529040589499999925e+01 1.752023915999999915e+01 4.920650864000000269e+01
2.566931977500000173e+01 1.702176122999999919e+01 4.847119521999999847e+01
2.574874939500000082e+01 1.685098104000000063e+01 4.814645766999999665e+01
2.525404419499999875e+01 1.750988226000000125e+01 4.912727737000000161e+01
2.546489777500000073e+01 1.709978703999999894e+01 4.837655258000000202e+01
2.535530152500000156e+01 1.731358557000000076e+01 4.876841736000000083e+01
2.560359253500000065e+01 1.706376867000000175e+01 4.848431396000000149e+01
2.564741578499999974e+01 1.689243916999999939e+01 4.810670089999999988e+01
2.504805054499999883e+01 1.735588292999999993e+01 4.845698165999999674e+01
2.465221467499999974e+01 1.750079945999999964e+01 4.828588866999999851e+01
2.506333222499999991e+01 1.761010960999999853e+01 4.911907195999999942e+01
2.504207673499999842e+01 1.727084951000000146e+01 4.823436737000000107e+01
2.537527527499999991e+01 1.717174367999999873e+01 4.843610764000000302e+01
2.560717072499999958e+01 1.677305821999999935e+01 4.774473952999999682e+01
2.516915192500000131e+01 1.730623463999999956e+01 4.849592590000000314e+01
2.540868439500000164e+01 1.690298681000000158e+01 4.780340195000000136e+01
2.519910492500000032e+01 1.713004521999999952e+01 4.809205627000000050e+01
2.498786225499999958e+01 1.736271504999999848e+01 4.839262009000000120e+01
2.462043824499999900e+01 1.769875936000000038e+01 4.874220657000000045e+01
2.501964631499999925e+01 1.721806554999999861e+01 4.807079315000000008e+01
2.482066407499999983e+01 1.760423879000000014e+01 4.877522278000000000e+01
2.483644166499999884e+01 1.745795659999999927e+01 4.842759322999999938e+01
2.519625916500000073e+01 1.748294668000000129e+01 4.897849274000000008e+01
2.448931183499999875e+01 1.777777319000000134e+01 4.876376342999999736e+01
2.551792969499999941e+01 1.684512929999999997e+01 4.780555724999999967e+01
2.531452241499999900e+01 1.734374074999999849e+01 4.878766250999999698e+01
2.479969086499999875e+01 1.744569616000000067e+01 4.834683608999999649e+01
2.507154908500000090e+01 1.748880223999999828e+01 4.882417296999999934e+01
2.503190674500000057e+01 1.727282934000000125e+01 4.822556686000000070e+01
2.508391633500000140e+01 1.727121954000000059e+01 4.829204177999999814e+01
2.458732667499999991e+01 1.770892934999999824e+01 4.872298049999999847e+01
2.483696045499999983e+01 1.723590688999999898e+01 4.786811447000000186e+01
2.515791382500000140e+01 1.711851721000000026e+01 4.800712585000000132e+01
2.508421387499999966e+01 1.707794408999999902e+01 4.780483246000000008e+01
2.482618775499999941e+01 1.769063786999999977e+01 4.900068664999999868e+01
2.474024262500000049e+01 1.753686361000000105e+01 4.849621201000000070e+01
2.459287324499999983e+01 1.764284353000000038e+01 4.856377029000000078e+01
2.522609009499999999e+01 1.716233281999999960e+01 4.821009063999999711e+01
2.460463776499999966e+01 1.758442143999999985e+01 4.843233871000000335e+01
2.501983704499999916e+01 1.709225302000000113e+01 4.775366592000000310e+01
2.529373993500000140e+01 1.699177007999999844e+01 4.787152863000000025e+01
2.513131775500000131e+01 1.757703619000000117e+01 4.912781524999999760e+01
2.521716370500000082e+01 1.739506749999999968e+01 4.878514099000000215e+01
2.500991120500000164e+01 1.725311499000000026e+01 4.814601516999999831e+01
2.469514527500000156e+01 1.742322378000000072e+01 4.814837264999999888e+01
2.535932984500000131e+01 1.721090917000000076e+01 4.851330184999999773e+01
2.491424622499999941e+01 1.742490224999999882e+01 4.844969558999999748e+01
2.502416291500000156e+01 1.747361211999999853e+01 4.872160338999999851e+01
2.476298585500000016e+01 1.740618733999999890e+01 4.819738770000000017e+01
2.501815857500000106e+01 1.750808171999999985e+01 4.880042647999999872e+01
2.492914643499999983e+01 1.733029774999999972e+01 4.823122786999999789e+01
2.510295167499999991e+01 1.758965901999999915e+01 4.912118911999999682e+01
2.508489289499999941e+01 1.752268820000000105e+01 4.892776108000000335e+01
2.502333893500000173e+01 1.723275976000000043e+01 4.811287307999999996e+01
2.503078522499999892e+01 1.735276632000000063e+01 4.842572021000000149e+01
2.458380951499999867e+01 1.762562780000000018e+01 4.850803756999999905e+01
2.512622132499999950e+01 1.709223393999999985e+01 4.789784621999999814e+01
2.484286561500000090e+01 1.723286275999999972e+01 4.786842727999999880e+01
2.497623505500000007e+01 1.714584569999999886e+01 4.782973479999999711e+01
2.510218110499999966e+01 1.736931066000000001e+01 4.856426239000000322e+01
2.490204682499999933e+01 1.737886647999999923e+01 4.831700516000000079e+01
2.471338715499999950e+01 1.744987706999999943e+01 4.824037169999999719e+01
2.510725464500000115e+01 1.746746282000000150e+01 4.881875228999999905e+01
2.468059601499999900e+01 1.751493672999999873e+01 4.836001968000000062e+01
2.523085084499999908e+01 1.747668675999999977e+01 4.900960922000000153e+01
2.495882477500000007e+01 1.732445745000000059e+01 4.825672531000000021e+01
2.558025422500000090e+01 1.677733067999999861e+01 4.771928024000000335e+01
2.505819764499999991e+01 1.694305257999999981e+01 4.743442154000000244e+01
2.518850770499999925e+01 1.693930273000000142e+01 4.759873962000000347e+01
2.515351166499999991e+01 1.699296408000000014e+01 4.768507385000000198e+01
2.531604828500000082e+01 1.690825109000000026e+01 4.769170761000000169e+01
2.537573304500000049e+01 1.686008672999999902e+01 4.765187072999999884e+01
2.519627442499999859e+01 1.691482763000000134e+01 4.754843521000000095e+01
2.495649018499999983e+01 1.707966452000000146e+01 4.763743591000000066e+01
2.530574860500000156e+01 1.684240941999999919e+01 4.751482773000000037e+01
2.528878846499999966e+01 1.692002324999999985e+01 4.768456267999999909e+01
2.499310364500000148e+01 1.701324301000000006e+01 4.752161406999999826e+01
2.542283692499999859e+01 1.682296209000000076e+01 4.762263870000000310e+01
2.523135438499999950e+01 1.678302984000000109e+01 4.726856613000000351e+01
2.592189850500000148e+01 1.520244055000000039e+01 4.457875061000000017e+01
2.579914918500000098e+01 1.540366582999999956e+01 4.487049102999999661e+01
2.634627595499999941e+01 1.512814168999999964e+01 4.496088409000000041e+01
2.611208405500000040e+01 1.506336813000000063e+01 4.451326751999999942e+01
2.572802796499999900e+01 1.545553808000000018e+01 4.489468002000000268e+01
2.618188538500000107e+01 1.511444310999999985e+01 4.471778107000000091e+01
2.592311921499999983e+01 1.535085134000000018e+01 4.491249847000000273e+01
2.607705750499999908e+01 1.517734364999999919e+01 4.472310637999999727e+01
2.580454316499999834e+01 1.532534627999999977e+01 4.470217132999999876e+01
2.571754517500000148e+01 1.546180563000000063e+01 4.489515686000000017e+01
2.600945344499999834e+01 1.521021490000000043e+01 4.470930480999999901e+01
2.634925904500000016e+01 1.493841008999999964e+01 4.455421447999999884e+01
2.656634583499999991e+01 1.495056371999999989e+01 4.485684967000000256e+01
2.634617676499999916e+01 1.498231726000000030e+01 4.464105988000000025e+01
2.659175934499999983e+01 1.496048955999999919e+01 4.490985107000000198e+01
2.637889924499999950e+01 1.496832112999999964e+01 4.465395354999999711e+01
2.649626221500000156e+01 1.488024358999999919e+01 4.462183762000000087e+01
2.646009125499999826e+01 1.494401387999999997e+01 4.470746994000000285e+01
2.640187134499999999e+01 1.498317937999999927e+01 4.471404265999999694e+01
2.644857850500000040e+01 1.491850117999999981e+01 4.464000320000000244e+01
2.658346619499999974e+01 1.491688375000000022e+01 4.480906677000000116e+01
2.726965394500000173e+01 1.461149052999999931e+01 4.519370650999999839e+01
2.730959382500000032e+01 1.461660222999999981e+01 4.526729201999999930e+01
2.702613892500000148e+01 1.486588124999999927e+01 4.537524032999999690e+01
2.717106690499999999e+01 1.480624609000000014e+01 4.546971511999999649e+01
2.693330445499999826e+01 1.492630605999999993e+01 4.536377715999999793e+01
2.731787934500000148e+01 1.453401022000000076e+01 4.509793854000000124e+01
2.766154542499999991e+01 1.488443211999999960e+01 4.640744019000000264e+01
2.749581971499999966e+01 1.468266133999999923e+01 4.570360947000000351e+01
2.693450226499999900e+01 1.494046239999999948e+01 4.539687347000000273e+01
2.716180481499999999e+01 1.477976065000000006e+01 4.539683150999999839e+01
2.710284485500000073e+01 1.478362875000000010e+01 4.531337737999999860e+01
2.737647309500000148e+01 1.451073674999999952e+01 4.513798904000000078e+01
2.736092438500000057e+01 1.469373921999999943e+01 4.551762009000000120e+01
2.751790680499999908e+01 1.450691823999999919e+01 4.535021972999999917e+01
2.740874543500000016e+01 1.449278477999999915e+01 4.514872359999999674e+01
2.749868836499999958e+01 1.448431996999999960e+01 4.527035141000000351e+01
2.721041932500000016e+01 1.484773855000000076e+01 4.562268828999999926e+01
2.735170044499999875e+01 1.465600805000000051e+01 4.541996001999999777e+01
2.725315156499999958e+01 1.485993032000000014e+01 4.571625900000000087e+01
2.740868439500000164e+01 1.477744131000000039e+01 4.577684401999999864e+01
2.746634736500000074e+01 1.450489645000000039e+01 4.526531219000000306e+01
2.669680085499999933e+01 1.497053365999999919e+01 4.509241867000000070e+01
2.728041138500000073e+01 1.462997273999999948e+01 4.525127410999999711e+01
2.745758118499999867e+01 1.478127508000000034e+01 4.586157990000000240e+01
2.675284638500000156e+01 1.480117253999999960e+01 4.480607223999999889e+01
2.682959046499999900e+01 1.479967717999999977e+01 4.492251205000000169e+01
2.683242096500000073e+01 1.484881810999999985e+01 4.503536223999999777e+01
2.717288270499999925e+01 1.489424733999999972e+01 4.566676712000000293e+01
2.762742676499999916e+01 1.454675894000000014e+01 4.560899734000000194e+01
2.723490204499999834e+01 1.456508473999999964e+01 4.503707503999999773e+01
2.739299836500000040e+01 1.456678227999999997e+01 4.528746796000000074e+01
2.712744965499999950e+01 1.482189778999999952e+01 4.543620299999999901e+01
2.678733887499999966e+01 1.497719793000000088e+01 4.524837112000000161e+01
2.756556000499999826e+01 1.466343907999999985e+01 4.576998137999999727e+01
2.755217042499999991e+01 1.451036672000000038e+01 4.541127396000000260e+01
2.706008973499999826e+01 1.478347235000000026e+01 4.524633407999999690e+01
2.754961457499999966e+01 1.450036839999999927e+01 4.538523101999999909e+01
2.689300599499999933e+01 1.496871022999999923e+01 4.539448165999999674e+01
2.729895081500000131e+01 1.492479924999999952e+01 4.593086624000000029e+01
2.740703644499999925e+01 1.476096944999999927e+01 4.573792267000000322e+01
2.742140259499999999e+01 1.467299107999999919e+01 4.556617736999999835e+01
2.718773713499999900e+01 1.476302938000000076e+01 4.540035248000000223e+01
2.686260285499999867e+01 1.480796269999999915e+01 4.499229050000000285e+01
2.697112336500000040e+01 1.470322256000000039e+01 4.493043137000000087e+01
2.680794587500000148e+01 1.490249853000000080e+01 4.511565398999999843e+01
2.669281830499999941e+01 1.486796788999999919e+01 4.485984802000000116e+01
2.705712952500000057e+01 1.494653920999999919e+01 4.560157775999999785e+01
2.744255127499999958e+01 1.461126546999999931e+01 4.546294403000000273e+01
2.784774842499999892e+01 1.457594137000000067e+01 4.602075194999999752e+01
2.768986573500000148e+01 1.462976674999999993e+01 4.589036941999999897e+01
2.800719513499999991e+01 1.421446446999999935e+01 4.547513962000000021e+01
2.812302460500000123e+01 1.446324377000000005e+01 4.620652390000000054e+01
2.793315186499999925e+01 1.460750799000000022e+01 4.622511292000000083e+01
2.769052949499999983e+01 1.485075978999999968e+01 4.637877654999999777e+01
2.841677155500000040e+01 1.412005453000000088e+01 4.591312789999999922e+01
2.848623719500000107e+01 1.408832388000000080e+01 4.595273590000000041e+01
2.791377320499999826e+01 1.432500676999999989e+01 4.557154464999999988e+01
2.782261719499999941e+01 1.449286488999999989e+01 4.579790496999999760e+01
2.770872559500000065e+01 1.451568823000000030e+01 4.566855620999999843e+01
2.856793274500000024e+01 1.410895376000000034e+01 4.612712097000000000e+01
2.841901459500000016e+01 1.421159201000000039e+01 4.611851882999999930e+01
2.775280823499999983e+01 1.470050267999999960e+01 4.614566803000000306e+01
2.798259034499999842e+01 1.458380728000000026e+01 4.625083159999999793e+01
2.783203950500000090e+01 1.460297231999999923e+01 4.605558777000000248e+01
2.874297394499999925e+01 1.393108969000000030e+01 4.601103973000000025e+01
2.839740052499999834e+01 1.421642141000000059e+01 4.609507751000000297e+01
2.819915070500000098e+01 1.418649893000000084e+01 4.571632003999999938e+01
2.811039033500000173e+01 1.453343800999999935e+01 4.634139633000000202e+01
2.865283265500000098e+01 1.403164128999999960e+01 4.609057616999999851e+01
2.835086121499999834e+01 1.426160269000000014e+01 4.612129593000000227e+01
2.821340241500000090e+01 1.433343724999999935e+01 4.606283569000000000e+01
2.773002686499999925e+01 1.461016301999999989e+01 4.591049956999999893e+01
2.885533204500000082e+01 1.388759068999999968e+01 4.609238051999999897e+01
2.820237031499999958e+01 1.413448552999999919e+01 4.560670471000000248e+01
2.767536988499999850e+01 1.448131399000000030e+01 4.554013823999999744e+01
2.780438294500000040e+01 1.466955785999999939e+01 4.615879822000000132e+01
2.816026368500000032e+01 1.429316548999999981e+01 4.589019774999999868e+01
2.871541657499999900e+01 1.398281698000000084e+01 4.608163833999999781e+01
2.815532746499999917e+01 1.433284978999999915e+01 4.596992874000000029e+01
2.771190705500000107e+01 1.466511372999999985e+01 4.600309752999999802e+01
2.776789918500000098e+01 1.449877386000000001e+01 4.572460556000000054e+01
2.817646088500000090e+01 1.445467595999999944e+01 4.627192688000000231e+01
2.777552094500000024e+01 1.479263525000000001e+01 4.638468551999999789e+01
2.773163666499999991e+01 1.444094304999999956e+01 4.553987122000000198e+01
2.836834015499999850e+01 1.427371815999999960e+01 4.617559813999999818e+01
2.826696839499999925e+01 1.429487448000000072e+01 4.606230544999999665e+01
2.857383027499999884e+01 1.410235815000000059e+01 4.612188339000000070e+01
2.856438508500000140e+01 1.404485159000000039e+01 4.598015594000000306e+01
2.777491059500000148e+01 1.433042745000000018e+01 4.536441039999999703e+01
2.839498200499999925e+01 1.419845418999999964e+01 4.605163192999999922e+01
2.812221589500000007e+01 1.451273184000000072e+01 4.631439590000000095e+01
2.781984009499999999e+01 1.436633138999999915e+01 4.551446914999999649e+01
2.827646699499999983e+01 1.434840993999999981e+01 4.619535065000000174e+01
2.907457032499999983e+01 1.397340611999999993e+01 4.660253142999999909e+01
2.873703827499999974e+01 1.440025548999999927e+01 4.699311828999999818e+01
2.795739045499999875e+01 1.473676518999999985e+01 4.653951262999999727e+01
2.863033356500000082e+01 1.413336400999999931e+01 4.627772522000000066e+01
2.906481995500000082e+01 1.396042088999999997e+01 4.656096648999999843e+01
2.917855897500000140e+01 1.397556143000000084e+01 4.676123809999999992e+01
2.848180451500000032e+01 1.445667485999999968e+01 4.673242568999999946e+01
2.893535676500000164e+01 1.387832479000000063e+01 4.619762038999999731e+01
2.897914948500000065e+01 1.419729071000000076e+01 4.692841720999999922e+01
2.826575532500000065e+01 1.461971501999999923e+01 4.675241851999999909e+01
2.891210236499999908e+01 1.401593618000000063e+01 4.645039749000000029e+01
2.833549561499999925e+01 1.438844899999999960e+01 4.637303543000000161e+01
2.924345460500000016e+01 1.384285955000000001e+01 4.658043288999999731e+01
2.896314301499999999e+01 1.405301885000000084e+01 4.660350799999999793e+01
2.879597535499999950e+01 1.419621114999999989e+01 4.665455245999999789e+01
2.869184937500000032e+01 1.419252995999999989e+01 4.649245833999999888e+01
2.801417603499999842e+01 1.466734152000000080e+01 4.647877883999999682e+01
2.936907258500000140e+01 1.369694357000000018e+01 4.646209716999999983e+01
2.926113953500000164e+01 1.388506918000000034e+01 4.669477462999999773e+01
2.872992768499999983e+01 1.410307530999999948e+01 4.636217880000000235e+01
2.909502472499999826e+01 1.395722798999999981e+01 4.659909821000000107e+01
2.933114686500000090e+01 1.381815938999999993e+01 4.665890502999999967e+01
2.889038910500000057e+01 1.412930899000000018e+01 4.665488814999999789e+01
2.870763459499999826e+01 1.439471655000000005e+01 4.693795012999999727e+01
2.933506074499999983e+01 1.371816090999999993e+01 4.645595931999999806e+01
2.846568360499999883e+01 1.454328375000000051e+01 4.688932419000000351e+01
2.844223847499999991e+01 1.427342061999999956e+01 4.629119492000000236e+01
2.909410920499999875e+01 1.380119924000000076e+01 4.627200699000000128e+01
2.919838776499999966e+01 1.374380711999999960e+01 4.630682372999999785e+01
2.882534852499999900e+01 1.430696707000000067e+01 4.692930602999999934e+01
2.906974854499999950e+01 1.398107747999999972e+01 4.661139296999999715e+01
2.850357880500000007e+01 1.448358754999999931e+01 4.682088851999999690e+01
2.912764802499999917e+01 1.404734258999999952e+01 4.683559035999999764e+01
2.835578217500000164e+01 1.456688527999999927e+01 4.677561950999999851e+01
2.909043183500000040e+01 1.386898640999999976e+01 4.640807723999999723e+01
2.818522706499999941e+01 1.451567677999999972e+01 4.641580962999999826e+01
2.914688172500000007e+01 1.395676641000000018e+01 4.667503356999999653e+01
2.906945099500000040e+01 1.411295156000000084e+01 4.688626479999999930e+01
2.851389374500000073e+01 1.435509710000000005e+01 4.656795501999999942e+01
2.865007844499999834e+01 1.437280110999999927e+01 4.680685806000000326e+01
2.849009766500000040e+01 1.440201788000000072e+01 4.663061904999999996e+01
2.849106659499999950e+01 1.436971501999999923e+01 4.656461715999999740e+01
2.885468354500000032e+01 1.410546330999999931e+01 4.655214690999999760e+01
2.861587586499999958e+01 1.430844717000000088e+01 4.662179565000000281e+01
2.943368592499999892e+01 1.359969167999999939e+01 4.635488509999999707e+01
2.895323243500000032e+01 1.405277470999999956e+01 4.658830260999999950e+01
2.923622193499999966e+01 1.391699056000000034e+01 4.672447585999999831e+01
2.889695038500000024e+01 1.404004124999999981e+01 4.647825241000000318e+01
2.802658143500000065e+01 1.469470815999999935e+01 4.655431365999999826e+01
2.890504517500000148e+01 1.422134237000000034e+01 4.686874389999999835e+01
2.922171082499999883e+01 1.413017491999999997e+01 4.720508193999999946e+01
2.917999329499999916e+01 1.407181004999999985e+01 4.698847197999999992e+01
2.961860718499999834e+01 1.353928976000000084e+01 4.651498031999999938e+01
2.960041108500000107e+01 1.352285604000000063e+01 4.644216156000000240e+01
2.952636780499999958e+01 1.379250936000000038e+01 4.695354079999999897e+01
2.944698395500000032e+01 1.391956929999999915e+01 4.711286545000000103e+01
2.931150116499999925e+01 1.388850622000000001e+01 4.678977584999999806e+01
2.960439362500000016e+01 1.383171300999999964e+01 4.719076538000000198e+01
2.955941071499999850e+01 1.378982382000000051e+01 4.700773620999999736e+01
2.943886628499999958e+01 1.386929158999999956e+01 4.697730254999999744e+01
2.907133545499999983e+01 1.416755133000000022e+01 4.701892852999999661e+01
2.926696076500000032e+01 1.406718663999999919e+01 4.713692473999999777e+01
2.926273408500000173e+01 1.404804067000000067e+01 4.708322524999999814e+01
2.940229096499999883e+01 1.380962210000000034e+01 4.676699448000000103e+01
2.945870270500000032e+01 1.395086889000000063e+01 4.720949173000000343e+01
2.924784150500000024e+01 1.416618947999999989e+01 4.733946990999999826e+01
2.962283387500000131e+01 1.372261647999999923e+01 4.696276473999999723e+01
2.964345612500000016e+01 1.360770635000000084e+01 4.672479630000000128e+01
2.965944733499999941e+01 1.350150900000000043e+01 4.649924468999999760e+01
2.954396119500000140e+01 1.383691624999999981e+01 4.709241485999999810e+01
2.904316010499999834e+01 1.425730352000000067e+01 4.718267821999999967e+01
2.926350464500000115e+01 1.409953909000000039e+01 4.720821380999999661e+01
2.980996003499999958e+01 1.340442114000000018e+01 4.654233551000000091e+01
2.927902283499999925e+01 1.396130971999999915e+01 4.690493392999999855e+01
2.933458771500000140e+01 1.392888098000000063e+01 4.692903519000000045e+01
2.897884430499999908e+01 1.424672918000000088e+01 4.703929138000000165e+01
2.949225678499999859e+01 1.372492818999999997e+01 4.672875977000000347e+01
2.975447907499999900e+01 1.344809178999999943e+01 4.654537581999999674e+01
2.980951752500000040e+01 1.350250845000000055e+01 4.677693939000000256e+01
2.909119477500000173e+01 1.420504597999999952e+01 4.714535521999999901e+01
3.499124207500000239e+01 1.187167578000000034e+01 5.404846191000000033e+01
3.524079194499999801e+01 1.136624746000000030e+01 5.328729247999999785e+01
3.531287446500000016e+01 1.117711858999999919e+01 5.293880080999999649e+01
3.524160828499999809e+01 1.124808340000000051e+01 5.293740463000000318e+01
3.545283570499999826e+01 1.093034581999999943e+01 5.262129973999999777e+01
3.484153809499999710e+01 1.187613896999999952e+01 5.361437988000000132e+01
3.524455323499999793e+01 1.140638951999999939e+01 5.341820144999999798e+01
3.506797852500000090e+01 1.155699758000000088e+01 5.333956528000000219e+01
3.504058899500000024e+01 1.180736761000000001e+01 5.400419998000000277e+01
3.486070313500000140e+01 1.205861883000000034e+01 5.421572875999999752e+01
3.507322754500000173e+01 1.170193319000000010e+01 5.378738785000000178e+01
3.475207581499999776e+01 1.206685476000000001e+01 5.391565703999999926e+01
3.516754212499999710e+01 1.156040029000000047e+01 5.364726257000000231e+01
3.528989472500000346e+01 1.122457342000000047e+01 5.301161194000000165e+01
3.480178132500000032e+01 1.198444203999999935e+01 5.381846999999999781e+01
3.529566254499999900e+01 1.124711064999999977e+01 5.309603500000000054e+01
3.487928071500000016e+01 1.199265508999999952e+01 5.407457352000000128e+01
3.495884003500000148e+01 1.182955388999999968e+01 5.382605362000000326e+01
3.513198151499999966e+01 1.146891240999999972e+01 5.326819610999999810e+01
3.467660584499999743e+01 1.217422705000000072e+01 5.401024246000000062e+01
3.495339264500000098e+01 1.192379597999999952e+01 5.409074782999999798e+01
3.512181916499999801e+01 1.146939687999999968e+01 5.323929214000000343e+01
3.481659760499999834e+01 1.207872227999999915e+01 5.414386368000000260e+01
3.492168488499999768e+01 1.182975225000000030e+01 5.371560286999999789e+01
3.536709656499999710e+01 1.117896490000000043e+01 5.310636902000000248e+01
3.500982728500000007e+01 1.161886815999999989e+01 5.335023498999999703e+01
3.514638581500000214e+01 1.149491339000000067e+01 5.338878249999999781e+01
3.494848694499999908e+01 1.181825094000000043e+01 5.376140213000000045e+01
3.504435792499999991e+01 1.164724187999999927e+01 5.353804016000000132e+01
3.523246827500000222e+01 1.135830907999999972e+01 5.323875045999999855e+01
3.499523987500000288e+01 1.183057623000000014e+01 5.393786621000000281e+01
3.522368683500000230e+01 1.131768255000000067e+01 5.309138106999999707e+01
3.500044312499999677e+01 1.188519888000000080e+01 5.411629105000000095e+01
3.475194611500000264e+01 1.206521444000000010e+01 5.391038131999999905e+01
3.498035492500000032e+01 1.175427084000000022e+01 5.366588973999999723e+01
3.461599030499999685e+01 1.226207952000000034e+01 5.409179306000000054e+01
3.475474610500000239e+01 1.222346716000000022e+01 5.439872359999999674e+01
3.484429230500000330e+01 1.209585408999999956e+01 5.427895737000000054e+01
3.485955109500000049e+01 1.215835028000000051e+01 5.451924515000000326e+01
3.442875733500000024e+01 1.260818700999999997e+01 5.464702224999999913e+01
3.442610230500000057e+01 1.268137197000000072e+01 5.487962341000000066e+01
3.429158845500000297e+01 1.275919561000000080e+01 5.471737671000000347e+01
3.429940857500000106e+01 1.276452856000000047e+01 5.475928497000000306e+01
3.454630341499999702e+01 1.237475423999999968e+01 5.424424361999999888e+01
3.465945496500000189e+01 1.232464056000000063e+01 5.443124771000000095e+01
3.471598877499999958e+01 1.229561452999999993e+01 5.451155853000000207e+01
3.446327271500000222e+01 1.265162495999999948e+01 5.489733886999999868e+01
3.467937531500000148e+01 1.228070287999999977e+01 5.434857940999999926e+01
3.457611908500000197e+01 1.229515295000000030e+01 5.407497024999999979e+01
3.423362031500000313e+01 1.283645467999999923e+01 5.479138183999999967e+01
3.461024537499999809e+01 1.241467886000000043e+01 5.457453536999999955e+01
3.449509491500000280e+01 1.251824026000000067e+01 5.455723952999999682e+01
3.436169495499999726e+01 1.266493443999999968e+01 5.462518311000000182e+01
3.477235474500000123e+01 1.238866261999999985e+01 5.499313354000000231e+01
3.451738038500000272e+01 1.253811102000000055e+01 5.469198226999999690e+01
3.458887543499999850e+01 1.250962286000000034e+01 5.482059096999999781e+01
3.432459321500000016e+01 1.273471669999999989e+01 5.473947906000000074e+01
3.474231019500000173e+01 1.245314626999999952e+01 5.511194229000000178e+01
3.458769288500000272e+01 1.252826147000000034e+01 5.487826156999999938e+01
3.445401063500000305e+01 1.253246908000000026e+01 5.447631836000000050e+01
3.463095154500000206e+01 1.248716574000000001e+01 5.487755202999999682e+01
3.470073762500000214e+01 1.233414297000000026e+01 5.459094238000000132e+01
3.458764710500000206e+01 1.228143530000000005e+01 5.406568908999999934e+01
3.450328888500000346e+01 1.241763143000000014e+01 5.425161362000000054e+01
3.323104157499999900e+01 1.314123372999999972e+01 5.306981659000000207e+01
3.345212616500000280e+01 1.320022421000000001e+01 5.381265640000000161e+01
3.296091523500000164e+01 1.328260258999999976e+01 5.279466247999999950e+01
3.401672425499999974e+01 1.280143956999999943e+01 5.408166122000000087e+01
3.277098908499999652e+01 1.345775060999999972e+01 5.282566832999999917e+01
3.256099000500000074e+01 1.353517369999999964e+01 5.251549911000000037e+01
3.346087708499999991e+01 1.298711995999999935e+01 5.320369720000000058e+01
3.391365876500000098e+01 1.298907308000000072e+01 5.437279892000000103e+01
3.329117646499999950e+01 1.335050801999999948e+01 5.384439849999999694e+01
3.315197815500000189e+01 1.336285237999999964e+01 5.352332686999999822e+01
3.345670380499999652e+01 1.303315953999999977e+01 5.332937240999999773e+01
3.354473176500000164e+01 1.293770437000000051e+01 5.327270888999999698e+01
3.358783783500000197e+01 1.290127020000000080e+01 5.327551651000000277e+01
3.315013947500000313e+01 1.322077016999999977e+01 5.309761429000000277e+01
3.392318787500000354e+01 1.283674077999999952e+01 5.394591141000000079e+01
3.290332856500000247e+01 1.354194479000000051e+01 5.341513443000000194e+01
3.348578705500000297e+01 1.322482137999999985e+01 5.397198104999999657e+01
3.298472657500000338e+01 1.331194525000000084e+01 5.294280243000000041e+01
3.365181794499999768e+01 1.298782186000000038e+01 5.369634246999999760e+01
3.240439667500000098e+01 1.360069494000000034e+01 5.230732727000000182e+01
3.329248108499999859e+01 1.326728276999999956e+01 5.360116577000000149e+01
3.340025391500000040e+01 1.322228078999999923e+01 5.374470519999999851e+01
3.342174592500000330e+01 1.313845281000000043e+01 5.355153656000000240e+01
3.299122681499999743e+01 1.356184606000000059e+01 5.369994353999999959e+01
3.276313080500000297e+01 1.363686971999999997e+01 5.333620833999999888e+01
3.304524293499999743e+01 1.320393971999999927e+01 5.277825545999999690e+01
3.325985779500000206e+01 1.338013677000000001e+01 5.385172271999999793e+01
3.331089844499999941e+01 1.341554097999999939e+01 5.408775710999999831e+01
3.271118989499999685e+01 1.362330464999999968e+01 5.316255188000000231e+01
3.354676880499999925e+01 1.310640936000000067e+01 5.377782822000000351e+01
3.322383942500000131e+01 1.312464360999999968e+01 5.300215149000000281e+01
3.391378083499999718e+01 1.296745901000000067e+01 5.430906677000000116e+01
3.351892151500000239e+01 1.295585469999999972e+01 5.326017379999999690e+01
3.279604401499999966e+01 1.357198170999999931e+01 5.322850036999999901e+01
3.268442597500000346e+01 1.367671804000000080e+01 5.325205231000000339e+01
3.228151002500000288e+01 1.382771901999999997e+01 5.266427611999999669e+01
3.315481629500000338e+01 1.342391042999999939e+01 5.371154022000000339e+01
3.327919068500000321e+01 1.309750204000000018e+01 5.306394957999999917e+01
3.250259461499999958e+01 1.361120061999999997e+01 5.259074019999999905e+01
3.316450562499999677e+01 1.318475942000000067e+01 5.302782822000000351e+01
3.259520020499999760e+01 1.371926335999999935e+01 5.314886475000000132e+01
3.319412293500000288e+01 1.345593861999999952e+01 5.390742874000000029e+01
3.328758301500000272e+01 1.311763982999999989e+01 5.314517593000000062e+01
3.366047730500000057e+01 1.292160252999999948e+01 5.352239226999999744e+01
3.329281678499999941e+01 1.340357045999999919e+01 5.400582886000000116e+01
3.285376801499999999e+01 1.342015295000000030e+01 5.292694091999999983e+01
3.293985047500000007e+01 1.339373617000000039e+01 5.306983566000000252e+01
3.255364289500000297e+01 1.385174780000000005e+01 5.343465041999999698e+01
3.376658692499999859e+01 1.292465428999999943e+01 5.380406570000000244e+01
3.341494813500000305e+01 1.329665211999999919e+01 5.400282668999999913e+01
3.293017640499999743e+01 1.343649893000000084e+01 5.317168808000000269e+01
3.283931031499999875e+01 1.345259313000000034e+01 5.298593139999999835e+01
3.385752930499999991e+01 1.269664221000000026e+01 5.336210632000000231e+01
3.254747071500000288e+01 1.380510167999999993e+01 5.328057098000000025e+01
3.326434388500000239e+01 1.312254553000000001e+01 5.310000991999999798e+01
3.323629822499999875e+01 1.336187581999999985e+01 5.373707962000000293e+01
3.311090912499999916e+01 1.335341863000000018e+01 5.338985825000000318e+01
3.327764191499999669e+01 1.335489873999999944e+01 5.382262421000000074e+01
3.402194275499999776e+01 1.268522100000000030e+01 5.375068664999999868e+01
3.273223176500000164e+01 1.375799780000000005e+01 5.361569595000000277e+01
3.349649109500000321e+01 1.325601797000000026e+01 5.409194564999999955e+01
3.404973664500000297e+01 1.277517156000000043e+01 5.408863831000000033e+01
3.355258240500000255e+01 1.311203985000000038e+01 5.380944824000000182e+01
3.325078644500000280e+01 1.322251347999999993e+01 5.336137389999999669e+01
3.375846161500000164e+01 1.300200491000000014e+01 5.401236724999999694e+01
3.329895081499999776e+01 1.316177206000000055e+01 5.330516433999999748e+01
3.281646027499999718e+01 1.354804449000000055e+01 5.321002196999999967e+01
3.280072846499999883e+01 1.355333547000000038e+01 5.318527985000000058e+01
3.266554322500000040e+01 1.344335775000000055e+01 5.251207732999999678e+01
3.247251191499999834e+01 1.382501058000000072e+01 5.314696121000000062e+01
3.284104981499999809e+01 1.374614172000000067e+01 5.386016845999999703e+01
3.283245911499999892e+01 1.368674687999999939e+01 5.366207886000000116e+01
3.323738160500000305e+01 1.336049107999999919e+01 5.373575973999999889e+01
3.251608338500000173e+01 1.362426214000000080e+01 5.266409682999999831e+01
3.273699250500000346e+01 1.356551961999999989e+01 5.305762863000000351e+01
3.231398072500000040e+01 1.381321553999999985e+01 5.270471191000000033e+01
3.283622803499999776e+01 1.353597859999999997e+01 5.322507095000000277e+01
3.268454804499999966e+01 1.357893591000000022e+01 5.296262360000000058e+01
3.369283356500000082e+01 1.318472509000000059e+01 5.438515091000000012e+01
3.298740449499999983e+01 1.334992437000000010e+01 5.306219863999999831e+01
3.353213563500000305e+01 1.323503331999999943e+01 5.412132644999999798e+01
3.338742127500000123e+01 1.322878103000000038e+01 5.373099899000000335e+01
3.249019684499999983e+01 1.379746465999999927e+01 5.311079025000000087e+01
3.221081605500000222e+01 1.374868994000000022e+01 5.224848175000000339e+01
3.264221253499999875e+01 1.358627156999999919e+01 5.287559128000000186e+01
3.380969300499999974e+01 1.282462149000000018e+01 5.361840819999999752e+01
3.307804169500000313e+01 1.340761022000000047e+01 5.346599960000000351e+01
3.401032319499999801e+01 1.283101491999999944e+01 5.415281677000000116e+01
3.375074067500000297e+01 1.306663731999999989e+01 5.418403624999999835e+01
3.257722535500000305e+01 1.358069829999999989e+01 5.269211959999999806e+01
3.251683106499999809e+01 1.386009435999999972e+01 5.336479568000000029e+01
3.404746308499999685e+01 1.274513845000000067e+01 5.399380874999999946e+01
3.303925385499999834e+01 1.349401311999999997e+01 5.362234878999999665e+01
3.293973603500000280e+01 1.327466802000000001e+01 5.271674346999999727e+01
3.221959748500000131e+01 1.372229985999999968e+01 5.219284438999999765e+01
3.315974488500000206e+01 1.334734564000000034e+01 5.349734497000000033e+01
3.312563386499999751e+01 1.343562917999999939e+01 5.367129134999999707e+01
3.243779053499999776e+01 1.364301900999999972e+01 5.251853179999999810e+01
3.282838502500000288e+01 1.339867238999999977e+01 5.279806519000000264e+01
3.377135529499999933e+01 1.305941228999999915e+01 5.421560286999999789e+01
3.308058228499999842e+01 1.349001913000000030e+01 5.371669005999999769e+01
3.310648408499999817e+01 1.324636296999999985e+01 5.306129837000000293e+01
3.406224122500000107e+01 1.274449758000000088e+01 5.402987671000000347e+01
3.266014924499999950e+01 1.382462911000000005e+01 5.362792206000000306e+01
3.266260590499999950e+01 1.376611929000000067e+01 5.346089554000000277e+01
3.273641266500000313e+01 1.344059209999999993e+01 5.268598556999999971e+01
3.385221161500000164e+01 1.306464605000000034e+01 5.443885039999999975e+01
3.248459687500000115e+01 1.374932317999999931e+01 5.295375823999999909e+01
3.305466523500000164e+01 1.339144353999999915e+01 5.335800551999999897e+01
3.386196198500000065e+01 1.304900961000000059e+01 5.441756439000000256e+01
3.254200806499999743e+01 1.361043004999999972e+01 5.268972777999999835e+01
3.246592011500000297e+01 1.383487539000000055e+01 5.315926742999999988e+01
3.384764161500000057e+01 1.294783621000000018e+01 5.408098984000000087e+01
3.265016999499999883e+01 1.356415776999999956e+01 5.283052443999999781e+01
3.378165497500000214e+01 1.298559790000000014e+01 5.402334976000000211e+01
3.257206025499999669e+01 1.363299016999999935e+01 5.283378220000000169e+01
3.378167786499999892e+01 1.277140645999999968e+01 5.338875198000000211e+01
3.282326569500000346e+01 1.364160374999999981e+01 5.350471877999999748e+01
3.397187104500000032e+01 1.262208395000000039e+01 5.343497467000000256e+01
3.354431214499999925e+01 1.322708349000000005e+01 5.412906265000000161e+01
3.265190186499999925e+01 1.386121587999999960e+01 5.371515274000000062e+01
3.287654938499999702e+01 1.349285725999999919e+01 5.320088576999999930e+01
3.398400178499999669e+01 1.275797490999999972e+01 5.386879729999999711e+01
3.227726044500000313e+01 1.377531652000000051e+01 5.249808884000000120e+01
3.276268067499999859e+01 1.378992299999999993e+01 5.378853225999999665e+01
3.248214783499999925e+01 1.362202672999999997e+01 5.257031250000000000e+01
3.226773133500000057e+01 1.373085623000000055e+01 5.234187698000000211e+01
3.251697602499999817e+01 1.364954213999999943e+01 5.274131775000000033e+01
3.336943116500000173e+01 1.333782414999999943e+01 5.400786209000000326e+01
3.273485627499999850e+01 1.347876577000000076e+01 5.279510497999999785e+01
3.211196198500000065e+01 1.391072682999999977e+01 5.248488617000000289e+01
3.180543580499999834e+01 1.434503774999999948e+01 5.303264999000000302e+01
3.164702668500000016e+01 1.427197866000000026e+01 5.240599060000000264e+01
3.171621766499999850e+01 1.431149510999999919e+01 5.270295715000000314e+01
3.240327515500000288e+01 1.388580160000000063e+01 5.315023803999999785e+01
3.209117951500000032e+01 1.385927801000000059e+01 5.227466964999999988e+01
3.205959382500000032e+01 1.387433842999999989e+01 5.224029541000000165e+01
3.188998475500000040e+01 1.433601980000000076e+01 5.322030639999999835e+01
3.153808655499999958e+01 1.436686925999999964e+01 5.241884232000000310e+01
3.238522400499999776e+01 1.394896154000000088e+01 5.329743194999999645e+01
3.186447968499999917e+01 1.409524754999999985e+01 5.241912079000000091e+01
3.217267670500000065e+01 1.414651708000000063e+01 5.336045456000000087e+01
3.159259095499999859e+01 1.440185385000000018e+01 5.266455077999999901e+01
3.192890229500000032e+01 1.401352529000000047e+01 5.233322524999999814e+01
3.189971222499999826e+01 1.426344137000000067e+01 5.302313232000000198e+01
3.214930024499999917e+01 1.412634115000000001e+01 5.323925780999999802e+01
3.166034760499999834e+01 1.430914907000000014e+01 5.255358123999999975e+01
3.221671357499999999e+01 1.406353979000000010e+01 5.321882629000000264e+01
3.163623871500000106e+01 1.433718327999999964e+01 5.257794188999999818e+01
3.184732117500000115e+01 1.419175176000000071e+01 5.267056274000000116e+01
3.186886658499999925e+01 1.401256017999999948e+01 5.217744064000000037e+01
3.216438355500000057e+01 1.382607488000000018e+01 5.235949326000000070e+01
3.212933411499999892e+01 1.415550069999999927e+01 5.327759933000000103e+01
3.170227112499999933e+01 1.428788976999999960e+01 5.259526824999999661e+01
3.192178406500000065e+01 1.429773168000000005e+01 5.318416213999999798e+01
3.247918000500000346e+01 1.395307760000000030e+01 5.354917525999999839e+01
3.211719575499999735e+01 1.412407141000000088e+01 5.315060425000000066e+01
3.189779725500000040e+01 1.411765508999999952e+01 5.257246016999999938e+01
3.227535309499999983e+01 1.393123083000000051e+01 5.296353912000000008e+01
3.164666810499999983e+01 1.425086431000000076e+01 5.234050368999999847e+01
3.229599824499999983e+01 1.390498189999999923e+01 5.293579865000000240e+01
3.227739777499999718e+01 1.390168981000000059e+01 5.287840651999999864e+01
3.242239441499999941e+01 1.399486761000000001e+01 5.353242874000000029e+01
3.165955414500000131e+01 1.434830312999999968e+01 5.267128371999999814e+01
3.169648804499999883e+01 1.433786993000000010e+01 5.273338317999999703e+01
3.210798707499999693e+01 1.397062902000000051e+01 5.265794372999999950e+01
3.176161255499999925e+01 1.435388784000000051e+01 5.294816971000000194e+01
3.222633423500000305e+01 1.401611165999999997e+01 5.309828948999999909e+01
3.217388215500000115e+01 1.412041310999999943e+01 5.328370667000000083e+01
3.215825715500000115e+01 1.416993933000000006e+01 5.339537811000000289e+01
3.211775269500000007e+01 1.394662313000000076e+01 5.260940169999999938e+01
3.224207367500000032e+01 1.394797735000000038e+01 5.293001937999999740e+01
3.208733429499999801e+01 1.419659642999999960e+01 5.329635239000000269e+01
3.169568696500000016e+01 1.436848286999999935e+01 5.282494353999999959e+01
3.199292817499999941e+01 1.424465016999999989e+01 5.320296478000000207e+01
3.184514679500000156e+01 1.419069127999999935e+01 5.266176987000000054e+01
3.172209229499999950e+01 1.438060216999999952e+01 5.292924880999999715e+01
3.213664307500000206e+01 1.402041844999999931e+01 5.288314437999999740e+01
3.189296021499999867e+01 1.430251531000000043e+01 5.312541962000000240e+01
3.169686951499999950e+01 1.443310003000000030e+01 5.303041457999999864e+01
3.150277009499999892e+01 1.449153356000000059e+01 5.271792983999999649e+01
3.180380311500000090e+01 1.437936239000000072e+01 5.313436126999999942e+01
3.168860688499999867e+01 1.443614797000000038e+01 5.301890563999999983e+01
3.165239014499999826e+01 1.445133427999999931e+01 5.297413635000000198e+01
3.167325654500000098e+01 1.440065603000000038e+01 5.286713409000000041e+01
3.143518891500000123e+01 1.447932652999999981e+01 5.250598906999999826e+01
3.141841950499999925e+01 1.460746984000000026e+01 5.286565018000000293e+01
3.138219513499999991e+01 1.452506475000000030e+01 5.251213074000000347e+01
3.124305787500000164e+01 1.471065740000000055e+01 5.273265838999999744e+01
3.128122773500000164e+01 1.467235402999999927e+01 5.271179580999999814e+01
3.134283509500000164e+01 1.458179312000000039e+01 5.258780670000000157e+01
2.699669709499999826e+01 1.524088506999999915e+01 4.602257537999999926e+01
2.715679993499999867e+01 1.513299780000000005e+01 4.613718032999999963e+01
2.689627137500000131e+01 1.528489523000000005e+01 4.596543120999999843e+01
2.747517457500000049e+01 1.579451970999999944e+01 4.581912230999999736e+01
2.668434205499999834e+01 1.537515478000000080e+01 4.584647750999999971e+01
2.799813141499999958e+01 1.700834492999999981e+01 4.521740341000000285e+01
2.764348664499999941e+01 1.572796087000000043e+01 4.591040421000000293e+01
2.738063874499999883e+01 1.571563176999999989e+01 4.584031295999999855e+01
2.760942902500000073e+01 1.666222982000000030e+01 4.531808852999999715e+01
2.730749573499999983e+01 1.542399052999999931e+01 4.600042342999999789e+01
2.767343201499999950e+01 1.671003560999999848e+01 4.530723189999999789e+01
2.804224457500000156e+01 1.713257817999999943e+01 4.515303039999999868e+01
2.789268555499999991e+01 1.652997045000000043e+01 4.548432540999999674e+01
2.765982117500000115e+01 1.542877415999999968e+01 4.610169600999999773e+01
2.728784241500000007e+01 1.601213292999999993e+01 4.562808228000000099e+01
2.694346680499999991e+01 1.551191168000000076e+01 4.583791733000000335e+01
2.708834137499999883e+01 1.582624273000000059e+01 4.568489075000000099e+01
2.733084931499999826e+01 1.625962666999999939e+01 4.548656463999999744e+01
2.707714905499999958e+01 1.535402516999999989e+01 4.597586823000000322e+01
2.812921204499999916e+01 1.698683766999999989e+01 4.526959228999999851e+01
2.728836121499999834e+01 1.601529150000000001e+01 4.562626266000000186e+01
2.670895447499999875e+01 1.533595876999999952e+01 4.587818146000000041e+01
2.670390381500000032e+01 1.539730291000000051e+01 4.583845901000000111e+01
2.743319764499999991e+01 1.609050587999999848e+01 4.562224196999999748e+01
2.764996399500000024e+01 1.518889455999999960e+01 4.624826812999999959e+01
2.705548157500000173e+01 1.551017979999999952e+01 4.587214278999999806e+01
2.732068696500000016e+01 1.613350133999999869e+01 4.556215668000000107e+01
2.798318543499999933e+01 1.676796942000000001e+01 4.536278151999999864e+01
2.799601044499999958e+01 1.705977468000000030e+01 4.518472289999999703e+01
2.745246949499999900e+01 1.601530676000000142e+01 4.567481232000000091e+01
2.716088929500000049e+01 1.523578099999999935e+01 4.607433701000000070e+01
2.683595337499999900e+01 1.553438406000000072e+01 4.579210281000000293e+01
2.720324769500000173e+01 1.541547994000000088e+01 4.597488402999999835e+01
2.749487366500000007e+01 1.584397343999999919e+01 4.579413223000000244e+01
2.781826081499999859e+01 1.675086050000000171e+01 4.532464217999999789e+01
2.760585084499999908e+01 1.518710545999999972e+01 4.623633575000000207e+01
2.795240082500000156e+01 1.700605992999999927e+01 4.520529556000000326e+01
2.797081055499999991e+01 1.705929022000000117e+01 4.517756653000000000e+01
2.790834107499999917e+01 1.669896535999999898e+01 4.538364029000000244e+01
2.760504212500000065e+01 1.533832768999999985e+01 4.614185333000000355e+01
2.691151490500000065e+01 1.553110722999999993e+01 4.581650542999999942e+01
2.773403992500000115e+01 1.548977499000000080e+01 4.608564376999999723e+01
2.752269806500000016e+01 1.504355458999999939e+01 4.630118942000000004e+01
2.696206727499999900e+01 1.569704656000000043e+01 4.572805023000000091e+01
2.749592652500000156e+01 1.565447072999999989e+01 4.591254425000000339e+01
2.739470734500000049e+01 1.617315892999999960e+01 4.555934143000000347e+01
2.725505890499999850e+01 1.600450735000000080e+01 4.562313079999999843e+01
2.786324372500000024e+01 1.693067007000000146e+01 4.522589873999999810e+01
2.756372132499999950e+01 1.592537908000000080e+01 4.576377106000000339e+01
2.780976166499999991e+01 1.601969747000000055e+01 4.577779007000000178e+01
2.795529236499999826e+01 1.622089605000000034e+01 4.569546508999999901e+01
2.755850281500000065e+01 1.555948858000000001e+01 4.599025344999999731e+01
2.791610016499999958e+01 1.692062978999999956e+01 4.524779509999999760e+01
2.722230591499999974e+01 1.518317251000000034e+01 4.612529754999999909e+01
2.781051697499999875e+01 1.584532384999999977e+01 4.588668442000000169e+01
2.715673890500000098e+01 1.583154135000000018e+01 4.570182799999999901e+01
2.749296631500000032e+01 1.553520040000000080e+01 4.598599624999999946e+01
2.687204804499999966e+01 1.572863607000000030e+01 4.568172073000000211e+01
2.753682770500000032e+01 1.598762349999999977e+01 4.571701812999999959e+01
2.796540894500000007e+01 1.679051808999999906e+01 4.534346770999999876e+01
2.757846894500000090e+01 1.583489445999999923e+01 4.582453155999999694e+01
2.790644135499999834e+01 1.696811513999999832e+01 4.521533965999999793e+01
2.747222962500000065e+01 1.544205694000000051e+01 4.603791045999999909e+01
2.770306458499999991e+01 1.619970921999999902e+01 4.563404083000000355e+01
2.687630524500000107e+01 1.534894399999999948e+01 4.591960906999999992e+01
2.761344208499999908e+01 1.605969075999999873e+01 4.569477844000000033e+01
2.805714478499999842e+01 1.661244801999999865e+01 4.548158646000000260e+01
2.714200654500000098e+01 1.582649450000000080e+01 4.570061493000000041e+01
2.683515992499999925e+01 1.563629369999999952e+01 4.572835922000000153e+01
2.795643677500000024e+01 1.648427420000000154e+01 4.553166579999999897e+01
2.732744660499999867e+01 1.619492559000000043e+01 4.552587891000000297e+01
2.729289307499999850e+01 1.538162832000000080e+01 4.602250671000000182e+01
2.747449555500000073e+01 1.633682470000000109e+01 4.548095702999999901e+01
2.738454499499999883e+01 1.515595846000000080e+01 4.619026566000000145e+01
2.725676026500000049e+01 1.534942082999999968e+01 4.603188705000000169e+01
2.703397431499999826e+01 1.581470709000000063e+01 4.567599486999999669e+01
2.678601899499999917e+01 1.537121800999999977e+01 4.587901305999999835e+01
2.763627686499999925e+01 1.652440100000000101e+01 4.541192627000000215e+01
2.755750336499999875e+01 1.615172032999999985e+01 4.562087630999999988e+01
2.757161774500000107e+01 1.588321524000000018e+01 4.579238509999999707e+01
2.812919678500000131e+01 1.710030584000000076e+01 4.519887160999999764e+01
2.752362885499999834e+01 1.632949285000000117e+01 4.550006485000000112e+01
2.836078705499999941e+01 1.462375096999999968e+01 4.681079482999999897e+01
2.852741303499999859e+01 1.549667578000000034e+01 4.631608581999999785e+01
2.830735840499999867e+01 1.528762273999999977e+01 4.638125991999999798e+01
2.794439759500000164e+01 1.514243916999999939e+01 4.636433791999999698e+01
2.823484864499999958e+01 1.646829823999999931e+01 4.562400436000000070e+01
2.821634736500000074e+01 1.709612492999999844e+01 4.522726440000000281e+01
2.820410218499999999e+01 1.519399862000000034e+01 4.640905380000000235e+01
2.861232819499999991e+01 1.494602040999999915e+01 4.668438339000000070e+01
