6.773403785000000177e+00 2.999661473999999828e+01 1.083293533300000036e+02 0.000000000000000000e+00 0.000000000000000000e+00 0.000000000000000000e+00
7.513172775000000136e+00 2.933701161999999840e+01 1.113467178300000029e+02 0.000000000000000000e+00 0.000000000000000000e+00 0.000000000000000000e+00
6.091927195000000239e+00 3.014561300000000088e+01 1.073493423500000006e+02 0.000000000000000000e+00 0.000000000000000000e+00 0.000000000000000000e+00
6.165955215000000322e+00 3.012290411000000034e+01 1.074813842800000003e+02 0.000000000000000000e+00 0.000000000000000000e+00 0.000000000000000000e+00
6.445141454999999908e+00 2.990781622000000084e+01 1.084873352099999977e+02 0.000000000000000000e+00 0.000000000000000000e+00 0.000000000000000000e+00
6.978848124999999847e+00 2.979979544000000047e+01 1.092208251999999931e+02 0.000000000000000000e+00 0.000000000000000000e+00 0.000000000000000000e+00
7.413216255000000032e+00 2.952977590000000063e+01 1.105323562600000002e+02 0.000000000000000000e+00 0.000000000000000000e+00 0.000000000000000000e+00
6.717209484999999702e+00 3.010944204000000113e+01 1.078540191700000008e+02 0.000000000000000000e+00 0.000000000000000000e+00 0.000000000000000000e+00
7.169899605000000342e+00 2.951992253999999960e+01 1.104298553499999969e+02 0.000000000000000000e+00 0.000000000000000000e+00 0.000000000000000000e+00
6.648487714999999909e+00 3.019461659999999981e+01 1.074799423200000064e+02 0.000000000000000000e+00 0.000000000000000000e+00 0.000000000000000000e+00
7.406426094999999599e+00 2.932652119999999840e+01 1.113259582499999993e+02 0.000000000000000000e+00 0.000000000000000000e+00 0.000000000000000000e+00
7.912804275000000054e+00 2.909375981999999894e+01 1.125330505400000050e+02 0.000000000000000000e+00 0.000000000000000000e+00 0.000000000000000000e+00
6.685906075000000115e+00 3.014645605000000117e+01 1.076906280500000008e+02 0.000000000000000000e+00 0.000000000000000000e+00 0.000000000000000000e+00
7.115444805000000095e+00 2.951825552000000030e+01 1.104047927900000019e+02 0.000000000000000000e+00 0.000000000000000000e+00 0.000000000000000000e+00
7.052635815000000363e+00 2.971903829000000030e+01 1.095805282599999941e+02 0.000000000000000000e+00 0.000000000000000000e+00 0.000000000000000000e+00
7.991902014999999970e+00 2.895075827000000146e+01 1.131400756799999954e+02 0.000000000000000000e+00 0.000000000000000000e+00 0.000000000000000000e+00
7.916290905000000322e+00 2.901155690999999948e+01 1.128576355000000007e+02 0.000000000000000000e+00 0.000000000000000000e+00 0.000000000000000000e+00
6.733704235000000260e+00 3.009657887999999915e+01 1.079140777599999979e+02 0.000000000000000000e+00 0.000000000000000000e+00 0.000000000000000000e+00
7.142647414999999889e+00 2.952623205000000084e+01 1.103892974900000041e+02 0.000000000000000000e+00 0.000000000000000000e+00 0.000000000000000000e+00
6.225685744999999827e+00 3.003859548000000146e+01 1.078468704200000019e+02 0.000000000000000000e+00 0.000000000000000000e+00 0.000000000000000000e+00
7.925835274999999847e+00 2.906469183000000100e+01 1.126546783400000038e+02 0.000000000000000000e+00 0.000000000000000000e+00 0.000000000000000000e+00
6.628143934999999765e+00 2.995030432000000076e+01 1.084267959600000069e+02 0.000000000000000000e+00 0.000000000000000000e+00 0.000000000000000000e+00
7.457649854999999661e+00 2.925912694999999886e+01 1.116201095600000031e+02 0.000000000000000000e+00 0.000000000000000000e+00 0.000000000000000000e+00
6.794212964999999826e+00 2.975753621999999865e+01 1.092795333899999974e+02 0.000000000000000000e+00 0.000000000000000000e+00 0.000000000000000000e+00
7.094849254999999744e+00 2.985096197000000018e+01 1.090873565699999972e+02 0.000000000000000000e+00 0.000000000000000000e+00 0.000000000000000000e+00
6.294369364999999661e+00 3.017749243000000092e+01 1.073416976900000037e+02 0.000000000000000000e+00 0.000000000000000000e+00 0.000000000000000000e+00
6.806835794999999578e+00 2.976017979999999952e+01 1.092764892600000053e+02 0.000000000000000000e+00 0.000000000000000000e+00 0.000000000000000000e+00
6.479630134999999846e+00 3.010532979999999981e+01 1.077323303200000026e+02 0.000000000000000000e+00 0.000000000000000000e+00 0.000000000000000000e+00
7.639305734999999764e+00 2.930671148000000059e+01 1.115387878399999977e+02 0.000000000000000000e+00 0.000000000000000000e+00 0.000000000000000000e+00
7.906258255000000013e+00 2.904874257999999898e+01 1.127058944700000040e+02 0.000000000000000000e+00 0.000000000000000000e+00 0.000000000000000000e+00
6.569534925000000136e+00 3.017877415999999968e+01 1.074963073699999967e+02 0.000000000000000000e+00 0.000000000000000000e+00 0.000000000000000000e+00
6.621662764999999951e+00 2.993410330000000030e+01 1.084865951499999994e+02 0.000000000000000000e+00 0.000000000000000000e+00 0.000000000000000000e+00
8.107517865000000157e+00 2.890157156000000072e+01 1.134001388500000047e+02 0.000000000000000000e+00 0.000000000000000000e+00 0.000000000000000000e+00
6.829296734999999785e+00 2.981530598999999881e+01 1.090732116700000063e+02 0.000000000000000000e+00 0.000000000000000000e+00 0.000000000000000000e+00
7.737343455000000425e+00 2.910964421999999985e+01 1.123689269999999993e+02 0.000000000000000000e+00 0.000000000000000000e+00 0.000000000000000000e+00
7.141132974999999661e+00 2.976323919000000018e+01 1.094584198000000015e+02 0.000000000000000000e+00 0.000000000000000000e+00 0.000000000000000000e+00
6.684372565000000321e+00 2.975744084999999828e+01 1.092161788899999948e+02 0.000000000000000000e+00 0.000000000000000000e+00 0.000000000000000000e+00
6.829170845000000156e+00 2.974037008000000171e+01 1.093671722400000021e+02 0.000000000000000000e+00 0.000000000000000000e+00 0.000000000000000000e+00
6.531670234999999991e+00 2.989362553999999861e+01 1.085932159399999932e+02 0.000000000000000000e+00 0.000000000000000000e+00 0.000000000000000000e+00
7.945870065000000260e+00 2.910534506000000121e+01 1.125067748999999964e+02 0.000000000000000000e+00 0.000000000000000000e+00 0.000000000000000000e+00
6.362606665000000383e+00 3.004751424999999898e+01 1.078913116500000058e+02 0.000000000000000000e+00 0.000000000000000000e+00 0.000000000000000000e+00
6.311791085000000301e+00 2.997975758999999840e+01 1.081276931799999943e+02 0.000000000000000000e+00 0.000000000000000000e+00 0.000000000000000000e+00
6.620258954999999723e+00 2.988168173000000039e+01 1.086914901699999945e+02 0.000000000000000000e+00 0.000000000000000000e+00 0.000000000000000000e+00
7.624882365000000384e+00 2.936693410999999898e+01 1.112941131599999949e+02 0.000000000000000000e+00 0.000000000000000000e+00 0.000000000000000000e+00
7.163506175000000198e+00 2.943883351999999931e+01 1.107443389900000028e+02 0.000000000000000000e+00 0.000000000000000000e+00 0.000000000000000000e+00
6.737129835000000178e+00 3.012385778000000158e+01 1.078090210000000013e+02 0.000000000000000000e+00 0.000000000000000000e+00 0.000000000000000000e+00
6.361172344999999950e+00 3.025651768999999902e+01 1.070703735400000056e+02 0.000000000000000000e+00 0.000000000000000000e+00 0.000000000000000000e+00
6.268005995000000219e+00 3.004479818000000080e+01 1.078470764199999934e+02 0.000000000000000000e+00 0.000000000000000000e+00 0.000000000000000000e+00
7.583714155000000012e+00 2.925226812000000010e+01 1.117201690699999972e+02 0.000000000000000000e+00 0.000000000000000000e+00 0.000000000000000000e+00
7.188275005000000384e+00 2.946729879000000096e+01 1.106469955400000060e+02 0.000000000000000000e+00 0.000000000000000000e+00 0.000000000000000000e+00
6.928181314999999785e+00 2.997026281000000125e+01 1.085225448599999964e+02 0.000000000000000000e+00 0.000000000000000000e+00 0.000000000000000000e+00
7.694641735000000260e+00 2.928407887999999915e+01 1.116597137499999945e+02 0.000000000000000000e+00 0.000000000000000000e+00 0.000000000000000000e+00
8.101944595000000859e+00 2.886258534999999981e+01 1.135498809799999975e+02 0.000000000000000000e+00 0.000000000000000000e+00 0.000000000000000000e+00
6.296627664999999929e+00 3.010414723999999964e+01 1.076308135999999962e+02 0.000000000000000000e+00 0.000000000000000000e+00 0.000000000000000000e+00
6.365440985000000218e+00 3.025770024999999919e+01 1.070682144200000039e+02 0.000000000000000000e+00 0.000000000000000000e+00 0.000000000000000000e+00
7.056309364999999723e+00 2.980760412000000059e+01 1.092351303100000024e+02 0.000000000000000000e+00 0.000000000000000000e+00 0.000000000000000000e+00
7.290184645000000074e+00 2.946084431999999964e+01 1.107314529399999969e+02 0.000000000000000000e+00 0.000000000000000000e+00 0.000000000000000000e+00
7.327809004999999765e+00 2.951895361000000051e+01 1.105252609300000017e+02 0.000000000000000000e+00 0.000000000000000000e+00 0.000000000000000000e+00
6.701336525000000321e+00 2.976558904999999911e+01 1.091940612799999997e+02 0.000000000000000000e+00 0.000000000000000000e+00 0.000000000000000000e+00
6.648178725000000178e+00 2.980554036999999923e+01 1.090064544699999942e+02 0.000000000000000000e+00 0.000000000000000000e+00 0.000000000000000000e+00
6.895603805000000364e+00 2.979546957000000162e+01 1.091895141600000017e+02 0.000000000000000000e+00 0.000000000000000000e+00 0.000000000000000000e+00
7.161495825000000259e+00 2.961201695999999828e+01 1.100636215199999981e+02 0.000000000000000000e+00 0.000000000000000000e+00 0.000000000000000000e+00
6.409264235000000198e+00 3.000322943000000109e+01 1.080921325700000040e+02 0.000000000000000000e+00 0.000000000000000000e+00 0.000000000000000000e+00
6.778923654999999826e+00 2.991693333999999993e+01 1.086452255199999968e+02 0.000000000000000000e+00 0.000000000000000000e+00 0.000000000000000000e+00
7.312466285000000177e+00 2.952142171999999931e+01 1.105066833500000030e+02 0.000000000000000000e+00 0.000000000000000000e+00 0.000000000000000000e+00
7.711174634999999888e+00 2.924974278999999910e+01 1.118040237400000052e+02 0.000000000000000000e+00 0.000000000000000000e+00 0.000000000000000000e+00
7.368256234999999599e+00 2.957127218000000113e+01 1.103434448200000020e+02 0.000000000000000000e+00 0.000000000000000000e+00 0.000000000000000000e+00
7.650364545000000405e+00 2.933214406999999824e+01 1.114454040499999934e+02 0.000000000000000000e+00 0.000000000000000000e+00 0.000000000000000000e+00
6.720673224999999640e+00 2.995383290999999915e+01 1.084666213999999940e+02 0.000000000000000000e+00 0.000000000000000000e+00 0.000000000000000000e+00
6.503090525000000177e+00 2.997086171999999848e+01 1.082735824600000001e+02 0.000000000000000000e+00 0.000000000000000000e+00 0.000000000000000000e+00
6.796795515000000343e+00 2.969272451000000146e+01 1.095353546099999988e+02 0.000000000000000000e+00 0.000000000000000000e+00 0.000000000000000000e+00
6.736111304999999660e+00 3.007926778999999939e+01 1.079833984400000020e+02 0.000000000000000000e+00 0.000000000000000000e+00 0.000000000000000000e+00
7.239315655000000405e+00 2.943670111000000134e+01 1.107966690100000022e+02 0.000000000000000000e+00 0.000000000000000000e+00 0.000000000000000000e+00
6.592770244999999640e+00 2.996317128999999824e+01 1.083557662999999991e+02 0.000000000000000000e+00 0.000000000000000000e+00 0.000000000000000000e+00
6.838280345000000260e+00 3.003135136999999943e+01 1.082306823699999967e+02 0.000000000000000000e+00 0.000000000000000000e+00 0.000000000000000000e+00
5.997681284999999640e+00 3.003341513000000162e+01 1.077349166900000057e+02 0.000000000000000000e+00 0.000000000000000000e+00 0.000000000000000000e+00
6.031391765000000404e+00 2.983447865999999848e+01 1.085350647000000066e+02 0.000000000000000000e+00 0.000000000000000000e+00 0.000000000000000000e+00
7.749886175000000321e+00 2.901175909000000175e+01 1.127602996800000028e+02 0.000000000000000000e+00 0.000000000000000000e+00 0.000000000000000000e+00
5.876679085000000136e+00 2.998321752000000018e+01 1.078616790800000018e+02 0.000000000000000000e+00 0.000000000000000000e+00 0.000000000000000000e+00
6.175366065000000404e+00 2.998214558999999824e+01 1.080391769400000044e+02 0.000000000000000000e+00 0.000000000000000000e+00 0.000000000000000000e+00
6.372612625000000364e+00 2.971713095000000138e+01 1.091934814499999931e+02 0.000000000000000000e+00 0.000000000000000000e+00 0.000000000000000000e+00
6.014012004999999661e+00 2.984006718999999919e+01 1.085030670200000031e+02 0.000000000000000000e+00 0.000000000000000000e+00 0.000000000000000000e+00
6.569824835000000363e+00 2.948723439999999840e+01 1.102099914599999977e+02 0.000000000000000000e+00 0.000000000000000000e+00 0.000000000000000000e+00
7.080753944999999661e+00 2.925926428000000001e+01 1.114009323100000017e+02 0.000000000000000000e+00 0.000000000000000000e+00 0.000000000000000000e+00
7.917702345000000363e+00 2.896479635000000030e+01 1.130419387799999953e+02 0.000000000000000000e+00 0.000000000000000000e+00 0.000000000000000000e+00
5.593079235000000260e+00 2.995888738000000018e+01 1.077926254300000011e+02 0.000000000000000000e+00 0.000000000000000000e+00 0.000000000000000000e+00
7.271217964999999950e+00 2.920000294999999824e+01 1.117439651499999940e+02 0.000000000000000000e+00 0.000000000000000000e+00 0.000000000000000000e+00
6.473019264999999578e+00 2.953070287999999977e+01 1.099832534800000019e+02 0.000000000000000000e+00 0.000000000000000000e+00 0.000000000000000000e+00
7.103256844999999764e+00 2.926464299999999952e+01 1.113928756699999951e+02 0.000000000000000000e+00 0.000000000000000000e+00 0.000000000000000000e+00
5.786953594999999950e+00 3.006897572999999824e+01 1.074731216400000022e+02 0.000000000000000000e+00 0.000000000000000000e+00 0.000000000000000000e+00
7.295223854999999702e+00 2.920243291999999968e+01 1.117483596799999930e+02 0.000000000000000000e+00 0.000000000000000000e+00 0.000000000000000000e+00
7.874657294999999557e+00 2.892771748999999915e+01 1.131624374400000050e+02 0.000000000000000000e+00 0.000000000000000000e+00 0.000000000000000000e+00
6.011711745000000384e+00 2.999367360999999832e+01 1.078989868200000046e+02 0.000000000000000000e+00 0.000000000000000000e+00 0.000000000000000000e+00
5.452088025000000115e+00 3.006150656000000154e+01 1.073081588699999998e+02 0.000000000000000000e+00 0.000000000000000000e+00 0.000000000000000000e+00
6.620693825000000032e+00 2.964103155000000100e+01 1.096360168500000043e+02 0.000000000000000000e+00 0.000000000000000000e+00 0.000000000000000000e+00
6.441971445000000074e+00 2.962338858000000030e+01 1.096015625000000000e+02 0.000000000000000000e+00 0.000000000000000000e+00 0.000000000000000000e+00
7.385597845000000383e+00 2.928011923000000039e+01 1.114959487899999999e+02 0.000000000000000000e+00 0.000000000000000000e+00 0.000000000000000000e+00
7.072712564999999785e+00 2.939314107999999948e+01 1.108709487899999999e+02 0.000000000000000000e+00 0.000000000000000000e+00 0.000000000000000000e+00
5.690167094999999620e+00 2.994768742999999844e+01 1.078929061900000050e+02 0.000000000000000000e+00 0.000000000000000000e+00 0.000000000000000000e+00
6.862690595000000116e+00 2.957625798999999844e+01 1.100305786100000063e+02 0.000000000000000000e+00 0.000000000000000000e+00 0.000000000000000000e+00
6.050461434999999888e+00 2.983704977000000014e+01 1.085360412600000046e+02 0.000000000000000000e+00 0.000000000000000000e+00 0.000000000000000000e+00
5.912357955000000054e+00 3.003586035000000010e+01 1.076758117699999957e+02 0.000000000000000000e+00 0.000000000000000000e+00 0.000000000000000000e+00
6.496239325000000342e+00 2.951461630000000014e+01 1.100598602299999982e+02 0.000000000000000000e+00 0.000000000000000000e+00 0.000000000000000000e+00
6.700924545000000343e+00 2.944190053999999890e+01 1.104639205900000007e+02 0.000000000000000000e+00 0.000000000000000000e+00 0.000000000000000000e+00
8.068047195000000116e+00 2.882768850000000072e+01 1.136671447800000010e+02 0.000000000000000000e+00 0.000000000000000000e+00 0.000000000000000000e+00
5.822281505000000301e+00 2.982217245000000005e+01 1.084620437600000002e+02 0.000000000000000000e+00 0.000000000000000000e+00 0.000000000000000000e+00
6.553620004999999971e+00 2.954881887000000162e+01 1.099589385999999962e+02 0.000000000000000000e+00 0.000000000000000000e+00 0.000000000000000000e+00
6.190136575000000363e+00 2.976629858000000084e+01 1.088946990999999969e+02 0.000000000000000000e+00 0.000000000000000000e+00 0.000000000000000000e+00
5.927857065000000425e+00 3.006424550999999923e+01 1.075734329200000019e+02 0.000000000000000000e+00 0.000000000000000000e+00 0.000000000000000000e+00
5.731854105000000033e+00 3.005491475999999906e+01 1.074963378900000066e+02 0.000000000000000000e+00 0.000000000000000000e+00 0.000000000000000000e+00
7.712452554999999599e+00 2.905437307000000047e+01 1.125713653600000015e+02 0.000000000000000000e+00 0.000000000000000000e+00 0.000000000000000000e+00
6.294907235000000156e+00 2.972668675999999977e+01 1.091109237699999994e+02 0.000000000000000000e+00 0.000000000000000000e+00 0.000000000000000000e+00
6.292313244999999888e+00 2.969856100000000154e+01 1.092197723400000058e+02 0.000000000000000000e+00 0.000000000000000000e+00 0.000000000000000000e+00
7.512234355000000363e+00 2.916390065999999948e+01 1.120254440300000027e+02 0.000000000000000000e+00 0.000000000000000000e+00 0.000000000000000000e+00
6.966236734999999847e+00 2.945092229999999844e+01 1.105824432400000035e+02 0.000000000000000000e+00 0.000000000000000000e+00 0.000000000000000000e+00
6.571385055000000364e+00 2.948834065999999865e+01 1.102065505999999999e+02 0.000000000000000000e+00 0.000000000000000000e+00 0.000000000000000000e+00
6.133560805000000116e+00 3.004089955999999972e+01 1.077843856799999998e+02 0.000000000000000000e+00 0.000000000000000000e+00 0.000000000000000000e+00
7.038590094999999991e+00 2.937486104999999981e+01 1.109228744499999948e+02 0.000000000000000000e+00 0.000000000000000000e+00 0.000000000000000000e+00
6.331345224999999743e+00 2.959251623000000109e+01 1.096585235600000061e+02 0.000000000000000000e+00 0.000000000000000000e+00 0.000000000000000000e+00
7.394379285000000301e+00 2.922620230000000063e+01 1.117125930800000049e+02 0.000000000000000000e+00 0.000000000000000000e+00 0.000000000000000000e+00
6.562325144999999971e+00 2.978658131999999981e+01 1.090310211200000055e+02 0.000000000000000000e+00 0.000000000000000000e+00 0.000000000000000000e+00
6.138847975000000012e+00 2.977720097999999993e+01 1.088221511800000059e+02 0.000000000000000000e+00 0.000000000000000000e+00 0.000000000000000000e+00
5.664620065000000260e+00 2.989338903000000158e+01 1.080911331199999950e+02 0.000000000000000000e+00 0.000000000000000000e+00 0.000000000000000000e+00
6.917488715000000177e+00 2.943368749000000051e+01 1.106217956499999957e+02 0.000000000000000000e+00 0.000000000000000000e+00 0.000000000000000000e+00
6.778401044999999847e+00 2.940476065000000006e+01 1.106545944199999951e+02 0.000000000000000000e+00 0.000000000000000000e+00 0.000000000000000000e+00
5.958515785000000342e+00 2.987701253999999906e+01 1.083259048500000006e+02 0.000000000000000000e+00 0.000000000000000000e+00 0.000000000000000000e+00
6.075138714999999578e+00 2.991986684999999824e+01 1.082253951999999941e+02 0.000000000000000000e+00 0.000000000000000000e+00 0.000000000000000000e+00
6.018036505000000425e+00 2.974268942000000138e+01 1.088874893200000002e+02 0.000000000000000000e+00 0.000000000000000000e+00 0.000000000000000000e+00
6.258259445000000198e+00 2.968007116000000067e+01 1.092725601199999943e+02 0.000000000000000000e+00 0.000000000000000000e+00 0.000000000000000000e+00
6.268299725000000322e+00 2.985586003999999960e+01 1.085886154199999964e+02 0.000000000000000000e+00 0.000000000000000000e+00 0.000000000000000000e+00
5.853790905000000322e+00 2.989447240999999877e+01 1.081966247600000059e+02 0.000000000000000000e+00 0.000000000000000000e+00 0.000000000000000000e+00
7.592869424999999950e+00 2.913826970999999944e+01 1.121727905300000003e+02 0.000000000000000000e+00 0.000000000000000000e+00 0.000000000000000000e+00
6.868763594999999889e+00 2.951650456999999861e+01 1.102685546900000020e+02 0.000000000000000000e+00 0.000000000000000000e+00 0.000000000000000000e+00
6.623623515000000239e+00 2.968557957999999886e+01 1.094629058799999939e+02 0.000000000000000000e+00 0.000000000000000000e+00 0.000000000000000000e+00
7.435146954999999558e+00 2.922223119999999952e+01 1.117518463100000048e+02 0.000000000000000000e+00 0.000000000000000000e+00 0.000000000000000000e+00
5.782108925000000177e+00 2.999160223000000158e+01 1.077739105200000012e+02 0.000000000000000000e+00 0.000000000000000000e+00 0.000000000000000000e+00
7.637253424999999929e+00 2.901497488000000047e+01 1.126823425299999997e+02 0.000000000000000000e+00 0.000000000000000000e+00 0.000000000000000000e+00
6.334011695000000053e+00 2.986850194999999886e+01 1.085771408100000031e+02 0.000000000000000000e+00 0.000000000000000000e+00 0.000000000000000000e+00
5.857521675000000094e+00 2.982271031999999877e+01 1.084803772000000066e+02 0.000000000000000000e+00 0.000000000000000000e+00 0.000000000000000000e+00
5.650383614999999971e+00 2.989850836000000101e+01 1.080627822900000012e+02 0.000000000000000000e+00 0.000000000000000000e+00 0.000000000000000000e+00
7.084107065000000425e+00 2.929763249999999886e+01 1.112523040800000018e+02 0.000000000000000000e+00 0.000000000000000000e+00 0.000000000000000000e+00
6.334061284999999764e+00 2.991446523999999840e+01 1.083968124400000050e+02 0.000000000000000000e+00 0.000000000000000000e+00 0.000000000000000000e+00
6.131382604999999764e+00 2.994552832000000109e+01 1.081573257400000045e+02 0.000000000000000000e+00 0.000000000000000000e+00 0.000000000000000000e+00
5.807808545000000322e+00 3.001962499000000051e+01 1.076788787800000051e+02 0.000000000000000000e+00 0.000000000000000000e+00 0.000000000000000000e+00
6.690502784999999619e+00 2.954532079999999894e+01 1.100520706199999950e+02 0.000000000000000000e+00 0.000000000000000000e+00 0.000000000000000000e+00
5.819225935000000405e+00 2.984030371000000059e+01 1.083891143799999952e+02 0.000000000000000000e+00 0.000000000000000000e+00 0.000000000000000000e+00
7.039684914999999599e+00 2.949888830000000084e+01 1.104368438700000041e+02 0.000000000000000000e+00 0.000000000000000000e+00 0.000000000000000000e+00
6.247948315000000363e+00 2.995442800000000005e+01 1.081900405899999953e+02 0.000000000000000000e+00 0.000000000000000000e+00 0.000000000000000000e+00
7.156616835000000343e+00 2.937709265000000158e+01 1.109825897200000071e+02 0.000000000000000000e+00 0.000000000000000000e+00 0.000000000000000000e+00
6.358292245000000342e+00 2.972217398000000088e+01 1.091654052699999937e+02 0.000000000000000000e+00 0.000000000000000000e+00 0.000000000000000000e+00
6.509964605000000404e+00 2.965831976000000125e+01 1.095039291399999968e+02 0.000000000000000000e+00 0.000000000000000000e+00 0.000000000000000000e+00
5.875164654999999847e+00 3.004795293999999828e+01 1.076067886400000049e+02 0.000000000000000000e+00 0.000000000000000000e+00 0.000000000000000000e+00
5.866406105000000260e+00 3.007454900999999836e+01 1.074973525999999993e+02 0.000000000000000000e+00 0.000000000000000000e+00 0.000000000000000000e+00
5.896446844999999826e+00 2.987859944999999939e+01 1.082836532599999941e+02 0.000000000000000000e+00 0.000000000000000000e+00 0.000000000000000000e+00
5.830502175000000342e+00 2.997055273000000142e+01 1.078845825199999950e+02 0.000000000000000000e+00 0.000000000000000000e+00 0.000000000000000000e+00
6.002712875000000281e+00 2.986770467999999923e+01 1.083880691500000069e+02 0.000000000000000000e+00 0.000000000000000000e+00 0.000000000000000000e+00
6.778782514999999620e+00 2.944884709999999828e+01 1.104818420400000036e+02 0.000000000000000000e+00 0.000000000000000000e+00 0.000000000000000000e+00
6.562348035000000301e+00 2.964793614999999960e+01 1.095750732399999947e+02 0.000000000000000000e+00 0.000000000000000000e+00 0.000000000000000000e+00
5.566715864999999930e+00 2.999798039999999943e+01 1.076239242599999955e+02 0.000000000000000000e+00 0.000000000000000000e+00 0.000000000000000000e+00
7.260372785000000384e+00 2.927278738000000047e+01 1.114520568800000007e+02 0.000000000000000000e+00 0.000000000000000000e+00 0.000000000000000000e+00
6.614544535000000280e+00 2.957298879000000014e+01 1.098994369499999948e+02 0.000000000000000000e+00 0.000000000000000000e+00 0.000000000000000000e+00
5.874268194999999970e+00 3.010369710999999882e+01 1.073875350999999938e+02 0.000000000000000000e+00 0.000000000000000000e+00 0.000000000000000000e+00
6.021778724999999888e+00 2.986189107999999948e+01 1.084219207799999936e+02 0.000000000000000000e+00 0.000000000000000000e+00 0.000000000000000000e+00
6.931992195000000301e+00 2.956521062999999927e+01 1.101141281099999958e+02 0.000000000000000000e+00 0.000000000000000000e+00 0.000000000000000000e+00
6.539421704999999641e+00 2.957632283999999956e+01 1.098427810700000009e+02 0.000000000000000000e+00 0.000000000000000000e+00 0.000000000000000000e+00
6.151058814999999846e+00 2.967764120000000005e+01 1.092199173000000059e+02 0.000000000000000000e+00 0.000000000000000000e+00 0.000000000000000000e+00
5.872959755000000115e+00 3.006744984999999915e+01 1.075290145900000027e+02 0.000000000000000000e+00 0.000000000000000000e+00 0.000000000000000000e+00
6.313530584999999640e+00 2.961611012999999915e+01 1.095556030300000003e+02 0.000000000000000000e+00 0.000000000000000000e+00 0.000000000000000000e+00
5.782364515000000260e+00 3.008322362999999910e+01 1.074145660399999969e+02 0.000000000000000000e+00 0.000000000000000000e+00 0.000000000000000000e+00
7.340637824999999950e+00 2.925195912999999948e+01 1.115803527799999983e+02 0.000000000000000000e+00 0.000000000000000000e+00 0.000000000000000000e+00
7.712322855000000033e+00 2.904503469000000138e+01 1.126079406700000050e+02 0.000000000000000000e+00 0.000000000000000000e+00 0.000000000000000000e+00
5.830334334999999868e+00 3.005686406999999960e+01 1.075458145099999996e+02 0.000000000000000000e+00 0.000000000000000000e+00 0.000000000000000000e+00
6.842228555000000156e+00 2.951777105000000034e+01 1.102481918299999961e+02 0.000000000000000000e+00 0.000000000000000000e+00 0.000000000000000000e+00
6.390827794999999867e+00 2.966697912000000059e+01 1.094008407599999941e+02 0.000000000000000000e+00 0.000000000000000000e+00 0.000000000000000000e+00
6.559338235000000239e+00 2.977337102999999985e+01 1.090811538699999943e+02 0.000000000000000000e+00 0.000000000000000000e+00 0.000000000000000000e+00
5.803677225000000384e+00 2.997851400000000055e+01 1.078377990700000026e+02 0.000000000000000000e+00 0.000000000000000000e+00 0.000000000000000000e+00
6.438599254999999744e+00 2.961818913999999836e+01 1.096200103799999965e+02 0.000000000000000000e+00 0.000000000000000000e+00 0.000000000000000000e+00
6.263798385000000302e+00 2.989295797000000121e+01 1.084404373200000009e+02 0.000000000000000000e+00 0.000000000000000000e+00 0.000000000000000000e+00
6.623104715000000198e+00 2.962021092999999894e+01 1.097191162099999957e+02 0.000000000000000000e+00 0.000000000000000000e+00 0.000000000000000000e+00
6.363033914999999929e+00 2.969338826999999981e+01 1.092811050399999999e+02 0.000000000000000000e+00 0.000000000000000000e+00 0.000000000000000000e+00
5.929146434999999826e+00 2.980583028999999939e+01 1.085881652799999983e+02 0.000000000000000000e+00 0.000000000000000000e+00 0.000000000000000000e+00
6.479256294999999888e+00 2.954210501000000022e+01 1.099421310400000067e+02 0.000000000000000000e+00 0.000000000000000000e+00 0.000000000000000000e+00
6.084961554999999578e+00 2.988842229999999844e+01 1.083544921900000020e+02 0.000000000000000000e+00 0.000000000000000000e+00 0.000000000000000000e+00
6.378525405000000426e+00 2.978192738999999989e+01 1.089426727299999982e+02 0.000000000000000000e+00 0.000000000000000000e+00 0.000000000000000000e+00
6.184315344999999908e+00 2.994489507999999844e+01 1.081905364999999932e+02 0.000000000000000000e+00 0.000000000000000000e+00 0.000000000000000000e+00
6.533497474999999888e+00 2.971272497000000001e+01 1.093041229199999975e+02 0.000000000000000000e+00 0.000000000000000000e+00 0.000000000000000000e+00
6.702648785000000053e+00 2.958624487000000158e+01 1.098985366800000065e+02 0.000000000000000000e+00 0.000000000000000000e+00 0.000000000000000000e+00
6.139664315000000094e+00 2.982577733999999836e+01 1.086320266700000019e+02 0.000000000000000000e+00 0.000000000000000000e+00 0.000000000000000000e+00
7.535679485000000177e+00 2.918652180999999857e+01 1.119502792400000004e+02 0.000000000000000000e+00 0.000000000000000000e+00 0.000000000000000000e+00
7.697724005000000425e+00 2.906746893000000043e+01 1.125114364599999988e+02 0.000000000000000000e+00 0.000000000000000000e+00 0.000000000000000000e+00
6.683571484999999868e+00 2.960775976000000043e+01 1.098030471799999930e+02 0.000000000000000000e+00 0.000000000000000000e+00 0.000000000000000000e+00
7.300606394999999971e+00 2.926787404999999964e+01 1.114946823100000017e+02 0.000000000000000000e+00 0.000000000000000000e+00 0.000000000000000000e+00
6.775803234999999702e+00 2.953403691999999836e+01 1.101458358800000070e+02 0.000000000000000000e+00 0.000000000000000000e+00 0.000000000000000000e+00
-1.706481314999999999e+00 2.628797750000000022e+01 1.179619674700000047e+02 0.000000000000000000e+00 0.000000000000000000e+00 0.000000000000000000e+00
5.429592754999999826e+00 2.948386221000000162e+01 1.095617065400000030e+02 0.000000000000000000e+00 0.000000000000000000e+00 0.000000000000000000e+00
4.494148874999999599e+00 2.830710820999999910e+01 1.136364440899999977e+02 0.000000000000000000e+00 0.000000000000000000e+00 0.000000000000000000e+00
2.337166455000000198e+00 2.768692616999999956e+01 1.148185958899999974e+02 0.000000000000000000e+00 0.000000000000000000e+00 0.000000000000000000e+00
-2.013121935000000029e+00 2.623346928999999861e+01 1.179979782099999994e+02 0.000000000000000000e+00 0.000000000000000000e+00 0.000000000000000000e+00
3.095482495000000167e+00 2.848073416000000080e+01 1.121437225300000051e+02 0.000000000000000000e+00 0.000000000000000000e+00 0.000000000000000000e+00
5.001316694999999868e+00 2.842251424999999898e+01 1.134778442399999960e+02 0.000000000000000000e+00 0.000000000000000000e+00 0.000000000000000000e+00
3.971081405000000064e+00 2.864168386000000055e+01 1.120201492300000012e+02 0.000000000000000000e+00 0.000000000000000000e+00 0.000000000000000000e+00
-1.073668814999999999e+00 2.709409932999999882e+01 1.151659698499999962e+02 0.000000000000000000e+00 0.000000000000000000e+00 0.000000000000000000e+00
6.994473124999999847e+00 2.894576483000000167e+01 1.125809860199999974e+02 0.000000000000000000e+00 0.000000000000000000e+00 0.000000000000000000e+00
7.538303994999999702e+00 2.843617086000000072e+01 1.148960876499999983e+02 0.000000000000000000e+00 0.000000000000000000e+00 0.000000000000000000e+00
-2.154254294999999875e+00 2.639496069000000134e+01 1.172824020399999938e+02 0.000000000000000000e+00 0.000000000000000000e+00 0.000000000000000000e+00
-3.775399649999999774e-01 2.670923451999999898e+01 1.170799942000000016e+02 0.000000000000000000e+00 0.000000000000000000e+00 0.000000000000000000e+00
1.522007604999999986e+00 2.731875829999999894e+01 1.157903137200000003e+02 0.000000000000000000e+00 0.000000000000000000e+00 0.000000000000000000e+00
4.788078924999999764e+00 2.826067571000000100e+01 1.139891586300000057e+02 0.000000000000000000e+00 0.000000000000000000e+00 0.000000000000000000e+00
6.023308424999999744e+00 2.901330786000000117e+01 1.117525558499999931e+02 0.000000000000000000e+00 0.000000000000000000e+00 0.000000000000000000e+00
5.110451365000000301e+00 2.995183782000000150e+01 1.075402984600000025e+02 0.000000000000000000e+00 0.000000000000000000e+00 0.000000000000000000e+00
6.281582495000000321e+00 2.844904928000000055e+01 1.141164627099999933e+02 0.000000000000000000e+00 0.000000000000000000e+00 0.000000000000000000e+00
5.939396525000000260e+00 2.967673711999999853e+01 1.091006545999999986e+02 0.000000000000000000e+00 0.000000000000000000e+00 0.000000000000000000e+00
-1.597770074999999901e+00 2.674946050999999869e+01 1.162142486599999955e+02 0.000000000000000000e+00 0.000000000000000000e+00 0.000000000000000000e+00
4.264568944999999722e+00 2.771267918999999935e+01 1.158357238800000033e+02 0.000000000000000000e+00 0.000000000000000000e+00 0.000000000000000000e+00
1.902104044999999966e+00 2.771278218999999865e+01 1.144647369399999945e+02 0.000000000000000000e+00 0.000000000000000000e+00 0.000000000000000000e+00
5.659245154999999805e+00 2.880292730000000034e+01 1.123668289200000032e+02 0.000000000000000000e+00 0.000000000000000000e+00 0.000000000000000000e+00
2.532143254999999815e+00 2.762404088999999985e+01 1.151784744299999943e+02 0.000000000000000000e+00 0.000000000000000000e+00 0.000000000000000000e+00
4.893215804999999641e+00 2.972999791999999886e+01 1.082847289999999987e+02 0.000000000000000000e+00 0.000000000000000000e+00 0.000000000000000000e+00
3.957028054999999878e+00 2.884464483000000001e+01 1.112156219499999992e+02 0.000000000000000000e+00 0.000000000000000000e+00 0.000000000000000000e+00
-1.399161674999999994e+00 2.659566716999999869e+01 1.169329452500000031e+02 0.000000000000000000e+00 0.000000000000000000e+00 0.000000000000000000e+00
8.306946499999999511e-02 2.704282217000000088e+01 1.160382614100000040e+02 0.000000000000000000e+00 0.000000000000000000e+00 0.000000000000000000e+00
-2.869403215000000174e+00 2.620358114000000072e+01 1.176184692399999960e+02 0.000000000000000000e+00 0.000000000000000000e+00 0.000000000000000000e+00
2.376057294999999847e+00 2.856482152999999968e+01 1.113964080800000005e+02 0.000000000000000000e+00 0.000000000000000000e+00 0.000000000000000000e+00
-2.722369524999999957e+00 2.641568974999999853e+01 1.168714828500000067e+02 0.000000000000000000e+00 0.000000000000000000e+00 0.000000000000000000e+00
3.826260234999999899e+00 2.778158789000000084e+01 1.153110580400000060e+02 0.000000000000000000e+00 0.000000000000000000e+00 0.000000000000000000e+00
-3.082900384999999854e+00 2.588659887000000026e+01 1.187384033200000033e+02 0.000000000000000000e+00 0.000000000000000000e+00 0.000000000000000000e+00
2.868858954999999877e+00 2.761592320999999828e+01 1.154056625399999945e+02 0.000000000000000000e+00 0.000000000000000000e+00 0.000000000000000000e+00
5.011570595000000239e+00 2.880174856000000005e+01 1.119957275400000043e+02 0.000000000000000000e+00 0.000000000000000000e+00 0.000000000000000000e+00
6.817207954999999764e+00 2.846116857000000167e+01 1.143796386700000056e+02 0.000000000000000000e+00 0.000000000000000000e+00 0.000000000000000000e+00
3.340881964999999898e+00 2.741837148999999840e+01 1.164546890299999973e+02 0.000000000000000000e+00 0.000000000000000000e+00 0.000000000000000000e+00
5.510395674999999827e+00 2.955991583000000134e+01 1.093101501499999983e+02 0.000000000000000000e+00 0.000000000000000000e+00 0.000000000000000000e+00
-6.491158949999999983e-01 2.683310155999999935e+01 1.164364089999999976e+02 0.000000000000000000e+00 0.000000000000000000e+00 0.000000000000000000e+00
5.519879004999999950e+00 2.951487951000000010e+01 1.094923782299999999e+02 0.000000000000000000e+00 0.000000000000000000e+00 0.000000000000000000e+00
3.191992249999999753e-01 2.705367498000000026e+01 1.161326751699999988e+02 0.000000000000000000e+00 0.000000000000000000e+00 0.000000000000000000e+00
1.493046424999999955e+00 2.725055532000000014e+01 1.160411453199999983e+02 0.000000000000000000e+00 0.000000000000000000e+00 0.000000000000000000e+00
5.061257024999999743e+00 2.816130284999999844e+01 1.145375595099999941e+02 0.000000000000000000e+00 0.000000000000000000e+00 0.000000000000000000e+00
8.485762150000000226e-01 2.743332128000000125e+01 1.149501113900000036e+02 0.000000000000000000e+00 0.000000000000000000e+00 0.000000000000000000e+00
4.447685865000000405e+00 2.919878987999999964e+01 1.101106491099999971e+02 0.000000000000000000e+00 0.000000000000000000e+00 0.000000000000000000e+00
1.677414565000000080e+00 2.800443867999999981e+01 1.131899490400000019e+02 0.000000000000000000e+00 0.000000000000000000e+00 0.000000000000000000e+00
-2.571006155000000071e+00 2.638218145000000092e+01 1.170907745399999982e+02 0.000000000000000000e+00 0.000000000000000000e+00 0.000000000000000000e+00
3.538483284999999867e+00 2.769183569000000134e+01 1.154962768599999947e+02 0.000000000000000000e+00 0.000000000000000000e+00 0.000000000000000000e+00
1.195690775000000095e+00 2.698351888999999915e+01 1.169164581299999952e+02 0.000000000000000000e+00 0.000000000000000000e+00 0.000000000000000000e+00
3.592064525000000064e+00 2.837298802999999836e+01 1.128545989999999932e+02 0.000000000000000000e+00 0.000000000000000000e+00 0.000000000000000000e+00
-1.481932975000000097e+00 2.657439259999999948e+01 1.169683990500000021e+02 0.000000000000000000e+00 0.000000000000000000e+00 0.000000000000000000e+00
-2.232795095000000174e+00 2.654001073999999960e+01 1.166676788299999998e+02 0.000000000000000000e+00 0.000000000000000000e+00 0.000000000000000000e+00
-1.043002465000000045e+00 2.663705282000000096e+01 1.169771652200000034e+02 0.000000000000000000e+00 0.000000000000000000e+00 0.000000000000000000e+00
3.438484814999999806e+00 2.844186239000000072e+01 1.124952545200000031e+02 0.000000000000000000e+00 0.000000000000000000e+00 0.000000000000000000e+00
7.331452034999999867e+00 2.862429265999999828e+01 1.140379104600000062e+02 0.000000000000000000e+00 0.000000000000000000e+00 0.000000000000000000e+00
7.950272224999999970e+00 2.885337286000000034e+01 1.134980392500000050e+02 0.000000000000000000e+00 0.000000000000000000e+00 0.000000000000000000e+00
5.489660750000000533e-01 2.681504659999999873e+01 1.172023239100000040e+02 0.000000000000000000e+00 0.000000000000000000e+00 0.000000000000000000e+00
1.754109045000000089e+00 2.753765325000000175e+01 1.150660629300000011e+02 0.000000000000000000e+00 0.000000000000000000e+00 0.000000000000000000e+00
-3.354037615000000194e+00 2.604223470999999890e+01 1.179704132100000038e+02 0.000000000000000000e+00 0.000000000000000000e+00 0.000000000000000000e+00
4.219366549999999938e-01 2.707250433000000100e+01 1.161183853099999936e+02 0.000000000000000000e+00 0.000000000000000000e+00 0.000000000000000000e+00
4.646088265000000384e+00 2.802239828000000088e+01 1.148417434699999973e+02 0.000000000000000000e+00 0.000000000000000000e+00 0.000000000000000000e+00
4.042633675000000260e+00 2.831382589000000038e+01 1.133481292700000012e+02 0.000000000000000000e+00 0.000000000000000000e+00 0.000000000000000000e+00
2.557301185000000032e+00 2.797011785000000117e+01 1.138351059000000021e+02 0.000000000000000000e+00 0.000000000000000000e+00 0.000000000000000000e+00
2.568562174999999836e+00 2.828474645000000010e+01 1.126070556600000003e+02 0.000000000000000000e+00 0.000000000000000000e+00 0.000000000000000000e+00
-1.708224624999999941e+00 2.650745230000000063e+01 1.170997772200000071e+02 0.000000000000000000e+00 0.000000000000000000e+00 0.000000000000000000e+00
6.317131664999999785e+00 2.913533620999999840e+01 1.114441833500000030e+02 0.000000000000000000e+00 0.000000000000000000e+00 0.000000000000000000e+00
1.228714604999999960e+00 2.758779745000000005e+01 1.145645065300000027e+02 0.000000000000000000e+00 0.000000000000000000e+00 0.000000000000000000e+00
1.174538274999999965e+00 2.706468037999999865e+01 1.165857162500000044e+02 0.000000000000000000e+00 0.000000000000000000e+00 0.000000000000000000e+00
5.738358165000000177e+00 2.934206610000000026e+01 1.102972259499999979e+02 0.000000000000000000e+00 0.000000000000000000e+00 0.000000000000000000e+00
5.645203255000000198e+00 2.918094091000000034e+01 1.108754272500000013e+02 0.000000000000000000e+00 0.000000000000000000e+00 0.000000000000000000e+00
-2.844766149999999882e-01 2.726317815999999894e+01 1.149603805499999964e+02 0.000000000000000000e+00 0.000000000000000000e+00 0.000000000000000000e+00
5.118797924999999971e+00 2.867784337999999877e+01 1.125441207899999938e+02 0.000000000000000000e+00 0.000000000000000000e+00 0.000000000000000000e+00
1.584358834999999965e+00 2.785721425999999923e+01 1.137136611899999963e+02 0.000000000000000000e+00 0.000000000000000000e+00 0.000000000000000000e+00
3.826306015000000116e+00 2.798411778999999910e+01 1.145163803100000024e+02 0.000000000000000000e+00 0.000000000000000000e+00 0.000000000000000000e+00
1.247742314999999991e+00 2.761158972000000134e+01 1.144821701000000047e+02 0.000000000000000000e+00 0.000000000000000000e+00 0.000000000000000000e+00
-1.135211324999999993e+00 2.673185949000000150e+01 1.165516510000000068e+02 0.000000000000000000e+00 0.000000000000000000e+00 0.000000000000000000e+00
5.103031774999999826e+00 2.890741566999999890e+01 1.116341629000000069e+02 0.000000000000000000e+00 0.000000000000000000e+00 0.000000000000000000e+00
-2.811061234999999936e+00 2.626534108999999972e+01 1.174099731400000053e+02 0.000000000000000000e+00 0.000000000000000000e+00 0.000000000000000000e+00
7.891518255000000259e+00 2.853777532000000150e+01 1.147023162800000051e+02 0.000000000000000000e+00 0.000000000000000000e+00 0.000000000000000000e+00
-1.304530474999999967e+00 2.655884389999999939e+01 1.171323242200000010e+02 0.000000000000000000e+00 0.000000000000000000e+00 0.000000000000000000e+00
-5.176957549999999797e-01 2.676840428999999943e+01 1.167665023800000057e+02 0.000000000000000000e+00 0.000000000000000000e+00 0.000000000000000000e+00
1.599999095000000038e+00 2.711936787999999865e+01 1.166179504400000013e+02 0.000000000000000000e+00 0.000000000000000000e+00 0.000000000000000000e+00
4.975880284999999681e+00 2.955077581000000109e+01 1.090359344499999992e+02 0.000000000000000000e+00 0.000000000000000000e+00 0.000000000000000000e+00
5.656517645000000094e+00 2.802173833999999886e+01 1.154305419899999947e+02 0.000000000000000000e+00 0.000000000000000000e+00 0.000000000000000000e+00
-1.959403374999999947e+00 2.638889531999999960e+01 1.174192428599999971e+02 0.000000000000000000e+00 0.000000000000000000e+00 0.000000000000000000e+00
4.376724864999999909e+00 2.816958836999999960e+01 1.141079406700000050e+02 0.000000000000000000e+00 0.000000000000000000e+00 0.000000000000000000e+00
3.655216835000000053e+00 2.860950307999999964e+01 1.119631957999999941e+02 0.000000000000000000e+00 0.000000000000000000e+00 0.000000000000000000e+00
9.612717499999999526e-02 2.685249165999999832e+01 1.167926635700000020e+02 0.000000000000000000e+00 0.000000000000000000e+00 0.000000000000000000e+00
1.540291454999999976e+00 2.742291859999999915e+01 1.153922271699999982e+02 0.000000000000000000e+00 0.000000000000000000e+00 0.000000000000000000e+00
4.403271345000000281e+00 2.947754888000000051e+01 1.089910659800000019e+02 0.000000000000000000e+00 0.000000000000000000e+00 0.000000000000000000e+00
4.030228284999999744e+00 2.793193654999999964e+01 1.148394241299999976e+02 0.000000000000000000e+00 0.000000000000000000e+00 0.000000000000000000e+00
2.698204665000000002e+00 2.821268300999999923e+01 1.129650497399999978e+02 0.000000000000000000e+00 0.000000000000000000e+00 0.000000000000000000e+00
-6.833604349999999883e-01 2.684237127000000100e+01 1.163801727299999982e+02 0.000000000000000000e+00 0.000000000000000000e+00 0.000000000000000000e+00
5.988613745000000321e+00 2.964200048000000010e+01 1.092655029299999967e+02 0.000000000000000000e+00 0.000000000000000000e+00 0.000000000000000000e+00
-2.116832114999999792e+00 2.629956273999999894e+01 1.176784591699999964e+02 0.000000000000000000e+00 0.000000000000000000e+00 0.000000000000000000e+00
2.941555645000000219e+00 2.893592672000000121e+01 1.102683105499999954e+02 0.000000000000000000e+00 0.000000000000000000e+00 0.000000000000000000e+00
-2.020179124999999853e+00 2.644299154000000129e+01 1.171717224100000010e+02 0.000000000000000000e+00 0.000000000000000000e+00 0.000000000000000000e+00
6.440743115000000074e+00 2.934440069000000051e+01 1.106955642700000055e+02 0.000000000000000000e+00 0.000000000000000000e+00 0.000000000000000000e+00
1.181473499999999982e-02 2.713034658000000121e+01 1.156535034200000069e+02 0.000000000000000000e+00 0.000000000000000000e+00 0.000000000000000000e+00
4.773413149999999883e-01 2.749415044999999935e+01 1.144960403399999933e+02 0.000000000000000000e+00 0.000000000000000000e+00 0.000000000000000000e+00
7.437931684999999682e+00 2.865265875000000051e+01 1.139883804300000065e+02 0.000000000000000000e+00 0.000000000000000000e+00 0.000000000000000000e+00
5.507984784999999661e+00 2.821056967000000171e+01 1.146034240700000026e+02 0.000000000000000000e+00 0.000000000000000000e+00 0.000000000000000000e+00
1.984692244999999966e+00 2.708553151999999997e+01 1.169739150999999993e+02 0.000000000000000000e+00 0.000000000000000000e+00 0.000000000000000000e+00
8.126303249999999867e-01 2.715840749999999915e+01 1.160079803499999969e+02 0.000000000000000000e+00 0.000000000000000000e+00 0.000000000000000000e+00
-1.073714585000000055e+00 2.631978063000000034e+01 1.182042923000000059e+02 0.000000000000000000e+00 0.000000000000000000e+00 0.000000000000000000e+00
4.961248850000000155e-01 2.765817480000000117e+01 1.138633346600000067e+02 0.000000000000000000e+00 0.000000000000000000e+00 0.000000000000000000e+00
7.514235049999999916e-01 2.675738362999999964e+01 1.175460281400000042e+02 0.000000000000000000e+00 0.000000000000000000e+00 0.000000000000000000e+00
-2.012111045000000153e+00 2.650920706000000138e+01 1.169165954599999964e+02 0.000000000000000000e+00 0.000000000000000000e+00 0.000000000000000000e+00
-1.923140854999999982e+00 2.618889456000000138e+01 1.182250747700000062e+02 0.000000000000000000e+00 0.000000000000000000e+00 0.000000000000000000e+00
9.617544649999999473e-01 2.773316793000000047e+01 1.138392028800000020e+02 0.000000000000000000e+00 0.000000000000000000e+00 0.000000000000000000e+00
-6.225656050000000219e-01 2.642155676000000142e+01 1.180666656500000045e+02 0.000000000000000000e+00 0.000000000000000000e+00 0.000000000000000000e+00
3.632145545000000197e+00 2.801039723999999964e+01 1.143006210300000021e+02 0.000000000000000000e+00 0.000000000000000000e+00 0.000000000000000000e+00
7.092434554999999641e+00 2.852705603000000067e+01 1.142807922399999967e+02 0.000000000000000000e+00 0.000000000000000000e+00 0.000000000000000000e+00
1.042675634999999934e+00 2.775066212999999848e+01 1.138174972500000024e+02 0.000000000000000000e+00 0.000000000000000000e+00 0.000000000000000000e+00
6.594570785000000157e+00 2.838316182999999882e+01 1.145565872199999973e+02 0.000000000000000000e+00 0.000000000000000000e+00 0.000000000000000000e+00
7.495377204999999599e+00 2.893961553000000109e+01 1.128957290599999936e+02 0.000000000000000000e+00 0.000000000000000000e+00 0.000000000000000000e+00
6.978073744999999661e+00 2.850028448000000125e+01 1.143194961500000062e+02 0.000000000000000000e+00 0.000000000000000000e+00 0.000000000000000000e+00
5.684143684999999557e+00 2.898753957999999997e+01 1.116568908699999980e+02 0.000000000000000000e+00 0.000000000000000000e+00 0.000000000000000000e+00
2.581078194999999909e+00 2.757630758000000171e+01 1.153941497800000064e+02 0.000000000000000000e+00 0.000000000000000000e+00 0.000000000000000000e+00
4.576130534999999888e+00 2.948069982000000167e+01 1.090789871199999936e+02 0.000000000000000000e+00 0.000000000000000000e+00 0.000000000000000000e+00
4.878269815000000342e+00 2.936043768000000043e+01 1.097261733999999933e+02 0.000000000000000000e+00 0.000000000000000000e+00 0.000000000000000000e+00
-1.679347375000000087e+00 2.664570837000000125e+01 1.165740280200000001e+02 0.000000000000000000e+00 0.000000000000000000e+00 0.000000000000000000e+00
1.044659285000000049e+00 2.765299826000000039e+01 1.142018814099999986e+02 0.000000000000000000e+00 0.000000000000000000e+00 0.000000000000000000e+00
3.767346045000000032e+00 2.806521826000000175e+01 1.141639404299999967e+02 0.000000000000000000e+00 0.000000000000000000e+00 0.000000000000000000e+00
5.423039104999999971e+00 2.836730031999999824e+01 1.139391632100000038e+02 0.000000000000000000e+00 0.000000000000000000e+00 0.000000000000000000e+00
-1.718615865000000076e+00 2.644854956000000001e+01 1.173248519899999991e+02 0.000000000000000000e+00 0.000000000000000000e+00 0.000000000000000000e+00
