-6.293862850000000453e-01 2.675585012000000162e+01 6.625260161999999298e+01 0.000000000000000000e+00 0.000000000000000000e+00 0.000000000000000000e+00
3.649488949999999954e-01 2.680326300000000117e+01 6.575026703000000339e+01 0.000000000000000000e+00 0.000000000000000000e+00 0.000000000000000000e+00
6.024748349999999864e-01 2.686424475000000101e+01 6.591396331999999347e+01 0.000000000000000000e+00 0.000000000000000000e+00 0.000000000000000000e+00
4.203039650000000016e-01 2.679828099999999935e+01 6.567877196999999967e+01 0.000000000000000000e+00 0.000000000000000000e+00 0.000000000000000000e+00
7.961775349999999918e-01 2.697740393000000125e+01 6.640980530000000215e+01 0.000000000000000000e+00 0.000000000000000000e+00 0.000000000000000000e+00
7.404333549999999597e-01 2.690485982999999948e+01 6.603872681000000000e+01 0.000000000000000000e+00 0.000000000000000000e+00 0.000000000000000000e+00
-3.153108150000000220e-01 2.680142049999999898e+01 6.626873779000000297e+01 0.000000000000000000e+00 0.000000000000000000e+00 0.000000000000000000e+00
-1.893914650000000088e-01 2.679790716000000117e+01 6.615072632000000397e+01 0.000000000000000000e+00 0.000000000000000000e+00 0.000000000000000000e+00
-2.340157949999999987e-01 2.684051351000000096e+01 6.642884064000000421e+01 0.000000000000000000e+00 0.000000000000000000e+00 0.000000000000000000e+00
-7.779725549999999545e-01 2.674748449000000150e+01 6.632035827999999356e+01 0.000000000000000000e+00 0.000000000000000000e+00 0.000000000000000000e+00
5.997282550000000434e-01 2.684947041999999939e+01 6.583168793000000107e+01 0.000000000000000000e+00 0.000000000000000000e+00 0.000000000000000000e+00
7.838636850000000322e-01 2.692104558999999853e+01 6.609741974000000653e+01 0.000000000000000000e+00 0.000000000000000000e+00 0.000000000000000000e+00
-5.083802649999999979e-01 2.678544073000000125e+01 6.632756041999999752e+01 0.000000000000000000e+00 0.000000000000000000e+00 0.000000000000000000e+00
3.782087849999999918e-01 2.687827520000000092e+01 6.616849517999999364e+01 0.000000000000000000e+00 0.000000000000000000e+00 0.000000000000000000e+00
7.117086849999999520e-01 2.698394232000000059e+01 6.651801299999999628e+01 0.000000000000000000e+00 0.000000000000000000e+00 0.000000000000000000e+00
-6.606706150000000166e-01 2.690581350000000072e+01 6.725556183000000487e+01 0.000000000000000000e+00 0.000000000000000000e+00 0.000000000000000000e+00
6.750837849999999918e-01 2.738283377000000129e+01 6.921923827999999901e+01 0.000000000000000000e+00 0.000000000000000000e+00 0.000000000000000000e+00
-7.303557500000000535e-02 2.688994054999999861e+01 6.660988616999999579e+01 0.000000000000000000e+00 0.000000000000000000e+00 0.000000000000000000e+00
6.065947050000000118e-01 2.739441519000000014e+01 6.935956572999999992e+01 0.000000000000000000e+00 0.000000000000000000e+00 0.000000000000000000e+00
-2.344201549999999912e-01 2.687231664999999836e+01 6.664020537999999760e+01 0.000000000000000000e+00 0.000000000000000000e+00 0.000000000000000000e+00
1.453939949999999981e-01 2.703455572000000018e+01 6.737646483999999703e+01 0.000000000000000000e+00 0.000000000000000000e+00 0.000000000000000000e+00
1.937147650000000110e-01 2.722416524999999865e+01 6.860010529000000190e+01 0.000000000000000000e+00 0.000000000000000000e+00 0.000000000000000000e+00
6.779181050000000486e-01 2.751329640999999882e+01 7.008912659000000644e+01 0.000000000000000000e+00 0.000000000000000000e+00 0.000000000000000000e+00
1.292959650000000127e-01 2.722749929000000080e+01 6.868154907000000264e+01 0.000000000000000000e+00 0.000000000000000000e+00 0.000000000000000000e+00
4.938169949999999808e-01 2.724364308999999906e+01 6.845481872999999950e+01 0.000000000000000000e+00 0.000000000000000000e+00 0.000000000000000000e+00
-2.105401550000000066e-01 2.690507344999999972e+01 6.683733368000000041e+01 0.000000000000000000e+00 0.000000000000000000e+00 0.000000000000000000e+00
7.612425350000000535e-01 2.746914128999999960e+01 6.971731567000000496e+01 0.000000000000000000e+00 0.000000000000000000e+00 0.000000000000000000e+00
8.165174950000000376e-01 2.719950323000000125e+01 6.786337279999999339e+01 0.000000000000000000e+00 0.000000000000000000e+00 0.000000000000000000e+00
8.386961450000000040e-01 2.749032812000000092e+01 6.978790282999999306e+01 0.000000000000000000e+00 0.000000000000000000e+00 0.000000000000000000e+00
-6.929200650000000294e-01 2.684159689000000171e+01 6.685571289000000661e+01 0.000000000000000000e+00 0.000000000000000000e+00 0.000000000000000000e+00
-4.892304849999999927e-01 2.682755879999999848e+01 6.657483673000000124e+01 0.000000000000000000e+00 0.000000000000000000e+00 0.000000000000000000e+00
3.837172050000000056e-01 2.733628300999999894e+01 6.917544556000000000e+01 0.000000000000000000e+00 0.000000000000000000e+00 0.000000000000000000e+00
7.333837949999999495e-01 2.717896870999999948e+01 6.780237578999999926e+01 0.000000000000000000e+00 0.000000000000000000e+00 0.000000000000000000e+00
2.064558549999999937e-01 2.722069005999999902e+01 6.856515502999999967e+01 0.000000000000000000e+00 0.000000000000000000e+00 0.000000000000000000e+00
8.556677350000000404e-01 2.710439519999999902e+01 6.719138336000000322e+01 0.000000000000000000e+00 0.000000000000000000e+00 0.000000000000000000e+00
-3.339265350000000243e-01 2.691830664000000084e+01 6.703910064999999463e+01 0.000000000000000000e+00 0.000000000000000000e+00 0.000000000000000000e+00
6.078039650000000016e-01 2.730256872000000001e+01 6.874425506999999413e+01 0.000000000000000000e+00 0.000000000000000000e+00 0.000000000000000000e+00
4.422059500000000143e-02 2.690208653999999910e+01 6.658346557999999504e+01 0.000000000000000000e+00 0.000000000000000000e+00 0.000000000000000000e+00
-3.432801750000000207e-01 2.685590200000000038e+01 6.663037108999999703e+01 0.000000000000000000e+00 0.000000000000000000e+00 0.000000000000000000e+00
-1.581414650000000088e-01 2.699958257999999844e+01 6.742125701999999876e+01 0.000000000000000000e+00 0.000000000000000000e+00 0.000000000000000000e+00
6.145712349999999935e-01 2.698623875999999910e+01 6.662258147999999380e+01 0.000000000000000000e+00 0.000000000000000000e+00 0.000000000000000000e+00
5.571371550000000505e-01 2.705869511999999943e+01 6.715985870000000091e+01 0.000000000000000000e+00 0.000000000000000000e+00 0.000000000000000000e+00
8.176504650000000485e-01 2.730989675000000005e+01 6.860058594000000198e+01 0.000000000000000000e+00 0.000000000000000000e+00 0.000000000000000000e+00
-4.007066249999999830e-01 2.701377324999999985e+01 6.773886108000000661e+01 0.000000000000000000e+00 0.000000000000000000e+00 0.000000000000000000e+00
6.172529749999999815e-01 2.740932683999999853e+01 6.944952392999999802e+01 0.000000000000000000e+00 0.000000000000000000e+00 0.000000000000000000e+00
-6.496194349999999673e-01 2.680133276000000109e+01 6.654670715000000314e+01 0.000000000000000000e+00 0.000000000000000000e+00 0.000000000000000000e+00
-4.036269499999999705e-02 2.702082662000000113e+01 6.745519256999999413e+01 0.000000000000000000e+00 0.000000000000000000e+00 0.000000000000000000e+00
7.397886750000000067e-01 2.738973455000000001e+01 6.920598601999999744e+01 0.000000000000000000e+00 0.000000000000000000e+00 0.000000000000000000e+00
1.272017049999999982e-01 2.726279286999999840e+01 6.891947937000000479e+01 0.000000000000000000e+00 0.000000000000000000e+00 0.000000000000000000e+00
4.574647500000000172e-02 2.718817358000000084e+01 6.849524689000000421e+01 0.000000000000000000e+00 0.000000000000000000e+00 0.000000000000000000e+00
5.249144049999999728e-01 2.719489889000000105e+01 6.810030365000000074e+01 0.000000000000000000e+00 0.000000000000000000e+00 0.000000000000000000e+00
1.916565500000000019e-02 2.698072652999999832e+01 6.713236999999999455e+01 0.000000000000000000e+00 0.000000000000000000e+00 0.000000000000000000e+00
7.745443850000000019e-01 2.722263554999999968e+01 6.805659484999999620e+01 0.000000000000000000e+00 0.000000000000000000e+00 0.000000000000000000e+00
4.212118650000000186e-01 2.714523153000000022e+01 6.786338043000000653e+01 0.000000000000000000e+00 0.000000000000000000e+00 0.000000000000000000e+00
3.953901750000000104e-01 2.721550969999999836e+01 6.835705566000000033e+01 0.000000000000000000e+00 0.000000000000000000e+00 0.000000000000000000e+00
5.881943500000000324e-02 2.703597479000000092e+01 6.746541594999999347e+01 0.000000000000000000e+00 0.000000000000000000e+00 0.000000000000000000e+00
5.849958950000000435e-01 2.724426869999999923e+01 6.837530517999999802e+01 0.000000000000000000e+00 0.000000000000000000e+00 0.000000000000000000e+00
7.165609849999999836e-01 2.731231908999999902e+01 6.870957946999999422e+01 0.000000000000000000e+00 0.000000000000000000e+00 0.000000000000000000e+00
-1.048730350000000033e-01 2.696042852000000067e+01 6.711050414999999703e+01 0.000000000000000000e+00 0.000000000000000000e+00 0.000000000000000000e+00
-2.025788749999999916e-01 2.706136160000000146e+01 6.787519835999999884e+01 0.000000000000000000e+00 0.000000000000000000e+00 0.000000000000000000e+00
7.813230949999999675e-01 2.743928366000000096e+01 6.949920654000000297e+01 0.000000000000000000e+00 0.000000000000000000e+00 0.000000000000000000e+00
-6.210646499999999959e-02 2.691321783000000067e+01 6.675552367999999603e+01 0.000000000000000000e+00 0.000000000000000000e+00 0.000000000000000000e+00
-1.814187549999999871e-01 2.703153829000000030e+01 6.765634154999999339e+01 0.000000000000000000e+00 0.000000000000000000e+00 0.000000000000000000e+00
8.102461349999999785e-01 2.742346411000000117e+01 6.936685181000000000e+01 0.000000000000000000e+00 0.000000000000000000e+00 0.000000000000000000e+00
2.354208449999999897e-01 2.733341817999999890e+01 6.929243468999999322e+01 0.000000000000000000e+00 0.000000000000000000e+00 0.000000000000000000e+00
6.059805449999999816e-01 2.710381154999999964e+01 6.741673278999999752e+01 0.000000000000000000e+00 0.000000000000000000e+00 0.000000000000000000e+00
1.494032349999999953e-01 2.713291386999999943e+01 6.803053284000000644e+01 0.000000000000000000e+00 0.000000000000000000e+00 0.000000000000000000e+00
-2.450517150000000033e-01 2.697778539999999836e+01 6.735528564000000529e+01 0.000000000000000000e+00 0.000000000000000000e+00 0.000000000000000000e+00
-1.649774049999999936e-01 2.693210058000000018e+01 6.697623443999999893e+01 0.000000000000000000e+00 0.000000000000000000e+00 0.000000000000000000e+00
-8.834776499999999477e-02 2.689662771000000063e+01 6.666865540000000578e+01 0.000000000000000000e+00 0.000000000000000000e+00 0.000000000000000000e+00
5.730215549999999602e-01 2.718782262999999944e+01 6.800878905999999802e+01 0.000000000000000000e+00 0.000000000000000000e+00 0.000000000000000000e+00
5.176092650000000406e-01 2.743132620000000088e+01 6.968812561000000017e+01 0.000000000000000000e+00 0.000000000000000000e+00 0.000000000000000000e+00
4.898725950000000218e-01 2.705336980999999952e+01 6.718598174999999628e+01 0.000000000000000000e+00 0.000000000000000000e+00 0.000000000000000000e+00
8.152451500000000573e-02 2.718177251999999910e+01 6.841961670000000595e+01 0.000000000000000000e+00 0.000000000000000000e+00 0.000000000000000000e+00
1.616789349999999958e-01 2.721861485999999886e+01 6.859239196999999422e+01 0.000000000000000000e+00 0.000000000000000000e+00 0.000000000000000000e+00
4.450346450000000065e-01 2.712720708999999886e+01 6.772095489999999529e+01 0.000000000000000000e+00 0.000000000000000000e+00 0.000000000000000000e+00
-9.649804549999999592e-01 2.678804617000000121e+01 6.674740601000000595e+01 0.000000000000000000e+00 0.000000000000000000e+00 0.000000000000000000e+00
-2.108911049999999954e-01 2.688605718000000167e+01 6.671048736999999562e+01 0.000000000000000000e+00 0.000000000000000000e+00 0.000000000000000000e+00
-7.250092949999999981e-01 2.688231496999999948e+01 6.715747833000000355e+01 0.000000000000000000e+00 0.000000000000000000e+00 0.000000000000000000e+00
-2.821115049999999846e-01 2.684873418999999828e+01 6.652627563000000066e+01 0.000000000000000000e+00 0.000000000000000000e+00 0.000000000000000000e+00
-4.613145350000000255e-01 2.687193899000000030e+01 6.684598540999999727e+01 0.000000000000000000e+00 0.000000000000000000e+00 0.000000000000000000e+00
7.025801149999999495e-01 2.721699362000000022e+01 6.808493805000000521e+01 0.000000000000000000e+00 0.000000000000000000e+00 0.000000000000000000e+00
7.204290850000000246e-01 2.708022146000000063e+01 6.715388489000000050e+01 0.000000000000000000e+00 0.000000000000000000e+00 0.000000000000000000e+00
-4.291337450000000109e-01 2.689095525999999836e+01 6.694363402999999835e+01 0.000000000000000000e+00 0.000000000000000000e+00 0.000000000000000000e+00
2.141633500000000162e-02 2.717247990999999985e+01 6.841265106000000173e+01 0.000000000000000000e+00 0.000000000000000000e+00 0.000000000000000000e+00
5.516973950000000348e-01 2.719817189999999840e+01 6.809757996000000446e+01 0.000000000000000000e+00 0.000000000000000000e+00 0.000000000000000000e+00
2.435499650000000071e-01 2.698504476000000096e+01 6.695523833999999397e+01 0.000000000000000000e+00 0.000000000000000000e+00 0.000000000000000000e+00
-5.225515000000000021e-03 2.696460180000000051e+01 6.704692077999999356e+01 0.000000000000000000e+00 0.000000000000000000e+00 0.000000000000000000e+00
-3.426240449999999882e-01 2.700352316000000030e+01 6.761698914000000116e+01 0.000000000000000000e+00 0.000000000000000000e+00 0.000000000000000000e+00
4.554335150000000110e-01 2.702175360000000026e+01 6.700619507000000397e+01 0.000000000000000000e+00 0.000000000000000000e+00 0.000000000000000000e+00
5.513960350000000066e-01 2.696994619000000171e+01 6.657160949999999389e+01 0.000000000000000000e+00 0.000000000000000000e+00 0.000000000000000000e+00
-2.897752250000000251e-01 2.699763708000000051e+01 6.752909850999999719e+01 0.000000000000000000e+00 0.000000000000000000e+00 0.000000000000000000e+00
8.450438049999999812e-01 2.727991705000000167e+01 6.837492371000000446e+01 0.000000000000000000e+00 0.000000000000000000e+00 0.000000000000000000e+00
-3.892053149999999961e-01 2.698435429999999968e+01 6.753156280999999694e+01 0.000000000000000000e+00 0.000000000000000000e+00 0.000000000000000000e+00
-5.079263250000000118e-01 2.700457983000000084e+01 6.777583312999999521e+01 0.000000000000000000e+00 0.000000000000000000e+00 0.000000000000000000e+00
-5.996621650000000248e-01 2.679147558000000018e+01 6.643491364000000488e+01 0.000000000000000000e+00 0.000000000000000000e+00 0.000000000000000000e+00
6.327673449999999811e-01 2.728088980000000063e+01 6.857634735000000603e+01 0.000000000000000000e+00 0.000000000000000000e+00 0.000000000000000000e+00
-2.117094500000000004e-02 2.703461675999999869e+01 6.752980804000000603e+01 0.000000000000000000e+00 0.000000000000000000e+00 0.000000000000000000e+00
8.131852500000000261e-02 2.706606893000000014e+01 6.764603424000000587e+01 0.000000000000000000e+00 0.000000000000000000e+00 0.000000000000000000e+00
1.092115849999999999e-01 2.700009374000000051e+01 6.717920684999999992e+01 0.000000000000000000e+00 0.000000000000000000e+00 0.000000000000000000e+00
2.162481749999999869e-01 2.701228551999999894e+01 6.716248321999999860e+01 0.000000000000000000e+00 0.000000000000000000e+00 0.000000000000000000e+00
5.831724649999999732e-01 2.730200796000000096e+01 6.876311493000000041e+01 0.000000000000000000e+00 0.000000000000000000e+00 0.000000000000000000e+00
4.545332449999999747e-01 2.731537083999999993e+01 6.897057343000000174e+01 0.000000000000000000e+00 0.000000000000000000e+00 0.000000000000000000e+00
-1.507506500000000034e-02 2.694073706000000001e+01 6.689635468000000174e+01 0.000000000000000000e+00 0.000000000000000000e+00 0.000000000000000000e+00
3.655020250000000082e-01 2.720173482999999948e+01 6.829236602999999661e+01 0.000000000000000000e+00 0.000000000000000000e+00 0.000000000000000000e+00
-3.977522499999999739e-02 2.714657812000000092e+01 6.829562377999999967e+01 0.000000000000000000e+00 0.000000000000000000e+00 0.000000000000000000e+00
1.763596499999999997e-02 2.722950201000000092e+01 6.879746246000000554e+01 0.000000000000000000e+00 0.000000000000000000e+00 0.000000000000000000e+00
8.180700749999999521e-01 2.704005650999999943e+01 6.679564666999999645e+01 0.000000000000000000e+00 0.000000000000000000e+00 0.000000000000000000e+00
-1.770814450000000040e-01 2.715419225999999853e+01 6.847260283999999331e+01 0.000000000000000000e+00 0.000000000000000000e+00 0.000000000000000000e+00
5.641676450000000509e-01 2.722894124999999832e+01 6.829190825999999959e+01 0.000000000000000000e+00 0.000000000000000000e+00 0.000000000000000000e+00
2.505936500000000011e-02 2.719933156999999824e+01 6.858888244999999984e+01 0.000000000000000000e+00 0.000000000000000000e+00 0.000000000000000000e+00
6.625067249999999630e-01 2.716647558000000018e+01 6.778388977000000182e+01 0.000000000000000000e+00 0.000000000000000000e+00 0.000000000000000000e+00
-3.135237500000000177e-02 2.711381367999999981e+01 6.806874084000000380e+01 0.000000000000000000e+00 0.000000000000000000e+00 0.000000000000000000e+00
7.229811149999999520e-01 2.698164968000000030e+01 6.649234008999999901e+01 0.000000000000000000e+00 0.000000000000000000e+00 0.000000000000000000e+00
1.971594349999999940e-01 2.709157781000000043e+01 6.771026611000000628e+01 0.000000000000000000e+00 0.000000000000000000e+00 0.000000000000000000e+00
8.125349549999999477e-01 2.742474965999999981e+01 6.937335967999999298e+01 0.000000000000000000e+00 0.000000000000000000e+00 0.000000000000000000e+00
3.017869499999999844e-02 2.701470022000000171e+01 6.734945679000000496e+01 0.000000000000000000e+00 0.000000000000000000e+00 0.000000000000000000e+00
3.264662249999999988e-01 2.714895467999999923e+01 6.797525023999999405e+01 0.000000000000000000e+00 0.000000000000000000e+00 0.000000000000000000e+00
-5.319665449999999574e-01 2.682434682999999964e+01 6.659259796000000620e+01 0.000000000000000000e+00 0.000000000000000000e+00 0.000000000000000000e+00
1.293455649999999957e-01 2.698652867999999927e+01 6.706999206999999785e+01 0.000000000000000000e+00 0.000000000000000000e+00 0.000000000000000000e+00
-7.901757750000000247e-01 2.677631215999999981e+01 6.650842285000000231e+01 0.000000000000000000e+00 0.000000000000000000e+00 0.000000000000000000e+00
3.503958249999999941e-01 2.725462179000000162e+01 6.865992737000000545e+01 0.000000000000000000e+00 0.000000000000000000e+00 0.000000000000000000e+00
-1.066812050000000012e-01 2.713442068000000162e+01 6.827575683999999967e+01 0.000000000000000000e+00 0.000000000000000000e+00 0.000000000000000000e+00
4.061171049999999783e-01 2.713918523999999977e+01 6.783677672999999686e+01 0.000000000000000000e+00 0.000000000000000000e+00 0.000000000000000000e+00
3.404165749999999990e-01 2.724153356000000059e+01 6.858154297000000099e+01 0.000000000000000000e+00 0.000000000000000000e+00 0.000000000000000000e+00
-6.036904849999999989e-01 2.694458990000000043e+01 6.746257018999999389e+01 0.000000000000000000e+00 0.000000000000000000e+00 0.000000000000000000e+00
1.974167500000000020e-02 2.700346975000000072e+01 6.728392028999999752e+01 0.000000000000000000e+00 0.000000000000000000e+00 0.000000000000000000e+00
-4.569276349999999987e-01 2.684244757000000092e+01 6.664472197999999992e+01 0.000000000000000000e+00 0.000000000000000000e+00 0.000000000000000000e+00
6.580435249999999625e-01 2.705806570000000022e+01 6.706299590999999793e+01 0.000000000000000000e+00 0.000000000000000000e+00 0.000000000000000000e+00
-1.096375950000000044e-01 2.692350606999999840e+01 6.686794281000000240e+01 0.000000000000000000e+00 0.000000000000000000e+00 0.000000000000000000e+00
-6.361726250000000471e-01 2.681128530000000154e+01 6.660089111000000628e+01 0.000000000000000000e+00 0.000000000000000000e+00 0.000000000000000000e+00
5.844559500000000296e-02 2.701677923000000092e+01 6.733740233999999703e+01 0.000000000000000000e+00 0.000000000000000000e+00 0.000000000000000000e+00
-7.906279500000000515e-02 2.696308355000000034e+01 6.710456084999999860e+01 0.000000000000000000e+00 0.000000000000000000e+00 0.000000000000000000e+00
8.217855950000000353e-01 2.713223486000000051e+01 6.740868378000000405e+01 0.000000000000000000e+00 0.000000000000000000e+00 0.000000000000000000e+00
9.704651499999999986e-02 2.703252249000000162e+01 6.740724181999999587e+01 0.000000000000000000e+00 0.000000000000000000e+00 0.000000000000000000e+00
-4.747710499999999861e-02 2.701890782999999985e+01 6.744889831999999785e+01 0.000000000000000000e+00 0.000000000000000000e+00 0.000000000000000000e+00
-1.098130650000000014e-01 2.690538626000000022e+01 6.674694823999999471e+01 0.000000000000000000e+00 0.000000000000000000e+00 0.000000000000000000e+00
5.956503349999999752e-01 2.700742941000000030e+01 6.678165436000000454e+01 0.000000000000000000e+00 0.000000000000000000e+00 0.000000000000000000e+00
3.882376249999999751e-01 2.711142949999999985e+01 6.766759491000000537e+01 0.000000000000000000e+00 0.000000000000000000e+00 0.000000000000000000e+00
6.992783499999999375e-02 2.709401159000000092e+01 6.784335326999999438e+01 0.000000000000000000e+00 0.000000000000000000e+00 0.000000000000000000e+00
-5.415757650000000423e-01 2.687362889999999993e+01 6.693097686999999496e+01 0.000000000000000000e+00 0.000000000000000000e+00 0.000000000000000000e+00
-1.781724450000000126e-01 2.705401449000000014e+01 6.780367278999999314e+01 0.000000000000000000e+00 0.000000000000000000e+00 0.000000000000000000e+00
7.499375499999999528e-02 2.722859792999999939e+01 6.873876190000000008e+01 0.000000000000000000e+00 0.000000000000000000e+00 0.000000000000000000e+00
2.813574349999999891e-01 2.729741505999999873e+01 6.900951385000000471e+01 0.000000000000000000e+00 0.000000000000000000e+00 0.000000000000000000e+00
6.020094449999999764e-01 2.704374533000000014e+01 6.701869202000000314e+01 0.000000000000000000e+00 0.000000000000000000e+00 0.000000000000000000e+00
6.809736749999999450e-01 2.702560263000000162e+01 6.682485961999999802e+01 0.000000000000000000e+00 0.000000000000000000e+00 0.000000000000000000e+00
-1.828225649999999924e-01 2.698357611000000134e+01 6.733687591999999711e+01 0.000000000000000000e+00 0.000000000000000000e+00 0.000000000000000000e+00
6.162115550000000219e-01 2.747202902000000080e+01 6.986978148999999405e+01 0.000000000000000000e+00 0.000000000000000000e+00 0.000000000000000000e+00
-5.985635249999999852e-01 2.689843588000000096e+01 6.714920807000000025e+01 0.000000000000000000e+00 0.000000000000000000e+00 0.000000000000000000e+00
-9.110197500000000170e-02 2.713085012000000162e+01 6.823757172000000537e+01 0.000000000000000000e+00 0.000000000000000000e+00 0.000000000000000000e+00
-1.213334550000000067e-01 2.707140950999999873e+01 6.786782073999999909e+01 0.000000000000000000e+00 0.000000000000000000e+00 0.000000000000000000e+00
1.737257449999999870e-01 2.714513615999999985e+01 6.808994293000000653e+01 0.000000000000000000e+00 0.000000000000000000e+00 0.000000000000000000e+00
-4.625695650000000159e-01 2.699186926000000142e+01 6.764919281000000240e+01 0.000000000000000000e+00 0.000000000000000000e+00 0.000000000000000000e+00
-5.587228250000000340e-01 2.691478567000000055e+01 6.722196959999999422e+01 0.000000000000000000e+00 0.000000000000000000e+00 0.000000000000000000e+00
-5.876496749999999825e-01 2.691134480999999923e+01 6.722550200999999959e+01 0.000000000000000000e+00 0.000000000000000000e+00 0.000000000000000000e+00
-6.418565250000000111e-01 2.694325475999999853e+01 6.748867035000000669e+01 0.000000000000000000e+00 0.000000000000000000e+00 0.000000000000000000e+00
3.085257049999999834e-01 2.725371771000000010e+01 6.869234466999999711e+01 0.000000000000000000e+00 0.000000000000000000e+00 0.000000000000000000e+00
8.387419249999999993e-01 2.749585562000000039e+01 6.982483673000000124e+01 0.000000000000000000e+00 0.000000000000000000e+00 0.000000000000000000e+00
-2.918923849999999764e-01 2.684065847000000105e+01 6.648123932000000025e+01 0.000000000000000000e+00 0.000000000000000000e+00 0.000000000000000000e+00
-2.368577450000000084e-01 2.701272038999999836e+01 6.758138275000000306e+01 0.000000000000000000e+00 0.000000000000000000e+00 0.000000000000000000e+00
1.919867050000000075e-01 2.704705266999999935e+01 6.741725159000000644e+01 0.000000000000000000e+00 0.000000000000000000e+00 0.000000000000000000e+00
3.378874350000000137e-01 2.717455891999999906e+01 6.813598632999999438e+01 0.000000000000000000e+00 0.000000000000000000e+00 0.000000000000000000e+00
8.124434050000000074e-01 2.738526372999999836e+01 6.910938262999999893e+01 0.000000000000000000e+00 0.000000000000000000e+00 0.000000000000000000e+00
-1.923287850000000021e-01 2.707322531000000154e+01 6.794512939000000529e+01 0.000000000000000000e+00 0.000000000000000000e+00 0.000000000000000000e+00
4.367224250000000252e-01 2.737726431000000105e+01 6.940084075999999413e+01 0.000000000000000000e+00 0.000000000000000000e+00 0.000000000000000000e+00
8.046041950000000220e-01 2.749479132000000092e+01 6.984904480000000149e+01 0.000000000000000000e+00 0.000000000000000000e+00 0.000000000000000000e+00
3.922659450000000048e-01 2.711169652999999968e+01 6.766567229999999711e+01 0.000000000000000000e+00 0.000000000000000000e+00 0.000000000000000000e+00
3.614487499999999992e-02 2.696943120999999977e+01 6.704122162000000174e+01 0.000000000000000000e+00 0.000000000000000000e+00 0.000000000000000000e+00
-1.403192050000000024e-01 2.707240896000000063e+01 6.789191436999999496e+01 0.000000000000000000e+00 0.000000000000000000e+00 0.000000000000000000e+00
6.163679650000000176e-01 2.717392949999999985e+01 6.787610626000000025e+01 0.000000000000000000e+00 0.000000000000000000e+00 0.000000000000000000e+00
5.360075450000000297e-01 2.709703282999999985e+01 6.743562316999999950e+01 0.000000000000000000e+00 0.000000000000000000e+00 0.000000000000000000e+00
-1.718095249999999907e-01 2.713947514999999910e+01 6.836933136000000388e+01 0.000000000000000000e+00 0.000000000000000000e+00 0.000000000000000000e+00
-5.345757949999999648e-01 2.686326817999999861e+01 6.685526276000000223e+01 0.000000000000000000e+00 0.000000000000000000e+00 0.000000000000000000e+00
-7.429383750000000397e-01 2.685464697000000101e+01 6.698890686000000017e+01 0.000000000000000000e+00 0.000000000000000000e+00 0.000000000000000000e+00
7.448660350000000374e-01 2.707667761000000084e+01 6.710776520000000289e+01 0.000000000000000000e+00 0.000000000000000000e+00 0.000000000000000000e+00
-3.742173650000000240e-01 2.692964772999999923e+01 6.715195464999999331e+01 0.000000000000000000e+00 0.000000000000000000e+00 0.000000000000000000e+00
-2.112115350000000058e-01 2.685589819000000134e+01 6.650909423999999603e+01 0.000000000000000000e+00 0.000000000000000000e+00 0.000000000000000000e+00
-6.036370749999999674e-01 2.688891058000000100e+01 6.709015655999999694e+01 0.000000000000000000e+00 0.000000000000000000e+00 0.000000000000000000e+00
-2.791207749999999876e-01 2.686388235000000080e+01 6.662483215000000314e+01 0.000000000000000000e+00 0.000000000000000000e+00 0.000000000000000000e+00
-3.042367449999999751e-01 2.692855291000000051e+01 6.708036803999999620e+01 0.000000000000000000e+00 0.000000000000000000e+00 0.000000000000000000e+00
3.338438550000000227e-01 2.715906362000000129e+01 6.803608703999999818e+01 0.000000000000000000e+00 0.000000000000000000e+00 0.000000000000000000e+00
5.006089500000000109e-02 2.719733648000000059e+01 6.855258179000000496e+01 0.000000000000000000e+00 0.000000000000000000e+00 0.000000000000000000e+00
8.265539650000000016e-01 2.732042913000000084e+01 6.866283416999999645e+01 0.000000000000000000e+00 0.000000000000000000e+00 0.000000000000000000e+00
5.225187749999999909e-01 2.730939702999999952e+01 6.886819457999999372e+01 0.000000000000000000e+00 0.000000000000000000e+00 0.000000000000000000e+00
-4.415925450000000030e-01 2.689443426000000059e+01 6.697833251999999504e+01 0.000000000000000000e+00 0.000000000000000000e+00 0.000000000000000000e+00
1.663443049999999979e-01 2.728779820999999828e+01 6.905078125000000000e+01 0.000000000000000000e+00 0.000000000000000000e+00 0.000000000000000000e+00
1.353651549999999870e-01 2.710330800999999923e+01 6.784544372999999950e+01 0.000000000000000000e+00 0.000000000000000000e+00 0.000000000000000000e+00
-1.946824550000000043e-01 2.688504628999999824e+01 6.668882750999999587e+01 0.000000000000000000e+00 0.000000000000000000e+00 0.000000000000000000e+00
-5.436318850000000369e-01 2.687652426000000006e+01 6.695222472999999752e+01 0.000000000000000000e+00 0.000000000000000000e+00 0.000000000000000000e+00
-4.206880049999999760e-01 2.705017309000000125e+01 6.800061798000000124e+01 0.000000000000000000e+00 0.000000000000000000e+00 0.000000000000000000e+00
9.362473500000000060e-02 2.723134831999999861e+01 6.874005889999999397e+01 0.000000000000000000e+00 0.000000000000000000e+00 0.000000000000000000e+00
6.427885549999999837e-01 2.743379811999999873e+01 6.958970641999999884e+01 0.000000000000000000e+00 0.000000000000000000e+00 0.000000000000000000e+00
-1.634896750000000010e-01 2.692993382999999952e+01 6.696038817999999537e+01 0.000000000000000000e+00 0.000000000000000000e+00 0.000000000000000000e+00
7.875219850000000354e-01 2.720472174000000010e+01 6.792489623999999537e+01 0.000000000000000000e+00 0.000000000000000000e+00 0.000000000000000000e+00
6.311117649999999912e-01 2.711662511999999836e+01 6.747934723000000190e+01 0.000000000000000000e+00 0.000000000000000000e+00 0.000000000000000000e+00
-1.875756749999999973e-01 2.690914373000000026e+01 6.684346770999999876e+01 0.000000000000000000e+00 0.000000000000000000e+00 0.000000000000000000e+00
-2.422364750000000067e-01 2.712061909999999898e+01 6.830789185000000430e+01 0.000000000000000000e+00 0.000000000000000000e+00 0.000000000000000000e+00
6.865622049999999810e-01 2.725628499999999832e+01 6.836241913000000636e+01 0.000000000000000000e+00 0.000000000000000000e+00 0.000000000000000000e+00
-2.421715000000000065e-03 2.709239416000000134e+01 6.789896392999999364e+01 0.000000000000000000e+00 0.000000000000000000e+00 0.000000000000000000e+00
8.511892850000000177e-01 2.722766714000000121e+01 6.801987456999999893e+01 0.000000000000000000e+00 0.000000000000000000e+00 0.000000000000000000e+00
3.316380164999999991e+00 2.797400122000000167e+01 7.195755767999999364e+01 0.000000000000000000e+00 0.000000000000000000e+00 0.000000000000000000e+00
2.882832195000000208e+00 2.795869284000000121e+01 7.207562255999999934e+01 0.000000000000000000e+00 0.000000000000000000e+00 0.000000000000000000e+00
2.806439065000000177e+00 2.795712881000000039e+01 7.211392974999999694e+01 0.000000000000000000e+00 0.000000000000000000e+00 0.000000000000000000e+00
2.365677504999999847e+00 2.794037465999999981e+01 7.221551513999999372e+01 0.000000000000000000e+00 0.000000000000000000e+00 0.000000000000000000e+00
2.799477244999999836e+00 2.800073460999999853e+01 7.263682556000000545e+01 0.000000000000000000e+00 0.000000000000000000e+00 0.000000000000000000e+00
2.104923864999999950e+00 2.796448355000000063e+01 7.268907928000000140e+01 0.000000000000000000e+00 0.000000000000000000e+00 0.000000000000000000e+00
2.573723465000000044e+00 2.800483540999999832e+01 7.284181976000000702e+01 0.000000000000000000e+00 0.000000000000000000e+00 0.000000000000000000e+00
2.312588354999999929e+00 2.801927023000000005e+01 7.319363402999999835e+01 0.000000000000000000e+00 0.000000000000000000e+00 0.000000000000000000e+00
3.043690344999999908e+00 2.807845525999999836e+01 7.338756560999999579e+01 0.000000000000000000e+00 0.000000000000000000e+00 0.000000000000000000e+00
3.175381325000000032e+00 2.801238851000000096e+01 7.251429749000000413e+01 0.000000000000000000e+00 0.000000000000000000e+00 0.000000000000000000e+00
2.977310805000000116e+00 2.804663687000000039e+01 7.305696106000000611e+01 0.000000000000000000e+00 0.000000000000000000e+00 0.000000000000000000e+00
2.499642034999999929e+00 2.801499013999999832e+01 7.301339722000000165e+01 0.000000000000000000e+00 0.000000000000000000e+00 0.000000000000000000e+00
3.227280284999999971e+00 2.800564031000000043e+01 7.239841461000000322e+01 0.000000000000000000e+00 0.000000000000000000e+00 0.000000000000000000e+00
2.421967174999999806e+00 2.797738104000000092e+01 7.262204742000000124e+01 0.000000000000000000e+00 0.000000000000000000e+00 0.000000000000000000e+00
1.888039255000000027e+00 2.792814474000000047e+01 7.240926360999999645e+01 0.000000000000000000e+00 0.000000000000000000e+00 0.000000000000000000e+00
3.095860145000000063e+00 2.800605612000000022e+01 7.249443053999999620e+01 0.000000000000000000e+00 0.000000000000000000e+00 0.000000000000000000e+00
1.984127664999999929e+00 2.793741063999999952e+01 7.245233154000000297e+01 0.000000000000000000e+00 0.000000000000000000e+00 0.000000000000000000e+00
2.342095045000000209e+00 2.794990758999999869e+01 7.235216522000000339e+01 0.000000000000000000e+00 0.000000000000000000e+00 0.000000000000000000e+00
2.349175124999999920e+00 2.795033864999999906e+01 7.235238646999999901e+01 0.000000000000000000e+00 0.000000000000000000e+00 0.000000000000000000e+00
2.474381114999999909e+00 2.802920370000000005e+01 7.319908141999999884e+01 0.000000000000000000e+00 0.000000000000000000e+00 0.000000000000000000e+00
2.475693365000000146e+00 2.799651555999999886e+01 7.281130980999999736e+01 0.000000000000000000e+00 0.000000000000000000e+00 0.000000000000000000e+00
2.400570534999999950e+00 2.798010473000000076e+01 7.266905975000000240e+01 0.000000000000000000e+00 0.000000000000000000e+00 0.000000000000000000e+00
3.051117565000000198e+00 2.802294377999999853e+01 7.272533416999999645e+01 0.000000000000000000e+00 0.000000000000000000e+00 0.000000000000000000e+00
2.747101455000000136e+00 2.802060536999999840e+01 7.290835570999999504e+01 0.000000000000000000e+00 0.000000000000000000e+00 0.000000000000000000e+00
2.666626594999999877e+00 2.801695851999999931e+01 7.292092895999999769e+01 0.000000000000000000e+00 0.000000000000000000e+00 0.000000000000000000e+00
2.905659345000000116e+00 2.804742651000000109e+01 7.311593627999999967e+01 0.000000000000000000e+00 0.000000000000000000e+00 0.000000000000000000e+00
2.600964214999999857e+00 2.802914648000000142e+01 7.311067963000000702e+01 0.000000000000000000e+00 0.000000000000000000e+00 0.000000000000000000e+00
3.061344764999999857e+00 2.797260885000000030e+01 7.212239838000000702e+01 0.000000000000000000e+00 0.000000000000000000e+00 0.000000000000000000e+00
2.636109015000000166e+00 2.799065999999999832e+01 7.263079070999999942e+01 0.000000000000000000e+00 0.000000000000000000e+00 0.000000000000000000e+00
1.948906564999999924e+00 2.797157507000000010e+01 7.288114165999999727e+01 0.000000000000000000e+00 0.000000000000000000e+00 0.000000000000000000e+00
3.032204295000000105e+00 2.800647955000000167e+01 7.254353333000000248e+01 0.000000000000000000e+00 0.000000000000000000e+00 0.000000000000000000e+00
2.455082565000000105e+00 2.801822118999999844e+01 7.308251190000000008e+01 0.000000000000000000e+00 0.000000000000000000e+00 0.000000000000000000e+00
2.649498604999999785e+00 2.803276663000000113e+01 7.311994171000000620e+01 0.000000000000000000e+00 0.000000000000000000e+00 0.000000000000000000e+00
2.810860304999999837e+00 2.801050023999999894e+01 7.274456786999999736e+01 0.000000000000000000e+00 0.000000000000000000e+00 0.000000000000000000e+00
2.803940444999999837e+00 2.800998906999999960e+01 7.274328613000000132e+01 0.000000000000000000e+00 0.000000000000000000e+00 0.000000000000000000e+00
2.454151775000000146e+00 2.799915533000000067e+01 7.285744476000000702e+01 0.000000000000000000e+00 0.000000000000000000e+00 0.000000000000000000e+00
2.844589855000000167e+00 2.799641255999999956e+01 7.255442809999999554e+01 0.000000000000000000e+00 0.000000000000000000e+00 0.000000000000000000e+00
2.177998205000000187e+00 2.800034932999999882e+01 7.306298065000000008e+01 0.000000000000000000e+00 0.000000000000000000e+00 0.000000000000000000e+00
2.522526404999999805e+00 2.800268773999999894e+01 7.285188293000000215e+01 0.000000000000000000e+00 0.000000000000000000e+00 0.000000000000000000e+00
3.071129464999999836e+00 2.805423193000000026e+01 7.308184052000000008e+01 0.000000000000000000e+00 0.000000000000000000e+00 0.000000000000000000e+00
2.656429914999999919e+00 2.804419927000000001e+01 7.325045776000000330e+01 0.000000000000000000e+00 0.000000000000000000e+00 0.000000000000000000e+00
2.947903305000000085e+00 2.805485372000000055e+01 7.317457580999999323e+01 0.000000000000000000e+00 0.000000000000000000e+00 0.000000000000000000e+00
3.094540265000000012e+00 2.797875814000000005e+01 7.217221831999999893e+01 0.000000000000000000e+00 0.000000000000000000e+00 0.000000000000000000e+00
2.982689525000000064e+00 2.796423941000000113e+01 7.207790375000000438e+01 0.000000000000000000e+00 0.000000000000000000e+00 0.000000000000000000e+00
2.294430395000000011e+00 2.799449376999999828e+01 7.291296386999999868e+01 0.000000000000000000e+00 0.000000000000000000e+00 0.000000000000000000e+00
3.247776655000000012e+00 2.799391011999999890e+01 7.224538422000000537e+01 0.000000000000000000e+00 0.000000000000000000e+00 0.000000000000000000e+00
2.202026984999999826e+00 2.794816808999999935e+01 7.242866515999999422e+01 0.000000000000000000e+00 0.000000000000000000e+00 0.000000000000000000e+00
2.560444495000000042e+00 2.800283651000000162e+01 7.282736968999999760e+01 0.000000000000000000e+00 0.000000000000000000e+00 0.000000000000000000e+00
1.908379225000000012e+00 2.794826344999999890e+01 7.263328552000000116e+01 0.000000000000000000e+00 0.000000000000000000e+00 0.000000000000000000e+00
3.061337135000000043e+00 2.800465993999999981e+01 7.250183105000000694e+01 0.000000000000000000e+00 0.000000000000000000e+00 0.000000000000000000e+00
3.225769665000000064e+00 2.802830343000000113e+01 7.266774750000000438e+01 0.000000000000000000e+00 0.000000000000000000e+00 0.000000000000000000e+00
3.152832655000000095e+00 2.799342564999999894e+01 7.230542755000000454e+01 0.000000000000000000e+00 0.000000000000000000e+00 0.000000000000000000e+00
3.086105964999999784e+00 2.797112874999999832e+01 7.208773041000000603e+01 0.000000000000000000e+00 0.000000000000000000e+00 0.000000000000000000e+00
1.770683905000000058e+00 2.796973257000000146e+01 7.298282623000000058e+01 0.000000000000000000e+00 0.000000000000000000e+00 0.000000000000000000e+00
2.442516944999999939e+00 2.798332433999999935e+01 7.267813873000000058e+01 0.000000000000000000e+00 0.000000000000000000e+00 0.000000000000000000e+00
2.934441234999999981e+00 2.804713659000000092e+01 7.309257506999999521e+01 0.000000000000000000e+00 0.000000000000000000e+00 0.000000000000000000e+00
2.473698285000000219e+00 2.798504476000000096e+01 7.267692565999999488e+01 0.000000000000000000e+00 0.000000000000000000e+00 0.000000000000000000e+00
2.403454444999999939e+00 2.800740270000000010e+01 7.299022675000000504e+01 0.000000000000000000e+00 0.000000000000000000e+00 0.000000000000000000e+00
2.692951825000000188e+00 2.801025990999999848e+01 7.282343292000000190e+01 0.000000000000000000e+00 0.000000000000000000e+00 0.000000000000000000e+00
1.754223494999999966e+00 2.794314031000000043e+01 7.267947388000000331e+01 0.000000000000000000e+00 0.000000000000000000e+00 0.000000000000000000e+00
2.791687635000000167e+00 2.803032140999999910e+01 7.299246979000000124e+01 0.000000000000000000e+00 0.000000000000000000e+00 0.000000000000000000e+00
1.906254434999999914e+00 2.794053488000000129e+01 7.254325867000000017e+01 0.000000000000000000e+00 0.000000000000000000e+00 0.000000000000000000e+00
2.656029365000000197e+00 2.798340062999999844e+01 7.253108978000000207e+01 0.000000000000000000e+00 0.000000000000000000e+00 0.000000000000000000e+00
2.710075994999999960e+00 2.798560933999999989e+01 7.251976012999999455e+01 0.000000000000000000e+00 0.000000000000000000e+00 0.000000000000000000e+00
2.409180305000000022e+00 2.802858189999999894e+01 7.323696898999999405e+01 0.000000000000000000e+00 0.000000000000000000e+00 0.000000000000000000e+00
2.677872325000000053e+00 2.800960378999999989e+01 7.282612609999999620e+01 0.000000000000000000e+00 0.000000000000000000e+00 0.000000000000000000e+00
1.841828014999999930e+00 2.793794469999999919e+01 7.255728148999999405e+01 0.000000000000000000e+00 0.000000000000000000e+00 0.000000000000000000e+00
2.016693735000000043e+00 2.794595174999999898e+01 7.253089905000000215e+01 0.000000000000000000e+00 0.000000000000000000e+00 0.000000000000000000e+00
2.313629774999999889e+00 2.797219686000000038e+01 7.263573456000000306e+01 0.000000000000000000e+00 0.000000000000000000e+00 0.000000000000000000e+00
2.992935805000000116e+00 2.796724156999999877e+01 7.210632323999999471e+01 0.000000000000000000e+00 0.000000000000000000e+00 0.000000000000000000e+00
2.979519514999999785e+00 2.802749090000000010e+01 7.282875823999999909e+01 0.000000000000000000e+00 0.000000000000000000e+00 0.000000000000000000e+00
2.046909954999999837e+00 2.798172216000000034e+01 7.293331145999999876e+01 0.000000000000000000e+00 0.000000000000000000e+00 0.000000000000000000e+00
3.294865274999999816e+00 2.809265355999999869e+01 7.340274811000000454e+01 0.000000000000000000e+00 0.000000000000000000e+00 0.000000000000000000e+00
3.532951975000000022e+00 2.803998784999999927e+01 7.263969421000000182e+01 0.000000000000000000e+00 0.000000000000000000e+00 0.000000000000000000e+00
3.521542215000000198e+00 2.800609808000000100e+01 7.223447418000000653e+01 0.000000000000000000e+00 0.000000000000000000e+00 0.000000000000000000e+00
3.265408185000000074e+00 2.806426077000000063e+01 7.307357025000000306e+01 0.000000000000000000e+00 0.000000000000000000e+00 0.000000000000000000e+00
3.262692115000000115e+00 2.808818654999999964e+01 7.336528778000000273e+01 0.000000000000000000e+00 0.000000000000000000e+00 0.000000000000000000e+00
3.305294654999999970e+00 2.805919103000000092e+01 7.299127959999999860e+01 0.000000000000000000e+00 0.000000000000000000e+00 0.000000000000000000e+00
3.269920964999999846e+00 2.806003026999999861e+01 7.301984405999999694e+01 0.000000000000000000e+00 0.000000000000000000e+00 0.000000000000000000e+00
3.517964034999999878e+00 2.802986363999999853e+01 7.252471923999999603e+01 0.000000000000000000e+00 0.000000000000000000e+00 0.000000000000000000e+00
3.590237285000000167e+00 2.800092152999999939e+01 7.213589478000000099e+01 0.000000000000000000e+00 0.000000000000000000e+00 0.000000000000000000e+00
3.438484814999999806e+00 2.799083929000000026e+01 7.209258269999999413e+01 0.000000000000000000e+00 0.000000000000000000e+00 0.000000000000000000e+00
3.233250285000000002e+00 2.807681875000000105e+01 7.324269103999999686e+01 0.000000000000000000e+00 0.000000000000000000e+00 0.000000000000000000e+00
3.309750225000000157e+00 2.806253270999999927e+01 7.302948761000000388e+01 0.000000000000000000e+00 0.000000000000000000e+00 0.000000000000000000e+00
3.577660224999999805e+00 2.802881079000000142e+01 7.248079681000000107e+01 0.000000000000000000e+00 0.000000000000000000e+00 0.000000000000000000e+00
3.287239694999999795e+00 2.805170277999999939e+01 7.290979004000000430e+01 0.000000000000000000e+00 0.000000000000000000e+00 0.000000000000000000e+00
5.129421855000000363e+00 2.819216756999999873e+01 7.355768584999999860e+01 0.000000000000000000e+00 0.000000000000000000e+00 0.000000000000000000e+00
4.558762214999999784e+00 2.810871343000000167e+01 7.289717102000000182e+01 0.000000000000000000e+00 0.000000000000000000e+00 0.000000000000000000e+00
4.247868204999999620e+00 2.805698994999999840e+01 7.247212218999999322e+01 0.000000000000000000e+00 0.000000000000000000e+00 0.000000000000000000e+00
5.347794194999999640e+00 2.823321752000000018e+01 7.390542603000000099e+01 0.000000000000000000e+00 0.000000000000000000e+00 0.000000000000000000e+00
5.662167215000000198e+00 2.827120427999999919e+01 7.418606567000000496e+01 0.000000000000000000e+00 0.000000000000000000e+00 0.000000000000000000e+00
5.400677345000000074e+00 2.823041372000000138e+01 7.385682678000000578e+01 0.000000000000000000e+00 0.000000000000000000e+00 0.000000000000000000e+00
5.118092204999999950e+00 2.823956137000000055e+01 7.405588530999999364e+01 0.000000000000000000e+00 0.000000000000000000e+00 0.000000000000000000e+00
4.820889134999999825e+00 2.821598271999999952e+01 7.391912078999999380e+01 0.000000000000000000e+00 0.000000000000000000e+00 0.000000000000000000e+00
4.678070684999999784e+00 2.819245748000000162e+01 7.372634125000000438e+01 0.000000000000000000e+00 0.000000000000000000e+00 0.000000000000000000e+00
5.194164895000000115e+00 2.814409475000000072e+01 7.303282165999999620e+01 0.000000000000000000e+00 0.000000000000000000e+00 0.000000000000000000e+00
5.195290234999999868e+00 2.822469930999999832e+01 7.387260437000000479e+01 0.000000000000000000e+00 0.000000000000000000e+00 0.000000000000000000e+00
5.466160444999999868e+00 2.824492101999999960e+01 7.398401642000000322e+01 0.000000000000000000e+00 0.000000000000000000e+00 0.000000000000000000e+00
4.888756414999999578e+00 2.820927267000000072e+01 7.382427216000000669e+01 0.000000000000000000e+00 0.000000000000000000e+00 0.000000000000000000e+00
5.019798895000000094e+00 2.814559773999999948e+01 7.311246490000000620e+01 0.000000000000000000e+00 0.000000000000000000e+00 0.000000000000000000e+00
5.353867195000000301e+00 2.818533163000000030e+01 7.340405273000000363e+01 0.000000000000000000e+00 0.000000000000000000e+00 0.000000000000000000e+00
4.468212744999999764e+00 2.807669286999999869e+01 7.259663390999999422e+01 0.000000000000000000e+00 0.000000000000000000e+00 0.000000000000000000e+00
5.424156804999999970e+00 2.819300679999999915e+01 7.345829772999999818e+01 0.000000000000000000e+00 0.000000000000000000e+00 0.000000000000000000e+00
5.040604254999999867e+00 2.816990498999999915e+01 7.335819243999999628e+01 0.000000000000000000e+00 0.000000000000000000e+00 0.000000000000000000e+00
4.817070625000000383e+00 2.814723805999999939e+01 7.320397948999999471e+01 0.000000000000000000e+00 0.000000000000000000e+00 0.000000000000000000e+00
4.957619335000000405e+00 2.813104085999999882e+01 7.298355865000000620e+01 0.000000000000000000e+00 0.000000000000000000e+00 0.000000000000000000e+00
4.902706764999999578e+00 2.821603612999999910e+01 7.388967895999999769e+01 0.000000000000000000e+00 0.000000000000000000e+00 0.000000000000000000e+00
5.374035505000000157e+00 2.816095952999999952e+01 7.314259337999999389e+01 0.000000000000000000e+00 0.000000000000000000e+00 0.000000000000000000e+00
4.930172585000000218e+00 2.815748433999999989e+01 7.326928710999999339e+01 0.000000000000000000e+00 0.000000000000000000e+00 0.000000000000000000e+00
5.443077705000000321e+00 2.824174336999999824e+01 7.395935821999999860e+01 0.000000000000000000e+00 0.000000000000000000e+00 0.000000000000000000e+00
4.903500225000000157e+00 2.814206915000000109e+01 7.311839294000000677e+01 0.000000000000000000e+00 0.000000000000000000e+00 0.000000000000000000e+00
5.364010474999999722e+00 2.821740179000000026e+01 7.373461914000000661e+01 0.000000000000000000e+00 0.000000000000000000e+00 0.000000000000000000e+00
4.926666885000000384e+00 2.818163519000000150e+01 7.352232361000000083e+01 0.000000000000000000e+00 0.000000000000000000e+00 0.000000000000000000e+00
5.286995554999999847e+00 2.820647268000000096e+01 7.364897156000000678e+01 0.000000000000000000e+00 0.000000000000000000e+00 0.000000000000000000e+00
5.505196234999999660e+00 2.822500447999999906e+01 7.376205444000000000e+01 0.000000000000000000e+00 0.000000000000000000e+00 0.000000000000000000e+00
4.107609414999999764e+00 2.806571797999999873e+01 7.261457061999999496e+01 0.000000000000000000e+00 0.000000000000000000e+00 0.000000000000000000e+00
4.811016705000000115e+00 2.820533208999999886e+01 7.381175231999999653e+01 0.000000000000000000e+00 0.000000000000000000e+00 0.000000000000000000e+00
4.787243515000000116e+00 2.818720846000000080e+01 7.363156127999999967e+01 0.000000000000000000e+00 0.000000000000000000e+00 0.000000000000000000e+00
5.201462414999999950e+00 2.819585637999999861e+01 7.356970977999999661e+01 0.000000000000000000e+00 0.000000000000000000e+00 0.000000000000000000e+00
