2.524392656319999872e+01 1.678483991790000118e+01 4.735545370149999655e+01 5.091901304140713513e-01 7.974857320815069706e-01 -3.236385610759697218e-01
2.513700847899999857e+01 1.698398671200000010e+01 4.769360213259999881e+01 5.082870828443595279e-01 7.983380494238949687e-01 -3.229560345552038858e-01
2.502964410530000094e+01 1.718254818449999988e+01 4.803197959020000241e+01 5.073332723244774467e-01 7.996097048094065185e-01 -3.213055722628403443e-01
2.492199207290000018e+01 1.738073238429999989e+01 4.837050466830000062e+01 5.063240812195353158e-01 8.008426033887872109e-01 -3.198234659537403379e-01
2.481421101260000128e+01 1.757874736029999951e+01 4.870909596090000093e+01 5.052345459598793775e-01 8.020526580417937090e-01 -3.185115183110466819e-01
2.640511171940000068e+01 1.501492367850000065e+01 4.485161738269999887e+01 5.176646699590663481e-01 7.896908649849598838e-01 -3.292592097959854969e-01
2.630772155809999902e+01 1.522656661909999976e+01 4.518487628100000109e+01 5.169405774335315007e-01 7.908924998909521165e-01 -3.275080045112293559e-01
2.620861606109999897e+01 1.543595984739999949e+01 4.551901545399999804e+01 5.162030740167847798e-01 7.920064269620683550e-01 -3.259757752140484688e-01
2.610795385919999845e+01 1.564331141219999921e+01 4.585395349579999902e+01 5.154815706710209611e-01 7.930249446417472203e-01 -3.246385489656010148e-01
2.600589358319999889e+01 1.584882936220000005e+01 4.618960900030000261e+01 5.151463403146071540e-01 7.934256290158522296e-01 -3.241913312864274643e-01
2.590259386379999995e+01 1.605272174650000139e+01 4.652590056140000030e+01 5.149584318315012510e-01 7.937362115087694958e-01 -3.237292696457135799e-01
2.579821333190000132e+01 1.625519661379999903e+01 4.686274677320000137e+01 5.144402703612136474e-01 7.943175980865917474e-01 -3.231265411578396196e-01
2.569291061810000087e+01 1.645646201299999944e+01 4.720006622959999731e+01 5.137394492071767349e-01 7.950243530696463612e-01 -3.225028005374476758e-01
2.558684435340000007e+01 1.665672599290000022e+01 4.753777752460000272e+01 5.128993558484489235e-01 7.957650692800168901e-01 -3.220127408721836781e-01
2.548017316829999857e+01 1.685619660240000073e+01 4.787579925210000198e+01 5.119667385722261876e-01 7.966306882660195710e-01 -3.213558854424883315e-01
2.537305569380000136e+01 1.705508189040000033e+01 4.821405000619999726e+01 5.109466135462750191e-01 7.979610311013615176e-01 -3.196744452552403581e-01
2.526565056060000103e+01 1.725358990559999839e+01 4.855244838080000136e+01 5.098716590940975957e-01 7.992555377439399811e-01 -3.181532282380264420e-01
2.515811639949999901e+01 1.745192869699999960e+01 4.889091296979999868e+01 5.087160913540687002e-01 8.005312587345699837e-01 -3.167927432664514598e-01
2.674393653170000107e+01 1.488144169459999944e+01 4.503604163730000209e+01 5.211539176050449251e-01 7.879019762371204383e-01 -3.280382142472949569e-01
2.664679326959999983e+01 1.509340845070000015e+01 4.536917383200000131e+01 5.204506315829857677e-01 7.891232022011693825e-01 -3.262142115736888504e-01
2.654793467180000022e+01 1.530312549439999970e+01 4.570318630149999706e+01 5.197319909650727210e-01 7.902511475922470163e-01 -3.246256017270020000e-01
2.644751936910000012e+01 1.551080087459999923e+01 4.603799763970000214e+01 5.190264519039737845e-01 7.912796139287386898e-01 -3.232462139063014273e-01
2.634570599230000099e+01 1.571664264009999989e+01 4.637352644060000273e+01 5.187502271398316545e-01 7.916589892524785732e-01 -3.227603547186629895e-01
2.624265317209999893e+01 1.592085883979999927e+01 4.670969129819999921e+01 5.185919611425326980e-01 7.919747416354977476e-01 -3.222396413381326541e-01
2.613851953929999894e+01 1.612365752250000028e+01 4.704641080649999907e+01 5.180951116323390115e-01 7.925675213599708835e-01 -3.215807509599826752e-01
2.603346372480000070e+01 1.632524673709999874e+01 4.738360355929999912e+01 5.173978255826926498e-01 7.932939615963464641e-01 -3.209114840218032505e-01
2.592764435919999855e+01 1.652583453249999934e+01 4.772118815080000331e+01 5.165437123923877216e-01 7.940608353444488232e-01 -3.203903602794036520e-01
2.582122007330000102e+01 1.672562895740000144e+01 4.805908317480000136e+01 5.155801215857755970e-01 7.949527133318292638e-01 -3.197300764581889054e-01
2.571434949800000069e+01 1.692483806079999908e+01 4.839720722530000074e+01 5.145034093255581586e-01 7.963359099089226678e-01 -3.180178617340623792e-01
2.560719126400000079e+01 1.712366989150000052e+01 4.873547889630000185e+01 5.133721377421530674e-01 7.976862818769568930e-01 -3.164579654478106296e-01
2.549990400209999919e+01 1.732233249829999977e+01 4.907381678170000328e+01 5.121598779770057952e-01 7.990219144551754527e-01 -3.150495827817660355e-01
2.708066648810000032e+01 1.474521224659999952e+01 4.522154092859999963e+01 5.246321215218691103e-01 7.860827730040240713e-01 -3.268562544204513531e-01
2.698377012519999951e+01 1.495750281810000004e+01 4.555454641970000296e+01 5.239427491059083231e-01 7.873263428885747262e-01 -3.249634217154995230e-01
2.688515842660000033e+01 1.516754367729999942e+01 4.588843218569999749e+01 5.232372420888506959e-01 7.884710633492268972e-01 -3.233205387107244699e-01
2.678499002299999887e+01 1.537554287290000055e+01 4.622311682029999957e+01 5.225430636681439589e-01 7.895121261958162329e-01 -3.218995949082129604e-01
2.668342354540000017e+01 1.558170845379999925e+01 4.655851891769999895e+01 5.223152692346396675e-01 7.898848341624908898e-01 -3.213544900642280044e-01
2.658061762439999853e+01 1.578624846890000022e+01 4.689455707180000132e+01 5.221816442446608475e-01 7.902107501035997572e-01 -3.207698564931695251e-01
2.647673089079999897e+01 1.598937096709999928e+01 4.723114987649999819e+01 5.217009562648128318e-01 7.908196567529283127e-01 -3.200505940090730417e-01
2.637192197539999938e+01 1.619128399710000110e+01 4.756821592579999702e+01 5.210037127505120491e-01 7.915698651858587009e-01 -3.193309878947285241e-01
2.626634950900000121e+01 1.639219560789999974e+01 4.790567381360000354e+01 5.201338245423920981e-01 7.923666068957337938e-01 -3.187725911107253673e-01
2.616017212239999878e+01 1.659231384830000167e+01 4.824344213410000037e+01 5.191372035222748815e-01 7.932939719971004999e-01 -3.180899839858773448e-01
2.605354844629999889e+01 1.679184676710000090e+01 4.858143948099999676e+01 5.180120827783186721e-01 7.947251339245142709e-01 -3.163470303390426008e-01
2.594663711149999941e+01 1.699100241320000038e+01 4.891958444849999665e+01 5.168324410061867491e-01 7.961265297136629338e-01 -3.147487515617284348e-01
2.583959674870000001e+01 1.718998883540000122e+01 4.925779563039999687e+01 5.155713420450708240e-01 7.975171886676444277e-01 -3.132930338221730504e-01
2.741532451699999839e+01 1.460626540570000031e+01 4.540810349019999848e+01 5.286702828188993841e-01 7.836728212806316485e-01 -3.261359245011805075e-01
2.731867505319999978e+01 1.481887979260000066e+01 4.574098227780000059e+01 5.279426541519630645e-01 7.850058273157427546e-01 -3.241024606622219806e-01
2.722031025380000102e+01 1.502924446719999985e+01 4.607474134019999923e+01 5.272064104389623251e-01 7.862227523271388963e-01 -3.223463735102395922e-01
2.712038874949999823e+01 1.523756747830000080e+01 4.640929927130000010e+01 5.264856572490216324e-01 7.873233161181629747e-01 -3.208346125463477638e-01
2.701906917100000172e+01 1.544405687459999932e+01 4.674457466509999648e+01 5.258455856453256860e-01 7.881037013850801243e-01 -3.199671481894053038e-01
2.691651014920000051e+01 1.564892070520000011e+01 4.708048611560000296e+01 5.257321630360213272e-01 7.884435396187339240e-01 -3.193156394274295762e-01
2.681287031480000138e+01 1.585236701870000076e+01 4.741695221669999682e+01 5.252633684386013302e-01 7.890721405272705935e-01 -3.185334375230414183e-01
2.670830829859999866e+01 1.605460386420000063e+01 4.775389156250000156e+01 5.245634668066637696e-01 7.898490937952882263e-01 -3.177602528991571584e-01
2.660298273140000092e+01 1.625583929040000086e+01 4.809122274679999975e+01 5.236767586710772138e-01 7.906782073705012071e-01 -3.171602510043227130e-01
2.649705224390000069e+01 1.645628134620000083e+01 4.842886436370000069e+01 5.227749364018527967e-01 7.917317178496880992e-01 -3.160178045946470116e-01
2.639067546700000122e+01 1.665613808049999989e+01 4.876673500710000297e+01 5.216000909103125638e-01 7.932211360395798883e-01 -3.142189913140704949e-01
2.628401103139999861e+01 1.685561754200000095e+01 4.910475327099999987e+01 5.203717314336919753e-01 7.946882431420901893e-01 -3.125441686169168065e-01
2.617721756779999964e+01 1.705492777970000162e+01 4.944283774929999709e+01 5.190621802669490581e-01 7.961548368267318265e-01 -3.109854157575905886e-01
2.774793354670000056e+01 1.446463124319999949e+01 4.559571755569999851e+01 5.325070098843297517e-01 7.813753808130963208e-01 -3.254055910448364619e-01
2.765153098220000061e+01 1.467756944559999965e+01 4.592846963969999763e+01 5.317491896372393834e-01 7.827874825738264652e-01 -3.232438034144982653e-01
2.755341308190000049e+01 1.488825793560000044e+01 4.626210199860000216e+01 5.309891411923016724e-01 7.840680828918116241e-01 -3.213841522636440851e-01
2.745373847680000168e+01 1.509690476199999942e+01 4.659653322610000004e+01 5.302482427839517731e-01 7.852208991438410779e-01 -3.197889000141642124e-01
2.735266579749999849e+01 1.530371797379999954e+01 4.693168191640000231e+01 5.293436252192681435e-01 7.863161723997642572e-01 -3.185941045630115154e-01
2.725035367490000127e+01 1.550890561980000015e+01 4.726746666340000047e+01 5.292464698799881351e-01 7.866728291304209142e-01 -3.178742424725704008e-01
2.714696073969999901e+01 1.571267574880000062e+01 4.760380606089999844e+01 5.287860112725617512e-01 7.873238503451825965e-01 -3.170276154534344415e-01
2.704264562270000027e+01 1.591523640970000031e+01 4.794061870310000018e+01 5.280813620692299537e-01 7.881297313913001590e-01 -3.161986741467836537e-01
2.693756695469999940e+01 1.611679565140000037e+01 4.827782318389999716e+01 5.271773002844247769e-01 7.889928865884452414e-01 -3.155539874215790852e-01
2.683188336639999960e+01 1.631756152259999837e+01 4.861533809729999689e+01 5.262934088031824276e-01 7.901790864345590304e-01 -3.140577322910104718e-01
2.672575348859999878e+01 1.651774207220000079e+01 4.895308203710000328e+01 5.250760263598818200e-01 7.917197071941997066e-01 -3.122099802736089114e-01
2.661933595220000015e+01 1.671754534920000168e+01 4.929097359739999717e+01 5.238048561044095219e-01 7.932450616085255923e-01 -3.104685893212474346e-01
2.651278938780000161e+01 1.691717940230000039e+01 4.962893137220000028e+01 5.224513461408771819e-01 7.947794844916862278e-01 -3.088205983199868165e-01
2.807851650579999969e+01 1.432033983040000003e+01 4.578437135869999963e+01 5.367734519615388056e-01 7.786355861147473689e-01 -3.249628983515461256e-01
2.798236084039999838e+01 1.453360184820000001e+01 4.611699673929999932e+01 5.359424986229526233e-01 7.801735061603752852e-01 -3.226374721807950818e-01
2.788448983940000048e+01 1.474461415360000061e+01 4.645050239449999907e+01 5.351233118622721330e-01 7.815566433902648713e-01 -3.206435002835637538e-01
2.778506213340000031e+01 1.495358479549999942e+01 4.678480691850000284e+01 5.343326142190005790e-01 7.827945593102887401e-01 -3.189378235582910337e-01
2.768423635339999933e+01 1.516072182269999935e+01 4.711982890529999679e+01 5.332595012941454549e-01 7.841189344229603231e-01 -3.174772447891670013e-01
2.758217112990000075e+01 1.536623328409999978e+01 4.745548694869999906e+01 5.327264605434095524e-01 7.848985868294487966e-01 -3.164438759559507486e-01
2.747902509389999892e+01 1.557032722860000007e+01 4.779169964270000293e+01 5.322713593290751000e-01 7.855741305269895447e-01 -3.155320672843622276e-01
2.737495687610000061e+01 1.577321170489999957e+01 4.812838558130000166e+01 5.315603434335538502e-01 7.864105412129652750e-01 -3.146459311002346437e-01
2.727012510730000017e+01 1.597509476199999945e+01 4.846546335859999743e+01 5.307657992685342885e-01 7.873891018683938370e-01 -3.135379858736704328e-01
2.716468841820000080e+01 1.617618444860000082e+01 4.880285156829999949e+01 5.298677455501972222e-01 7.886799811275699845e-01 -3.118077285670886045e-01
2.705880543960000040e+01 1.637668881369999951e+01 4.914046880459999755e+01 5.286174452407906843e-01 7.902771713288023747e-01 -3.098799591190860570e-01
2.695263480239999865e+01 1.657681590609999844e+01 4.947823366139999735e+01 5.273151611380504367e-01 7.918687479443955457e-01 -3.080302044652879490e-01
2.684633513720000053e+01 1.677677377470000053e+01 4.981606473269999924e+01 5.259321968650141343e-01 7.934822079841672426e-01 -3.062373424540363320e-01
2.840709632269999929e+01 1.417342123859999958e+01 4.597405313290000350e+01 5.413428453234570004e-01 7.755783890005364389e-01 -3.246938347619751641e-01
2.831118755649999841e+01 1.438700707179999938e+01 4.630655180990000019e+01 5.404058884401778950e-01 7.772718652919518023e-01 -3.221954735323754315e-01
2.821356345459999915e+01 1.459834319259999980e+01 4.663993076159999873e+01 5.395007154900115509e-01 7.787831611185626057e-01 -3.200558794084945591e-01
2.811438264779999940e+01 1.480763765000000021e+01 4.697410858210000129e+01 5.386380845153455610e-01 7.801282083302470971e-01 -3.182278939330708822e-01
2.801380376690000062e+01 1.501509849259999996e+01 4.730900386529999935e+01 5.374351079036566725e-01 7.816381102182077267e-01 -3.165523170774365291e-01
2.791198544270000070e+01 1.522093376940000020e+01 4.764453520509999862e+01 5.366203145534380603e-01 7.827146051189499687e-01 -3.152720808160080490e-01
2.780908630589999930e+01 1.542535152930000031e+01 4.798062119560000127e+01 5.357211232184599936e-01 7.838226271900627928e-01 -3.140461227947567990e-01
2.770526498719999964e+01 1.562855982109999964e+01 4.831718043069999879e+01 5.351268306346036452e-01 7.847722922515203425e-01 -3.126847045335905961e-01
2.760068011759999962e+01 1.583076669359999933e+01 4.865413150429999689e+01 5.343815833690973571e-01 7.858398583170910223e-01 -3.112748631613397321e-01
2.749549032770000068e+01 1.603218019559999874e+01 4.899139301059999951e+01 5.334699037025890656e-01 7.872118173118843876e-01 -3.093661528481592704e-01
2.738985424830000071e+01 1.623300837620000081e+01 4.932888354330000169e+01 5.322016977859604925e-01 7.888662723922001963e-01 -3.073293952028939291e-01
2.728393051029999938e+01 1.643345928400000133e+01 4.966652169649999848e+01 5.308863764005780084e-01 7.905253008251171831e-01 -3.053349048301256530e-01
2.717787774430000169e+01 1.663374096800000146e+01 5.000422606419999738e+01 5.294966701547525467e-01 7.922188258259983407e-01 -3.033522841547515725e-01
2.873369592570000108e+01 1.402390553899999937e+01 4.616475111190000291e+01 5.461544956973956033e-01 7.722772776972188780e-01 -3.245043500202966502e-01
2.863803405870000063e+01 1.423781518760000075e+01 4.649712308529999660e+01 5.450828483153181692e-01 7.741447532958534161e-01 -3.218455987223713954e-01
2.854065685599999824e+01 1.444947512389999922e+01 4.683037533350000103e+01 5.440682698966907704e-01 7.758016653818291530e-01 -3.195645375857624759e-01
2.844172294839999893e+01 1.465909339669999945e+01 4.716442645040000059e+01 5.431145976872614467e-01 7.772695652264972610e-01 -3.176138484884061253e-01
2.834139096670000058e+01 1.486687805470000079e+01 4.749919503000000276e+01 5.417967125374020254e-01 7.789389927674104097e-01 -3.157694852739191815e-01
2.823981954159999930e+01 1.507303714700000086e+01 4.783459966630000082e+01 5.407754091202187086e-01 7.802431659752886439e-01 -3.142969278241806164e-01
2.813716730399999832e+01 1.527777872230000078e+01 4.817055895320000047e+01 5.397053681732684183e-01 7.817436346528890967e-01 -3.124019930228467690e-01
2.803359288460000087e+01 1.548131082949999993e+01 4.850699148470000210e+01 5.387234223471226713e-01 7.831895815977618636e-01 -3.104692472553867710e-01
2.792925491409999950e+01 1.568384151739999943e+01 4.884381585490000077e+01 5.380103944060927734e-01 7.843229821578723282e-01 -3.088402097687126258e-01
2.782431202340000098e+01 1.588557883490000044e+01 4.918095065749999861e+01 5.371003522365257465e-01 7.857535757678361099e-01 -3.067809149791743684e-01
2.771892284320000144e+01 1.608673083089999878e+01 4.951831448669999958e+01 5.358344123152470884e-01 7.874612972536754185e-01 -3.046082531815779704e-01
2.761324600429999876e+01 1.628750555410000089e+01 4.985582593640000226e+01 5.345310568462942058e-01 7.891817367215081536e-01 -3.024379865228701836e-01
2.750744013750000150e+01 1.648811105349999906e+01 5.019340360049999816e+01 5.331672471787068934e-01 7.909447557017132979e-01 -3.002317104568344996e-01
2.905833824320000147e+01 1.387182280290000058e+01 4.635645352920000306e+01 5.516259878027074404e-01 7.685628195247229399e-01 -3.240678355296854329e-01
2.896292327540000144e+01 1.408605626700000002e+01 4.668869879910000265e+01 5.503624360285417350e-01 7.705971364721910799e-01 -3.213739912774341567e-01
2.886579297189999949e+01 1.429804001870000008e+01 4.702182434369999697e+01 5.491902939208891388e-01 7.724072418897850456e-01 -3.190251929539463238e-01
2.876710596350000060e+01 1.450798210690000012e+01 4.735574875700000064e+01 5.481054183718220285e-01 7.740117202717736733e-01 -3.169957527055827784e-01
2.866702088099999912e+01 1.471609058039999951e+01 4.769039063310000159e+01 5.468217508442333452e-01 7.758889881489079432e-01 -3.146144479722934317e-01
2.856569635520000006e+01 1.492257348809999939e+01 4.802566856579999666e+01 5.457746772401372848e-01 7.774015174074505596e-01 -3.126929522966854780e-01
2.846329101670000128e+01 1.512763887879999913e+01 4.836150114920000220e+01 5.445874947843236669e-01 7.791287486090447967e-01 -3.104558803041714277e-01
2.835996349650000070e+01 1.533149480139999987e+01 4.869780697720000262e+01 5.433941328508096191e-01 7.808507873176681047e-01 -3.082123688768739767e-01
2.825587242519999975e+01 1.553434930479999920e+01 4.903450464379999829e+01 5.423295628806145130e-01 7.823612803518260606e-01 -3.062506689494297607e-01
2.815117643370000167e+01 1.573641043770000003e+01 4.937151274290000202e+01 5.410008563756882882e-01 7.842279572535412191e-01 -3.038166954969883649e-01
2.804603415269999900e+01 1.593788624909999996e+01 4.970874986849999999e+01 5.398076437602390421e-01 7.859552952778642299e-01 -3.014663854606405291e-01
2.794060421300000030e+01 1.613898478779999834e+01 5.004613461459999968e+01 5.386098612264571539e-01 7.876834836998555245e-01 -2.990888612036170513e-01
2.783504524539999991e+01 1.633991410260000166e+01 5.038358557520000147e+01 5.374020915415775868e-01 7.894269750256838192e-01 -2.966547540636020885e-01
2.938104620380000043e+01 1.371720310169999912e+01 4.654914861849999852e+01 5.583518889108662897e-01 7.650022101724380796e-01 -3.209591665320563614e-01
2.928587813520000083e+01 1.393176038120000015e+01 4.688126718480000221e+01 5.570966307691116448e-01 7.670333164112895785e-01 -3.182816920603548927e-01
2.918899473089999930e+01 1.414406794840000003e+01 4.721426602590000243e+01 5.559318513422857322e-01 7.688415413145540667e-01 -3.159469275245435083e-01
2.909055462170000084e+01 1.435433385199999989e+01 4.754806373569999778e+01 5.548535155147751308e-01 7.704452372120605963e-01 -3.139294710251763765e-01
2.899071643839999979e+01 1.456276614090000088e+01 4.788257890820000284e+01 5.535809456284241925e-01 7.723145657848561330e-01 -3.115739849757827029e-01
2.888963881169999937e+01 1.476957286400000058e+01 4.821773013739999669e+01 5.525437179899189699e-01 7.738192044825835669e-01 -3.096760863932161989e-01
2.878748037240000102e+01 1.497496207020000014e+01 4.855343601719999924e+01 5.513676933551288073e-01 7.755374437029713963e-01 -3.074659983460049095e-01
2.868439975140000087e+01 1.517914180820000070e+01 4.888961514159999666e+01 5.501855024207831235e-01 7.772506964107891436e-01 -3.052495173705162546e-01
2.858055557930000035e+01 1.538232012699999984e+01 4.922618610460000355e+01 5.491307716084151691e-01 7.787538216906270128e-01 -3.033115244678143974e-01
2.847610648690000090e+01 1.558470507540000050e+01 4.956306750019999896e+01 5.478132788282679133e-01 7.806136105651180213e-01 -3.009036432812216555e-01
2.837121110509999866e+01 1.578650470220000024e+01 4.990017792230000282e+01 5.466265319507055409e-01 7.823413079382754987e-01 -2.985657590229878755e-01
2.826602806460000039e+01 1.598792705630000022e+01 5.023743596490000130e+01 5.454358051068363133e-01 7.840686830412116892e-01 -2.962027730820171456e-01
2.816071599620000043e+01 1.618918018660000158e+01 5.057476022190000009e+01 5.442357783728094534e-01 7.858100394425392432e-01 -2.937856352006631977e-01
2.970184273579999967e+01 1.356007650659999975e+01 4.674282461340000339e+01 5.649661032279256201e-01 7.614259949507260483e-01 -3.178738058046780002e-01
2.960692156640000050e+01 1.377495760160000060e+01 4.707481647609999698e+01 5.637192771800014768e-01 7.634536315499218517e-01 -3.152128312884688310e-01
2.951028506129999940e+01 1.398758898410000029e+01 4.740768861360000130e+01 5.625619948515893087e-01 7.652597388056817662e-01 -3.128922084547010041e-01
2.941209185130000137e+01 1.419817870319999997e+01 4.774135961990000254e+01 5.614903279065692754e-01 7.668624353882225186e-01 -3.108868232296390088e-01
2.931250056709999896e+01 1.440693480750000077e+01 4.807574808879999750e+01 5.602289993388490652e-01 7.687235471797767561e-01 -3.085572496492878236e-01
2.921166983959999897e+01 1.461406534610000030e+01 4.841077261449999725e+01 5.592017329523143454e-01 7.702200633800344587e-01 -3.066830217504458722e-01
2.910975829959999928e+01 1.481977836769999968e+01 4.874635179069999680e+01 5.580370001463946794e-01 7.719290464251518102e-01 -3.045000061621822018e-01
2.900692457770000132e+01 1.502428192110000005e+01 4.908240421160000011e+01 5.568661182790748398e-01 7.736332468444724331e-01 -3.023106443539076427e-01
2.890332730480000123e+01 1.522778405530000079e+01 4.941884847109999868e+01 5.558213535554041851e-01 7.751287668025493849e-01 -3.003964344112580731e-01
2.879912511159999866e+01 1.543049281909999948e+01 4.975560316309999820e+01 5.545152389662231229e-01 7.769813797383333664e-01 -2.980147400618773923e-01
2.869447662900000040e+01 1.563261626140000082e+01 5.009258688159999906e+01 5.533351204353764707e-01 7.787092103598880488e-01 -2.956893812659607268e-01
2.858954048769999901e+01 1.583436243090000062e+01 5.042971822060000164e+01 5.521516128521053446e-01 7.804355415400688889e-01 -2.933410334847106893e-01
2.848447531849999947e+01 1.603593937659999824e+01 5.076691577409999923e+01 5.509594946174123375e-01 7.821745261104605662e-01 -2.909409665117684840e-01
3.002075076770000095e+01 1.340047308890000011e+01 4.693746974740000155e+01 5.714685122562082054e-01 7.578366736893967781e-01 -3.148131438029012075e-01
2.992607649740000042e+01 1.361567799930000078e+01 4.726933490660000103e+01 5.702302474026251788e-01 7.598605866221430638e-01 -3.121687906331981899e-01
2.982968689149999975e+01 1.382863319730000029e+01 4.760208034059999704e+01 5.690805878034679299e-01 7.616643430997940278e-01 -3.098624098460776577e-01
2.973174058069999859e+01 1.403954673169999978e+01 4.793562464330000239e+01 5.680157106705454595e-01 7.632658267688993137e-01 -3.078691769538215994e-01
2.963239619570000016e+01 1.424862665150000041e+01 4.826988640870000324e+01 5.667657560485831469e-01 7.651184496041544270e-01 -3.055655999061619443e-01
2.953181236740000060e+01 1.445608100549999975e+01 4.860478423079999999e+01 5.657485568242586194e-01 7.666066159752198406e-01 -3.037151079454070701e-01
2.943014772649999955e+01 1.466211784250000072e+01 4.894023670349999833e+01 5.645952392040156642e-01 7.683060838188487951e-01 -3.015592436572035462e-01
2.932756090379999847e+01 1.486694521139999914e+01 4.927616242079999864e+01 5.634357936997139715e-01 7.700009706840044155e-01 -2.993970800186005476e-01
2.922421053009999881e+01 1.507077116109999970e+01 4.961247997670000132e+01 5.624011123138672463e-01 7.714886519893258132e-01 -2.975067204616019256e-01
2.912025523619999845e+01 1.527380374029999999e+01 4.994910796519999963e+01 5.611065286505901861e-01 7.733338057103882335e-01 -2.951512975596952693e-01
2.901585365269999883e+01 1.547625099799999937e+01 5.028596498019999927e+01 5.599331921449502980e-01 7.750615460371488297e-01 -2.928385565270922308e-01
2.891116441060000142e+01 1.567832098290000076e+01 5.062296961559999886e+01 5.587570581709362383e-01 7.767866054582897029e-01 -2.905049388990642578e-01
2.880634614059999876e+01 1.588022174399999997e+01 5.096004046550000055e+01 5.575730044060708268e-01 7.785229843189358512e-01 -2.881220360276622316e-01
3.033779322779999887e+01 1.323842291989999964e+01 4.713307225429999647e+01 5.778590959549934070e-01 7.542367095471662619e-01 -3.117785290771986073e-01
3.024336585669999877e+01 1.345395164570000013e+01 4.746481070990000006e+01 5.766295121546923808e-01 7.562566499008559484e-01 -3.091509100633140217e-01
3.014722314999999853e+01 1.366723065909999946e+01 4.779742944030000018e+01 5.754875922246154296e-01 7.580578266920694475e-01 -3.068588642786962417e-01
3.004952373840000135e+01 1.387846800900000055e+01 4.813084703949999721e+01 5.744296176831884537e-01 7.596578873021457845e-01 -3.048778584744826214e-01
2.995042625259999980e+01 1.408787174419999921e+01 4.846498210130000217e+01 5.731911587375080330e-01 7.615017545238877972e-01 -3.026003526141249345e-01
2.985008932350000066e+01 1.429564991360000015e+01 4.879975321989999770e+01 5.721841233495601475e-01 7.629813485089361746e-01 -3.007736537899900475e-01
2.974867158180000004e+01 1.450201056609999917e+01 4.913507898900000015e+01 5.710423337743000261e-01 7.646710474872914221e-01 -2.986450102919674943e-01
2.964633165829999939e+01 1.470716175039999918e+01 4.947087800279999925e+01 5.698944412968551809e-01 7.663563647661107980e-01 -2.965101144335845484e-01
2.954322818369999837e+01 1.491131151549999956e+01 4.980706885520000071e+01 5.688699509406788257e-01 7.678359785202620857e-01 -2.946436644602787869e-01
2.943951978899999844e+01 1.511466791009999966e+01 5.014357014010000313e+01 5.675870393452343565e-01 7.696733946424826334e-01 -2.923145879815591819e-01
2.933536510469999925e+01 1.531743898320000064e+01 5.048030045149999978e+01 5.664206296635612148e-01 7.714008239453716831e-01 -2.900145498211009754e-01
2.923092276179999871e+01 1.551983278360000007e+01 5.081717838339999815e+01 5.652520144827083426e-01 7.731243867927001245e-01 -2.876957467006619473e-01
2.912635139089999825e+01 1.572205736020000089e+01 5.115412252979999863e+01 5.640761716435579443e-01 7.748579293414235014e-01 -2.853300929111204920e-01
3.065299304459999874e+01 1.307395607079999955e+01 4.732962036760000046e+01 5.841379288869874564e-01 7.506285261695869737e-01 -3.087712676660416267e-01
3.055881257269999907e+01 1.328980861209999986e+01 4.766123211960000106e+01 5.829171368840558864e-01 7.526442503444448207e-01 -3.061604872454046222e-01
3.046291676519999925e+01 1.350341144090000078e+01 4.799372414649999996e+01 5.817830649884072614e-01 7.544426229633894865e-01 -3.038828622163736171e-01
3.036546425270000071e+01 1.371497260619999992e+01 4.832701504210000110e+01 5.807320977662989714e-01 7.560410540232673782e-01 -3.019141521282853735e-01
3.026661366609999959e+01 1.392470015690000018e+01 4.866102340039999774e+01 5.795052454994931157e-01 7.578759046922318721e-01 -2.996627830170163209e-01
3.016652363620000088e+01 1.413280214169999915e+01 4.899566781539999738e+01 5.785084615391320462e-01 7.593467086632870178e-01 -2.978599267606493739e-01
3.006535279370000069e+01 1.433948660959999977e+01 4.933086688099999861e+01 5.773783025388667944e-01 7.610263906546792523e-01 -2.957585645158023469e-01
2.996325976940000047e+01 1.454496160939999960e+01 4.966653919120000182e+01 5.762420692948873047e-01 7.627018877304678757e-01 -2.936509969796246011e-01
2.986040319399999987e+01 1.474943518979999979e+01 5.000260334000000029e+01 5.752278682458151771e-01 7.641732096453786038e-01 -2.918085078500204932e-01
2.975694169850000037e+01 1.495311539989999972e+01 5.033897792140000149e+01 5.739567584239200215e-01 7.660026149169233411e-01 -2.895058434642405198e-01
2.965303391340000161e+01 1.515621028850000052e+01 5.067558152920000225e+01 5.727974115540641620e-01 7.677295155242994662e-01 -2.872185862888896324e-01
2.954883846959999971e+01 1.535892790429999977e+01 5.101233275759999941e+01 5.716364512636263884e-01 7.694513602423417309e-01 -2.849146746096771210e-01
2.944451399800000146e+01 1.556147629630000040e+01 5.134915020039999689e+01 5.704689563722887824e-01 7.711818393931222371e-01 -2.825663469094504276e-01
3.096637314650000050e+01 1.290710261299999928e+01 4.752710232079999741e+01 5.903051762635079802e-01 7.470145050880432347e-01 -3.057926226457638452e-01
3.087243957380000126e+01 1.312327896969999941e+01 4.785858736939999858e+01 5.890932778373205725e-01 7.490257749731769055e-01 -3.031987770963347484e-01
3.077679066540000008e+01 1.333720561400000015e+01 4.819095269270000159e+01 5.879671538942419229e-01 7.508211235401682782e-01 -3.009356515725318815e-01
3.067958505220000021e+01 1.354909059470000088e+01 4.852411688469999973e+01 5.869232907857282466e-01 7.524177224019111820e-01 -2.989792998666827017e-01
3.058098136479999951e+01 1.375914196079999918e+01 4.885799853950000227e+01 5.857081456639763317e-01 7.542433014703942007e-01 -2.967541243014255037e-01
3.048113823399999944e+01 1.396756776109999976e+01 4.919251625089999891e+01 5.847216918092202897e-01 7.557051028684362848e-01 -2.949751525575837197e-01
3.038021429069999968e+01 1.417457604440000019e+01 4.952758861299999893e+01 5.836032557719769143e-01 7.573745254542618710e-01 -2.929011233253983049e-01
3.027836816559999988e+01 1.438037485959999984e+01 4.986313421959999914e+01 5.824787776898670000e-01 7.590399572972298392e-01 -2.908209359161380014e-01
3.017575848939999972e+01 1.458517225549999985e+01 5.019907166490000350e+01 5.814749549736589751e-01 7.605027678539896252e-01 -2.890024512435879211e-01
3.007254389299999886e+01 1.478917628099999959e+01 5.053531954270000170e+01 5.802157653747290755e-01 7.623238943750532126e-01 -2.867262556437240595e-01
2.996888300719999876e+01 1.499259498490000020e+01 5.087179644700000125e+01 5.790636085805209721e-01 7.640500519021239390e-01 -2.844518507692769260e-01
2.986493446260000084e+01 1.519563641619999927e+01 5.120842097180000252e+01 5.779104302847558605e-01 7.657699604198859866e-01 -2.821629002661663610e-01
2.976085689010000124e+01 1.539850862359999972e+01 5.154511171109999879e+01 5.767514110414477813e-01 7.674971528160368095e-01 -2.798319679396480408e-01
3.127795646190000056e+01 1.273789261780000004e+01 4.772550634779999967e+01 5.963610899357030259e-01 7.433969833444028508e-01 -3.028438138135599589e-01
3.118426978840000174e+01 1.295439278989999998e+01 4.805686469279999784e+01 5.951581780588890425e-01 7.454035664792797444e-01 -3.002669914752431612e-01
3.108886777920000100e+01 1.316864324960000054e+01 4.838910331249999786e+01 5.940400936867498149e-01 7.471956758878126603e-01 -2.980184373947222243e-01
3.099190906509999976e+01 1.338085204569999931e+01 4.872214080100000189e+01 5.930034236771839495e-01 7.487902439189250137e-01 -2.960745009604419109e-01
3.089355227689999950e+01 1.359122722729999921e+01 4.905589575220000143e+01 5.918000758354822199e-01 7.506063023921462074e-01 -2.938755672904900806e-01
3.079395604540000164e+01 1.379997684299999960e+01 4.939028676009999685e+01 5.908240220367615425e-01 7.520588938462192674e-01 -2.921205148069987434e-01
3.069327900120000052e+01 1.400730894169999985e+01 4.972523241860000098e+01 5.897173914120218408e-01 7.537178204504361156e-01 -2.900738619759531400e-01
3.059167977530000115e+01 1.421343157229999932e+01 5.006065132169999998e+01 5.886047543439141272e-01 7.553729477685967586e-01 -2.880210980867912163e-01
3.048931699830000142e+01 1.441855278359999915e+01 5.039646206340000134e+01 5.876113899085185777e-01 7.568270323635787333e-01 -2.862266541283630117e-01
3.038634930110000099e+01 1.462288062460000049e+01 5.073258323759999655e+01 5.863642279234728694e-01 7.586396177847886113e-01 -2.839769753678279551e-01
3.028293531439999953e+01 1.482662314399999914e+01 5.106893343840000199e+01 5.852193798508297240e-01 7.603648213465327155e-01 -2.817154875147370729e-01
3.017923366910000027e+01 1.502998839069999981e+01 5.140543125970000204e+01 5.840741017746555741e-01 7.620825792855314695e-01 -2.794415609490489838e-01
3.007540299580000109e+01 1.523318441350000008e+01 5.174199529540000242e+01 5.829236766696077598e-01 7.638062655118477151e-01 -2.771280858066012542e-01
3.158776591919999888e+01 1.256635615629999947e+01 4.792482068190000177e+01 6.023060043258445795e-01 7.397782513547365157e-01 -2.999260175035908249e-01
3.149432614490000049e+01 1.278318014379999923e+01 4.825605232339999873e+01 6.011121633421097066e-01 7.417799210680169342e-01 -2.973662990025862651e-01
3.139917103490000017e+01 1.299775441899999961e+01 4.858816423959999753e+01 6.000022020094598618e-01 7.435685811395638112e-01 -2.951323816965789604e-01
3.130245921999999936e+01 1.321028703059999998e+01 4.892107502449999856e+01 5.989728064211080616e-01 7.451609238786273126e-01 -2.932009118205002318e-01
3.120434933099999952e+01 1.342098602749999969e+01 4.925470327219999689e+01 5.977813358868178106e-01 7.469672189506384452e-01 -2.910282602747029657e-01
3.110499999860000031e+01 1.363005945869999991e+01 4.958896757650000353e+01 5.968157435604993788e-01 7.484103983847771868e-01 -2.892971548907227186e-01
3.100456985370000140e+01 1.383771537279999997e+01 4.992378653139999756e+01 5.957209910776299910e-01 7.500585983983563132e-01 -2.872779138015645328e-01
3.090321752690000068e+01 1.404416181889999926e+01 5.025907873100000245e+01 5.946202710159438354e-01 7.517031877663994388e-01 -2.852526087501367491e-01
3.080110164919999960e+01 1.424960684560000068e+01 5.059476276910000081e+01 5.936374359183869132e-01 7.531483368406255430e-01 -2.834822346998884801e-01
3.069838085110000137e+01 1.445425850200000006e+01 5.093075723980000191e+01 5.924023980983175175e-01 7.549521245426177307e-01 -2.812591125207323794e-01
3.059521376369999857e+01 1.465832483680000031e+01 5.126698073699999725e+01 5.912649688942901438e-01 7.566761669525856604e-01 -2.790106000215348825e-01
3.049175901750000151e+01 1.486201389890000080e+01 5.160335185480000320e+01 5.901277005103505724e-01 7.583915638215953381e-01 -2.767517534083590025e-01
3.038817524339999920e+01 1.506553373720000089e+01 5.193978918690000057e+01 5.889859789710072402e-01 7.601115285851848258e-01 -2.744557900417806673e-01
3.189582444690000074e+01 1.239252330000000057e+01 4.812503355700000185e+01 6.081403323320559995e-01 7.361605509954037840e-01 -2.970403665315536901e-01
3.180263157179999922e+01 1.260967110290000015e+01 4.845613849480000113e+01 6.069556381404096479e-01 7.381570865298534567e-01 -2.944978250095006134e-01
3.170772336099999933e+01 1.282456919350000035e+01 4.878812370749999872e+01 6.058538753413255096e-01 7.399420921439834320e-01 -2.922786034034690061e-01
3.161125844529999895e+01 1.303742562050000053e+01 4.912090778889999854e+01 6.048318279814669518e-01 7.415320194466600290e-01 -2.903596459495625393e-01
3.151339545540000131e+01 1.324844843290000007e+01 4.945440933300000097e+01 6.036523049088806658e-01 7.433283146195978075e-01 -2.882133089622765376e-01
3.141429302230000076e+01 1.345784567950000010e+01 4.978854693369999751e+01 6.026972271464701159e-01 7.447618853405255646e-01 -2.865061718950946967e-01
3.131410977650000049e+01 1.366582540909999999e+01 5.012323918509999743e+01 6.016144160425516141e-01 7.463991342255371642e-01 -2.845143701768826916e-01
3.121300434890000020e+01 1.387259567050000086e+01 5.045840468109999932e+01 6.005256793485798106e-01 7.480329582015242673e-01 -2.825165515278760253e-01
3.111113537039999954e+01 1.407836451270000033e+01 5.079396201569999647e+01 5.995534359589397289e-01 7.494689673497230142e-01 -2.807702698106935846e-01
3.100866147150000174e+01 1.428333998449999953e+01 5.112982978290000347e+01 5.983306082435007056e-01 7.512637066040167566e-01 -2.785737359812591185e-01
3.090574128320000113e+01 1.448773013479999960e+01 5.146592657650000291e+01 5.972006996926170208e-01 7.529863845558660840e-01 -2.763382509898586470e-01
3.080253343620000095e+01 1.469174301229999990e+01 5.180217099069999875e+01 5.960715418689843670e-01 7.546992139263478672e-01 -2.740945338252552821e-01
3.069919656129999908e+01 1.489558666599999981e+01 5.213848161930000202e+01 5.949386244052290440e-01 7.564152462358763040e-01 -2.718161298612216670e-01
3.220215497339999899e+01 1.221642412009999923e+01 4.832613320640000154e+01 6.138645612195683388e-01 7.325460739069106220e-01 -2.941879502669637603e-01
3.210920899740000323e+01 1.243389573840000040e+01 4.865711144080000139e+01 6.126890814722942835e-01 7.345372605266815569e-01 -2.916626516072883812e-01
3.201454768579999666e+01 1.264911764440000042e+01 4.898896994990000309e+01 6.115955849001373235e-01 7.363184117445303878e-01 -2.894581784242254430e-01
3.191832966930000026e+01 1.286229788690000042e+01 4.932162732769999991e+01 6.105809522267764411e-01 7.379057379066290556e-01 -2.875517740204639461e-01
3.182071357870000128e+01 1.307364451469999977e+01 4.965500216819999935e+01 6.094134371418242768e-01 7.396918030941476152e-01 -2.854317765532013995e-01
3.172185804469999937e+01 1.328336557669999962e+01 4.998901306540000178e+01 6.084689189254730568e-01 7.411155738653374403e-01 -2.837486226854993854e-01
3.162192169809999953e+01 1.349166912169999932e+01 5.032357861330000048e+01 6.073981031901365402e-01 7.427416532417316919e-01 -2.817842805778266180e-01
3.152106316969999966e+01 1.369876319860000002e+01 5.065861740580000117e+01 6.063214068352307251e-01 7.443644904586996791e-01 -2.798139684817522177e-01
3.141944109030000121e+01 1.390485585619999931e+01 5.099404803680000242e+01 6.053598090473556459e-01 7.457911605282698808e-01 -2.780917950390575655e-01
3.131721409069999851e+01 1.411015514350000011e+01 5.132978910039999931e+01 6.041492670111268115e-01 7.475766066370939100e-01 -2.759218736868930821e-01
3.121454080159999833e+01 1.431486910909999999e+01 5.166575919049999754e+01 6.030269726828761945e-01 7.492977208751514517e-01 -2.736994623820606654e-01
3.111157985379999857e+01 1.451920580210000011e+01 5.200187690109999750e+01 6.019060178358928148e-01 7.510077805453381217e-01 -2.714709178775936982e-01
3.100848987799999890e+01 1.472337327119999983e+01 5.233806082619999955e+01 6.007819962156235594e-01 7.527196738604131632e-01 -2.692101142354113019e-01
3.250678042700000248e+01 1.203808868780000019e+01 4.852810786399999898e+01 6.194792485072093680e-01 7.289369600222744827e-01 -2.913698148100248853e-01
3.241408135030000182e+01 1.225588412159999940e+01 4.885895939480000294e+01 6.183130428149996582e-01 7.309225891013797494e-01 -2.888618178752456744e-01
3.231966693790000278e+01 1.247142984299999924e+01 4.919069120030000164e+01 6.172278725508499875e-01 7.326996912682897101e-01 -2.866721398421988032e-01
3.222369582049999792e+01 1.268493390090000084e+01 4.952322187459999725e+01 6.162207138432133080e-01 7.342842351414233804e-01 -2.847783240580912256e-01
3.212632662909999937e+01 1.289660434410000001e+01 4.985647001160000258e+01 6.150652579049925572e-01 7.360598467473917772e-01 -2.826846839226897501e-01
3.202771799429999788e+01 1.310664922159999968e+01 5.019035420520000201e+01 6.141313363329208297e-01 7.374736318480910047e-01 -2.810255220842537427e-01
3.192802854689999847e+01 1.331527658199999919e+01 5.052479304949999772e+01 6.130725609571494594e-01 7.390883295650625406e-01 -2.790886527649740212e-01
3.182741691769999903e+01 1.352269447429999971e+01 5.085970513840000251e+01 6.120079527746753456e-01 7.406999648109664491e-01 -2.771458602786334713e-01
3.172604173750000101e+01 1.372911094740000060e+01 5.119500906590000255e+01 6.110570462296087690e-01 7.421171019784433831e-01 -2.754478048637580279e-01
3.162406163700000050e+01 1.393473405009999944e+01 5.153062342599999823e+01 6.098588553428085923e-01 7.438930163940267182e-01 -2.733045128060562767e-01
3.152163524710000075e+01 1.413977183119999914e+01 5.186646681250000057e+01 6.087442607515036741e-01 7.456123718648036691e-01 -2.710952156056006812e-01
3.141892119850000142e+01 1.434443233950000085e+01 5.220245781959999931e+01 6.076315930181981351e-01 7.473194640055069726e-01 -2.688818809155581468e-01
3.131607812189999862e+01 1.454892362410000040e+01 5.253851504109999837e+01 6.065165504407167285e-01 7.490270163850233365e-01 -2.666387120559264856e-01
3.280972373630000050e+01 1.185754707449999934e+01 4.873094576319999760e+01 6.249850178745979257e-01 7.253352962992581920e-01 -2.885869632792776862e-01
3.271727155869999848e+01 1.207566632370000015e+01 4.906167059050000034e+01 6.238281380222451267e-01 7.273151653948256579e-01 -2.860963201413049828e-01
3.262310404549999987e+01 1.229153586059999981e+01 4.939327569240000315e+01 6.227513467344001352e-01 7.290880292234668270e-01 -2.839214782004556015e-01
3.252737982739999723e+01 1.250536373389999945e+01 4.972567966319999755e+01 6.217517142714918954e-01 7.306696143157829226e-01 -2.820402817260095341e-01
3.243025753509999731e+01 1.271735799260000022e+01 5.005880109659999988e+01 6.206083595370570638e-01 7.324345553004282250e-01 -2.799730099037891495e-01
3.233189579950000336e+01 1.292772668539999970e+01 5.039255858669999810e+01 6.196850640554556477e-01 7.338381745688957736e-01 -2.783378431546399412e-01
3.223245325130000083e+01 1.313667786130000081e+01 5.072687072739999792e+01 6.186383652944390521e-01 7.354412847547675547e-01 -2.764284530653104976e-01
3.213208852129999826e+01 1.334441956899999937e+01 5.106165611280000149e+01 6.175858842377341951e-01 7.370415090342193887e-01 -2.745131864790043008e-01
3.203096024029999711e+01 1.355115985750000007e+01 5.139683333669999854e+01 6.166457065519568292e-01 7.384489248721626264e-01 -2.728392529424322754e-01
3.192922703900000059e+01 1.375710677560000050e+01 5.173232099319999833e+01 6.154599224462182772e-01 7.402150753016569773e-01 -2.707226000145854794e-01
3.182704754830000127e+01 1.396246837210000002e+01 5.206803767619999945e+01 6.143531052253379254e-01 7.419324812901865185e-01 -2.685264517818902741e-01
3.172458039880000058e+01 1.416745269599999979e+01 5.240390197970000230e+01 6.132488006427785354e-01 7.436364125776666612e-01 -2.663283582324867393e-01
3.162198422149999999e+01 1.437226779589999914e+01 5.273983249770000015e+01 6.121428119325084127e-01 7.453394268004552847e-01 -2.641028524195272453e-01
3.311100782959999833e+01 1.167482935149999967e+01 4.893463513780000085e+01 6.303825550998682914e-01 7.217431156520216495e-01 -2.858403562037284407e-01
3.301880255119999674e+01 1.189327241610000030e+01 4.926523326139999881e+01 6.292350452660911975e-01 7.237170285635167177e-01 -2.833671123757552368e-01
3.292488193719999856e+01 1.210946576839999977e+01 4.959671165990000219e+01 6.281666784102954981e-01 7.254854702113787690e-01 -2.812071418850380367e-01
3.282940461820000166e+01 1.232361745709999923e+01 4.992898892699999891e+01 6.271746176607104761e-01 7.270639247671973893e-01 -2.793385907178966843e-01
3.273252922519999686e+01 1.253593553119999982e+01 5.026198365690000003e+01 6.260433973584855760e-01 7.288179846956801544e-01 -2.772976916744399056e-01
3.263441438870000155e+01 1.274662803949999912e+01 5.059561444349999704e+01 6.251307500000788941e-01 7.302112635567659105e-01 -2.756865175868600804e-01
3.253521873969999945e+01 1.295590303080000005e+01 5.092979988070000275e+01 6.240961556376865005e-01 7.318025866589707995e-01 -2.738046067499593228e-01
3.243510090889999731e+01 1.316396855400000021e+01 5.126445856250000332e+01 6.230558320492183277e-01 7.333911972356447206e-01 -2.719168659107489283e-01
3.233421952709999658e+01 1.337103265790000073e+01 5.159950908279999737e+01 6.221264130526601432e-01 7.347887087625055713e-01 -2.702670524820969256e-01
3.223273322499999693e+01 1.357730339139999920e+01 5.193487003580000305e+01 6.209530818010191577e-01 7.365448692496595617e-01 -2.681770418656650445e-01
3.213080063339999981e+01 1.378298880340000032e+01 5.227046001520000118e+01 6.198541118809935968e-01 7.382601395045188530e-01 -2.659940721200257374e-01
3.202858038320000134e+01 1.398829694259999989e+01 5.260619761520000282e+01 6.187582385773742200e-01 7.399607212365568731e-01 -2.638112454382865457e-01
3.192623110499999939e+01 1.419343585800000085e+01 5.294200142959999766e+01 6.176613703861286719e-01 7.416590049121991601e-01 -2.616034249878543827e-01
3.341065563539999772e+01 1.148996558990000061e+01 4.913916422119999794e+01 6.336960639448470101e-01 7.200996316880631243e-01 -2.826407949739820347e-01
3.331869725619999656e+01 1.170873246999999928e+01 4.946963564130000179e+01 6.324549878236304101e-01 7.220746527675094839e-01 -2.803727593895173897e-01
3.322502354129999702e+01 1.192524963770000035e+01 4.980098733620000218e+01 6.313258770057368352e-01 7.238242425582408490e-01 -2.783991790719333448e-01
3.312979312150000055e+01 1.213972514189999963e+01 5.013313789979999768e+01 6.302922616943313905e-01 7.253769532249724206e-01 -2.766946703106159533e-01
3.303316462770000328e+01 1.235236703140000003e+01 5.046600592610000291e+01 6.295292449651482825e-01 7.266809744924127568e-01 -2.750048927644152541e-01
3.293529669040000130e+01 1.256338335509999915e+01 5.079951000909999692e+01 6.289003067394169921e-01 7.277187793942588856e-01 -2.736965149577122447e-01
3.283634794059999962e+01 1.277298216189999991e+01 5.113356874280000142e+01 6.280307223766533609e-01 7.290637912195691017e-01 -2.721091694221412505e-01
3.273647700899999791e+01 1.298137150049999988e+01 5.146810072099999900e+01 6.270836872427910658e-01 7.304603845863693046e-01 -2.705432973553751896e-01
3.263584252630000293e+01 1.318875941980000022e+01 5.180302453790000072e+01 6.261868935967829231e-01 7.316933442687783007e-01 -2.692857668730047060e-01
3.253460312339999660e+01 1.339535396880000029e+01 5.213825878720000162e+01 6.250178222948401530e-01 7.332967595428492302e-01 -2.676351700688313073e-01
3.243291743110000169e+01 1.360136319619999945e+01 5.247372206309999854e+01 6.240274292921466071e-01 7.349056964647522339e-01 -2.655247348076872349e-01
3.233094408000000186e+01 1.380699515080000062e+01 5.280933295949999717e+01 6.230681176250901787e-01 7.364799406446956853e-01 -2.634073230324324166e-01
3.222884170100000034e+01 1.401245788169999962e+01 5.314501007039999791e+01 6.221399034022825347e-01 7.380348036276839219e-01 -2.612404433253868730e-01
3.370869008199999683e+01 1.130298586119999982e+01 4.934452124709999765e+01 6.365614372805104004e-01 7.186551718398285216e-01 -2.798647540424426539e-01
3.361697860200000321e+01 1.152207655680000009e+01 4.967486596370000029e+01 6.353146971034016044e-01 7.205595770364106034e-01 -2.777933253077216058e-01
3.352355178629999699e+01 1.173891753989999920e+01 5.000609095499999768e+01 6.341847503361544014e-01 7.222487202593333988e-01 -2.759827685288067656e-01
3.342856826570000095e+01 1.195371685950000007e+01 5.033811481509999908e+01 6.331518348013733810e-01 7.237508775780581161e-01 -2.744146885511872247e-01
3.333218667100000232e+01 1.216668256440000029e+01 5.067085613790000309e+01 6.323867750147659228e-01 7.249976170903668082e-01 -2.728835319320565000e-01
3.323456563300000255e+01 1.237802270359999923e+01 5.100423351730000121e+01 6.317342988944116833e-01 7.259796267127156533e-01 -2.717818191094689140e-01
3.313586378229999951e+01 1.258794532569999980e+01 5.133816554740000271e+01 6.312094018892425717e-01 7.268445510258914055e-01 -2.706874389597627717e-01
3.303623974989999823e+01 1.279665847979999960e+01 5.167257082209999908e+01 6.304307335090003628e-01 7.279043693281214145e-01 -2.696522192757430103e-01
3.293585216649999836e+01 1.300437021459999976e+01 5.200736793539999780e+01 6.296975720533973808e-01 7.289357886518814666e-01 -2.685769606137429766e-01
3.283485966279999957e+01 1.321128857889999964e+01 5.234247548119999749e+01 6.286191962692891932e-01 7.304087866539251683e-01 -2.670971929101722542e-01
3.273342086960000330e+01 1.341762162170000039e+01 5.267781205349999851e+01 6.276886023648754476e-01 7.319368120079138285e-01 -2.650953068028948367e-01
3.263169441769999679e+01 1.362357739189999961e+01 5.301329624640000304e+01 6.268114758704638190e-01 7.334056544259701660e-01 -2.631036293423295036e-01
3.252983893790000280e+01 1.382936393810000020e+01 5.334884665370000079e+01 6.259931195710413121e-01 7.348261185904171322e-01 -2.610808106450151489e-01
