1.649156724069165492e+01 -9.628726939354489645e+00 4.132978121088300583e+01
1.735777109113164940e+01 -9.372263259469807650e+00 4.241786083590267253e+01
1.734418557511215297e+01 -9.120264185593132567e+00 4.145022872579068007e+01
1.552524976806358481e+01 -6.262040995378878705e+00 4.230841171502946452e+01
1.520051005816858414e+01 -7.597854469396327026e+00 4.197652847735280091e+01
1.606176335055167925e+01 -7.329198867283841956e+00 4.306559547887881223e+01
1.605105042016033678e+01 -7.085640701018343535e+00 4.209576835368184078e+01
1.423211462748397693e+01 -4.222274689671110970e+00 4.270991480151656106e+01
1.391671519546433800e+01 -5.577160849973022749e+00 4.245534321845192949e+01
1.475841801067524628e+01 -5.238880329829860294e+00 4.354028683936395794e+01
1.476370210759078105e+01 -5.055410951048260770e+00 4.255727561594416386e+01
1.294752920659270501e+01 -2.188396047451075077e+00 4.291939039202517137e+01
1.263716496560896196e+01 -3.559039751143969976e+00 4.276124528319910922e+01
1.346189876470827862e+01 -3.139608050482341373e+00 4.383077378169893734e+01
1.348206812245087249e+01 -3.029519877771223335e+00 4.283705662312846130e+01
1.167123531078843257e+01 -1.630509201517046369e-01 4.294984855226512366e+01
1.136198393231984305e+01 -1.541486308369455660e+00 4.288443092907186838e+01
1.216794254027490929e+01 -1.046744751110736615e+00 4.393593533409561758e+01
1.220607594978799249e+01 -1.007912423275573399e+00 4.293741748578553086e+01
1.040436094942285550e+01 1.853600794727176204e+00 4.278878997912310211e+01
1.009043175815471649e+01 4.755407200383605648e-01 4.283776847867534343e+01
1.087795035534697163e+01 1.058051813435055832e+00 4.385781518601091022e+01
1.093565307464952596e+01 1.009466470350350198e+00 4.286066431446617031e+01
9.144599124025130976e+00 3.861774657202877048e+00 4.247091503494889508e+01
8.823646198646793337e+00 2.491211490159447095e+00 4.260709809129208026e+01
9.595602929283888471e+00 3.138673462911195422e+00 4.359950718025918093e+01
9.670726982082854306e+00 3.022671861018209061e+00 4.260910321972119874e+01
7.894120738395407066e+00 5.859824646531494707e+00 4.196845318200396946e+01
7.560347523874574094e+00 4.506999454860554977e+00 4.221023705667082027e+01
8.318433598596147505e+00 5.229077299246418953e+00 4.316097839371276734e+01
8.411225157135360675e+00 5.031758806639659021e+00 4.218504031210140681e+01
6.646971474537847868e+00 7.857982193106954227e+00 4.133499829912559420e+01
6.303149113264815639e+00 6.517655055824635113e+00 4.162707594112035281e+01
7.054095757867274052e+00 7.273716278405562008e+00 4.255683427782389572e+01
7.157075084854428226e+00 7.036782365126362571e+00 4.159078170215760650e+01
5.399020226371968434e+00 9.857044719709280756e+00 4.056488024937948467e+01
5.054105363430411835e+00 8.519045024934630561e+00 4.086619495878636599e+01
5.802153690369850736e+00 9.282194647030825863e+00 4.179249207896840090e+01
5.908204250287440118e+00 9.037797594389978428e+00 4.082863350044060269e+01
2.208784842784073632e+01 -4.951888069999128561e+00 4.221553388548269936e+01
2.176563345355959811e+01 -6.306322574518423707e+00 4.196716987175169322e+01
2.268377680252303108e+01 -5.974024028129830022e+00 4.299019991374569116e+01
2.261345162374060180e+01 -5.777945501329440070e+00 4.201213673554245531e+01
2.079709317545938063e+01 -2.913238024103161461e+00 4.265991244552974848e+01
2.047950620067303262e+01 -4.280486271144647858e+00 4.248737043786773171e+01
2.140056960940188446e+01 -3.889137660424587750e+00 4.348661438305241944e+01
2.132528648098850255e+01 -3.747095562523694134e+00 4.249962071893891391e+01
1.951181725803024491e+01 -8.780940758650729316e-01 4.289284916530203873e+01
1.919797496270468073e+01 -2.255194958246118375e+00 4.282146167753192145e+01
2.010639273944767069e+01 -1.786728371017209493e+00 4.379886446018983293e+01
2.004290818061866020e+01 -1.720639358322652246e+00 4.280307233670654909e+01
1.823445350902306217e+01 1.148335772068951766e+00 4.293035227065070103e+01
1.792043127614165243e+01 -2.299621771450679475e-01 4.297139859141883989e+01
1.880866045066028391e+01 3.215619619158128772e-01 4.392369584415408923e+01
1.876624420767846857e+01 3.014781691853427592e-01 4.292479769939614442e+01
1.696625743071531645e+01 3.165513497493490647e+00 4.280276325646829605e+01
1.664695904761275713e+01 1.794377759022863561e+00 4.293705893486747982e+01
1.752064483219847091e+01 2.410893289689458374e+00 4.386257595267954201e+01
1.749522204721530727e+01 2.319312077911951153e+00 4.286710291755851898e+01
1.570630528653682667e+01 5.174642375492235047e+00 4.250006454084272889e+01
1.537778625260215470e+01 3.817750667362145744e+00 4.272571944717192594e+01
1.624028735420408509e+01 4.494479550185054073e+00 4.361910059141480644e+01
1.622976918427655590e+01 4.332917425768832764e+00 4.263229410174447054e+01
1.445438860136191117e+01 7.173337923356678303e+00 4.201340375863765075e+01
1.411289829902353965e+01 5.840866300464138128e+00 4.234189081712697345e+01
1.496393098349599526e+01 6.583124455638893480e+00 4.319324045213962648e+01
1.496981310390959763e+01 6.342349270667649641e+00 4.222267736250479686e+01
1.320928634953051883e+01 9.171522830731959175e+00 4.138516978271066193e+01
1.285290977118440914e+01 7.858659108818718764e+00 4.177167279963347113e+01
1.369841473919091435e+01 8.634245909839853184e+00 4.259846567766165037e+01
1.371528129116181915e+01 8.347662670520058725e+00 4.164055881039031703e+01
1.196925427048951995e+01 1.117397836414936663e+01 4.061915401369289214e+01
1.159847694326100864e+01 9.869786184537920448e+00 4.102115766075797865e+01
1.244683486305382303e+01 1.064841964546977593e+01 4.184214412437481911e+01
1.246610123108060364e+01 1.034891268323772096e+01 4.088824455595182172e+01
1.072510829093171481e+01 1.317099527084642929e+01 3.969871393918144520e+01
1.035477858130098561e+01 1.186593720171731015e+01 4.009831291611431681e+01
1.120031891497964516e+01 1.264453157317599441e+01 4.092223788166363363e+01
1.122220040871333069e+01 1.234615436673229283e+01 3.996804070974011580e+01
1.184435038804402929e+00 4.867459732258820004e+00 4.093499531626586929e+01
1.513093371235835649e+00 6.228720691743031779e+00 4.073763194401175980e+01
4.819527480941960818e-01 5.873601481064306462e+00 4.163798707478738947e+01
6.746501313033483882e-01 5.687393910097175542e+00 4.067455858288003867e+01
2.438651600615319825e+00 2.861870255624128223e+00 4.149552250983612822e+01
2.757797899668180008e+00 4.233919271770255399e+00 4.137051396175518647e+01
1.727462648955982782e+00 3.824744682625920600e+00 4.224857171995699900e+01
1.923441395759919459e+00 3.690654126725637862e+00 4.127717476009995323e+01
3.699204476276028775e+00 8.502944867488732017e-01 4.186336231078828973e+01
4.011117406597312751e+00 2.229303874179408673e+00 4.183106009295654815e+01
2.996066871191358061e+00 1.753936666313805182e+00 4.269343960816904371e+01
3.177504907385804600e+00 1.689911321792050503e+00 4.171212365788556298e+01
4.964308635920154700e+00 -1.161476261391783282e+00 4.204883215009020603e+01
5.271373743254038402e+00 2.171231935500175236e-01 4.212076658337636559e+01
4.277135435815095477e+00 -3.308033141474285288e-01 4.296413289179959349e+01
4.436912899689022360e+00 -3.148893489248090205e-01 4.197710811614859239e+01
6.230415150413105785e+00 -3.172624749555371881e+00 4.207094126230787623e+01
6.539043695027373815e+00 -1.802083884140737391e+00 4.223331785445644471e+01
5.562387084843180673e+00 -2.409304921207172878e+00 4.305637585844370108e+01
5.701737606177585960e+00 -2.323802729646161858e+00 4.206983097480074463e+01
7.499463604155175211e+00 -5.183428182361993208e+00 4.191589376275583589e+01
7.813205609501036264e+00 -3.828546461556467051e+00 4.217252867212830125e+01
6.852487133079351977e+00 -4.494857293545697630e+00 4.296817299230900744e+01
6.972051260359513059e+00 -4.336883664593229604e+00 4.198799507375374418e+01
8.772345667732695418e+00 -7.191147144711074191e+00 4.157283656218302070e+01
9.093675599643336938e+00 -5.863402199718544594e+00 4.193867865367207060e+01
8.149478702857178902e+00 -6.596319182102375223e+00 4.269453903564269126e+01
8.247926095742817765e+00 -6.354186997987233632e+00 4.172930325291929421e+01
1.004590275832138957e+01 -9.205468072435657234e+00 4.107966254988549792e+01
1.038196145858903385e+01 -7.900766112936199903e+00 4.150956643083180353e+01
9.449073279861565311e+00 -8.668975171014269065e+00 4.224412377309811717e+01
9.529434345835515074e+00 -8.375767574049394426e+00 4.129145835220911920e+01
1.132149121864000740e+01 -1.123369246662879917e+01 4.044218664565628529e+01
1.167664322104974772e+01 -9.939873633696302946e+00 4.088928829263776521e+01
1.074220221803720321e+01 -1.070907300024351727e+01 4.162082936899115282e+01
1.081664824414562176e+01 -1.040168023700093514e+01 4.067216321153492942e+01
1.261457913421590682e+01 -1.326371559805908795e+01 3.963835648585576621e+01
1.296964679384334751e+01 -1.197000847239126564e+01 4.008584819536891075e+01
1.203598643436706794e+01 -1.273987279568955344e+01 4.081768646770446907e+01
1.210964002418115015e+01 -1.243197983106307802e+01 3.986912067080842803e+01
1.680946226029254831e+01 -8.260068149625059419e+00 4.147384430309963932e+01
1.647911245004358705e+01 -9.591895046651702117e+00 4.113163658953248358e+01
1.734535011997065013e+01 -9.335484679810875264e+00 4.221970185548664034e+01
1.733176460395115370e+01 -9.083485605934200180e+00 4.125206974537464788e+01
1.551799838971295209e+01 -6.233338833913840027e+00 4.210940691090736721e+01
1.519318297707852849e+01 -7.569135178671677622e+00 4.177752881122808759e+01
1.605446518892042107e+01 -7.300524877995575146e+00 4.286658411649749212e+01
1.604375225852907860e+01 -7.056966711730076725e+00 4.189675699130052067e+01
1.422995595617710407e+01 -4.201682692476663483e+00 4.251033910852091680e+01
1.391451479011216108e+01 -5.556559425421196075e+00 4.225576906064187455e+01
1.475623369791689221e+01 -5.218304127418154970e+00 4.334070806059389014e+01
1.476151779483242699e+01 -5.034834748636555446e+00 4.235769683717409606e+01
1.295045835218825303e+01 -2.175905847457777043e+00 4.271952095570068053e+01
1.264008057861916434e+01 -3.546546494188107079e+00 4.256137591086854144e+01
1.346481962161058910e+01 -3.127123045143531233e+00 4.363090360165412562e+01
1.348498897935318297e+01 -3.017034872432413195e+00 4.263718644308364958e+01
1.167925191509745630e+01 -1.586513833795376582e-01 4.274995397128651575e+01
1.137000221025963675e+01 -1.537087149410565345e+00 4.268453639731608718e+01
1.217596016907024925e+01 -1.042344566731592259e+00 4.373604081742756478e+01
1.221409357858333244e+01 -1.003512238896429043e+00 4.273752296911747806e+01
1.041746554606178066e+01 1.849921254431429851e+00 4.258912919430281363e+01
1.010353910339927808e+01 4.718605603247187918e-01 4.263810788309086064e+01
1.089105663971230520e+01 1.054373339277324906e+00 4.365815444690859692e+01
1.094875935901485953e+01 1.005787996192619271e+00 4.266100357536385701e+01
9.162790341562232044e+00 3.850026053406085946e+00 4.227173724687505540e+01
8.841830749427018077e+00 2.479464379945303332e+00 4.240791962259518044e+01
9.613790034340784274e+00 3.126922278948939038e+00 4.340032938244905836e+01
9.688914087139750109e+00 3.010920677055952677e+00 4.240992542191107617e+01
7.917400795351497322e+00 5.840018627552851171e+00 4.176999795589757980e+01
7.583595933540999923e+00 4.487200453043133308e+00 4.201177740280709116e+01
8.341693970910773359e+00 5.209259140521552922e+00 4.296252375045878580e+01
8.434485529449986529e+00 5.011940647914792990e+00 4.198658566884742527e+01
6.675330791714143785e+00 7.830122611178561343e+00 4.113749667298598922e+01
6.331455798849190408e+00 6.489807130531881185e+00 4.142956584565059330e+01
7.082422125450399619e+00 7.245836666269560133e+00 4.235933405192748324e+01
7.185401452437553793e+00 7.008902752990360696e+00 4.139328147626119403e+01
5.432439373080008238e+00 9.821129474440636997e+00 4.036855526807671168e+01
5.087470601520350577e+00 8.483141663298720658e+00 4.066986103284778409e+01
5.835539062676849298e+00 9.246258889144725046e+00 4.159616858276845619e+01
5.941589622594438680e+00 9.001861836503877612e+00 4.063231000424065797e+01
2.205406685597310101e+01 -4.928499820079200511e+00 4.201873417384904741e+01
2.173184182140915510e+01 -6.282932144057881807e+00 4.177037132062423552e+01
2.264998902038557915e+01 -5.950639648542086491e+00 4.279339987273587553e+01
2.257966384160314988e+01 -5.754561121741696539e+00 4.181533669453263968e+01
2.076843742835461981e+01 -2.897965513156734119e+00 4.246196036939666385e+01
2.045085077345069280e+01 -4.265213830151532548e+00 4.228941832726830086e+01
2.137191405920790643e+01 -3.873865025296487907e+00 4.328866230977139651e+01
2.129663093079452452e+01 -3.731822927395594292e+00 4.230166864565789098e+01
1.948828616291807592e+01 -8.709256327636109019e-01 4.269402999956183464e+01
1.917444193971263999e+01 -2.248026083634011130e+00 4.262264266333812657e+01
2.008286046054033847e+01 -1.779560676854648804e+00 4.360004532021412871e+01
2.001937590171132797e+01 -1.713471664160091557e+00 4.260425319673084488e+01
1.821604778236601518e+01 1.147412629757475155e+00 4.273094142013909646e+01
1.790200606966666541e+01 -2.308808591964753854e-01 4.277198847840160312e+01
1.879024276382735437e+01 3.206313049165007145e-01 4.372428565259772171e+01
1.874782652084553902e+01 3.005475121860305965e-01 4.272538750783977690e+01
1.695297610490120377e+01 3.156509532902407322e+00 4.260302659021053984e+01
1.663362874430344363e+01 1.785385220369414494e+00 4.273732246825663594e+01
1.750733333967230365e+01 2.401870657641502760e+00 4.366284177419399981e+01
1.748191055468914001e+01 2.310289445863995539e+00 4.266736873907297678e+01
1.569814778002469957e+01 5.157567734117882274e+00 4.230025835935427381e+01
1.536953849032618002e+01 3.800697457574611526e+00 4.252591071887488994e+01
1.623207393966165313e+01 4.477371105511245730e+00 4.341930054018907015e+01
1.622155576973412394e+01 4.315808981095024421e+00 4.243249405051873424e+01
1.445135584628049230e+01 7.148202521869491122e+00 4.181377442129501532e+01
1.410972074967291867e+01 5.815765672694347188e+00 4.214225197566692316e+01
1.496080781205886368e+01 6.557936147071583122e+00 4.299362369190016153e+01
1.496668993247246604e+01 6.317160962100339283e+00 4.202306060226533191e+01
1.321136680346567793e+01 9.138328958390472323e+00 4.118595814306188885e+01
1.285479834201154326e+01 7.825512206469187326e+00 4.157244372904288809e+01
1.370037425742525272e+01 8.600983472420955067e+00 4.239927242167240706e+01
1.371724080939615753e+01 8.314400233101160609e+00 4.144136555440106662e+01
1.197643389543754111e+01 1.113272720529059256e+01 4.042059336435202255e+01
1.160542903870413944e+01 9.828592731473076327e+00 4.082257429733385123e+01
1.245386979897039836e+01 1.060708860055076386e+01 4.164360563543720417e+01
1.247313616699717898e+01 1.030758163831870888e+01 4.068970606701420678e+01
1.073735370534741662e+01 1.312167955301035427e+01 3.950103120051502970e+01
1.036680055464550598e+01 1.181667793525365973e+01 3.990060740120432570e+01
1.121242227803383251e+01 1.259513722841790972e+01 4.072457647211656706e+01
1.123430377176751804e+01 1.229676002197420814e+01 3.977037930019304923e+01
1.239037260121549355e+00 4.845049712881317028e+00 4.074248306134071385e+01
1.567675358664375462e+00 6.206314853478374083e+00 4.054511483395486238e+01
5.365423863342737576e-01 5.851183337505242221e+00 4.144547387330323573e+01
7.292397695434260640e-01 5.664975766538111301e+00 4.048204538139588493e+01
2.488205361397664905e+00 2.847510374661709420e+00 4.130154231919513563e+01
2.807329094497722721e+00 4.219564164733026423e+00 4.117652855945958379e+01
1.777002458656887551e+00 3.810375717690354325e+00 4.205458996863534082e+01
1.972981205460824228e+00 3.676285161790071587e+00 4.108319300877829505e+01
3.743689200649397808e+00 8.439809913049903800e-01 4.166813142035835682e+01
4.055599472444106013e+00 2.222990967640824600e+00 4.163582867256202036e+01
3.040549960384774764e+00 1.747622112817437623e+00 4.249820848443844312e+01
3.221987996579221303e+00 1.683596768295682944e+00 4.151689253415496239e+01
5.003708951754271439e+00 -1.159742988453916546e+00 4.185257664191349392e+01
5.310804864776708101e+00 2.188493503309727473e-01 4.192451594722377450e+01
4.316554627638467423e+00 -3.290580070792721856e-01 4.276788063325601996e+01
4.476332091512394307e+00 -3.131440418566526773e-01 4.178085585760501885e+01
6.264717197980644414e+00 -3.162842443080473132e+00 4.187389622716424498e+01
6.573420434839164272e+00 -1.792319465888901009e+00 4.203628181932999297e+01
5.596734917539718523e+00 -2.399494088139554560e+00 4.285933976285055280e+01
5.736085438874123810e+00 -2.313991896578543539e+00 4.187279487920759635e+01
7.528653126666538853e+00 -5.165593802209752283e+00 4.171830281290459652e+01
7.842523993195031906e+00 -3.810743932599284456e+00 4.197494830762669693e+01
6.881755859998023084e+00 -4.476975052734053051e+00 4.277059941759708295e+01
7.001319987278183277e+00 -4.319001423781585025e+00 4.179042149904181969e+01
8.796406575403409533e+00 -7.165257417685150898e+00 4.137495105311164423e+01
9.117932007943560180e+00 -5.837561880573185036e+00 4.174080069020704542e+01
8.173660292452709086e+00 -6.570359435492523659e+00 4.249668339991021071e+01
8.272107685338347949e+00 -6.328227251377382068e+00 4.153144761718681366e+01
1.006483251217106378e+01 -9.171511618019080103e+00 4.088174932886792590e+01
1.040114231239626363e+01 -7.866874740518154496e+00 4.131165436040061678e+01
9.468159415694445968e+00 -8.634931604242408909e+00 4.204625055461070104e+01
9.548520481668395732e+00 -8.341724007277534270e+00 4.109358513372170307e+01
1.133528850075270533e+01 -1.119165775811869423e+01 4.024452273452781270e+01
1.169073375745496612e+01 -9.897918501071329089e+00 4.069162160979188059e+01
1.075618429877368420e+01 -1.066693908263622959e+01 4.142321210618184324e+01
1.083063032488210276e+01 -1.035954631939364745e+01 4.047454594872561984e+01
1.262326384895767006e+01 -1.321358362500190253e+01 3.944123130929123988e+01
1.297862418863940448e+01 -1.191995581843737995e+01 3.988871999860566575e+01
1.204485557377916116e+01 -1.268964178026378775e+01 4.062060775917373689e+01
1.211850916359324337e+01 -1.238174881563731233e+01 3.967204196227769586e+01
1.679709804734977752e+01 -8.223256820353682883e+00 4.127566762515105836e+01
1.646665801134441764e+01 -9.555063043239240272e+00 4.093346656248748161e+01
1.733292995365752631e+01 -9.298706711316459206e+00 4.202151727502076284e+01
1.731934443763802989e+01 -9.046707637439784122e+00 4.105388516490877038e+01
1.551074814758871945e+01 -6.204636667680016870e+00 4.191038640459704823e+01
1.518585600053172513e+01 -7.540415645388036658e+00 4.157851351402896256e+01
1.604716752370611843e+01 -7.271851265701489098e+00 4.266755696312114310e+01
1.603645459331477596e+01 -7.028293099435990676e+00 4.169772983792417165e+01
1.422779790558996282e+01 -4.181090674992268497e+00 4.231075510952582874e+01
1.391231442340724556e+01 -5.535957847759812367e+00 4.205618661849296558e+01
1.475404964757342441e+01 -5.197728124341354672e+00 4.314112093290751915e+01
1.475933374448895918e+01 -5.014258745559755148e+00 4.215810970948772507e+01
1.295338772316345555e+01 -2.163415653751449952e+00 4.251964814653029379e+01
1.264299622269502876e+01 -3.534053199482720675e+00 4.236150316662666881e+01
1.346774058480420599e+01 -3.114638120610594640e+00 4.343103003809078189e+01
1.348790994254679987e+01 -3.004549947899476603e+00 4.243731287952030584e+01
1.168726853819382328e+01 -1.542518786688241716e-01 4.255005838500343884e+01
1.137802052774953943e+01 -1.532688027198039205e+00 4.248464086086658398e+01
1.218397782936144047e+01 -1.037944406378717321e+00 4.353614529625287588e+01
1.222211123887452366e+01 -9.991120785435543272e-01 4.253762744794278916e+01
1.043057016048975605e+01 1.846241667551177024e+00 4.238946708725554657e+01
1.011664650501741392e+01 4.681803453371711221e-01 4.243844596793557855e+01
1.090416296555579834e+01 1.050694833504318471e+00 4.345849238622077593e+01
1.096186568485835267e+01 1.002109490419612836e+00 4.246134151467603601e+01
9.180981757230014750e+00 3.838277380056035248e+00 4.207255501448285884e+01
8.860015403624322161e+00 2.467717221431728891e+00 4.220873669990634625e+01
9.631977279085546684e+00 3.115170988794615070e+00 4.320114714017891799e+01
9.707101331884512518e+00 2.999169386901628709e+00 4.221074317964093581e+01
7.940681462522709566e+00 5.820212530645587634e+00 4.157153223877323711e+01
7.606844502869607894e+00 4.467401473978333648e+00 4.181330719473105262e+01
8.364954672800013924e+00 5.189440731420849495e+00 4.276405862436971006e+01
8.457746231339227094e+00 4.992122238814089563e+00 4.178812054275834953e+01
6.703691194222178851e+00 7.802262846911121486e+00 4.093997548084774962e+01
6.359762819591254335e+00 6.461959191199891706e+00 4.123203606293791523e+01
7.110749107621564313e+00 7.217956587347803321e+00 4.216181427961543449e+01
7.213728434608718487e+00 6.981022674068603884e+00 4.119576170394914527e+01
5.465860000094322046e+00 9.785213762145438920e+00 4.017219852112467748e+01
5.120836552221819105e+00 8.447238006125713738e+00 4.047349521330966837e+01
5.868925433161621186e+00 9.210322373217616487e+00 4.139981334166201066e+01
5.974975993079210568e+00 8.965925320576769053e+00 4.043595476313421244e+01
2.202028573899686847e+01 -4.905111783373496515e+00 4.182192303997010185e+01
2.169805048918417612e+01 -6.259541893144898950e+00 4.157356136514329137e+01
2.261620159743839764e+01 -5.927255541747595835e+00 4.259658840441773009e+01
2.254587641865596837e+01 -5.731177014947205883e+00 4.161852522621449424e+01
2.073978186604497154e+01 -2.882693147223038377e+00 4.226400230663590918e+01
2.042219553642491547e+01 -4.249941535352283140e+00 4.209146022945922283e+01
2.134325869713398660e+01 -3.858592533084181042e+00 4.309070424991087123e+01
2.126797556872060468e+01 -3.716550435183287426e+00 4.210371058579736570e+01
1.946475516201111589e+01 -8.637572574889030852e-01 4.249520792093539256e+01
1.915090900648782224e+01 -2.240857275852468078e+00 4.242382073660713360e+01
2.005932827311168865e+01 -1.772393052241483691e+00 4.340122326741167313e+01
1.999584371428267815e+01 -1.706304039546926443e+00 4.240543114392838930e+01
1.819764226836097620e+01 1.146489519815662383e+00 4.253152824616746841e+01
1.788358084816643512e+01 -2.317994564522818379e-01 4.257257605053813165e+01
1.877182514971022087e+01 3.197005926039474533e-01 4.352487314528638507e+01
1.872940890672840553e+01 2.996167998734773352e-01 4.252597500052844026e+01
1.693969529891097636e+01 3.147505701931081035e+00 4.240328558731062714e+01
1.662029833800778533e+01 1.776392962494155681e+00 4.253758166737097213e+01
1.749402198242718143e+01 2.392847922767031843e+00 4.346310329063941680e+01
1.746859919744401779e+01 2.301266710989524622e+00 4.246763025551839377e+01
1.568999129176446417e+01 5.140493317727083067e+00 4.210044310756369867e+01
1.536129056388615588e+01 3.783644759840660399e+00 4.232609288587913454e+01
1.622386080774326444e+01 4.460262446129037883e+00 4.321949149848945382e+01
1.621334263781573526e+01 4.298700321712816574e+00 4.223268500881911791e+01
1.444832481532679402e+01 7.123067419594773853e+00 4.161412843772061620e+01
1.410654300649848558e+01 5.790665820812857412e+00 4.194259635809860498e+01
1.495768515881618299e+01 6.532747444926202185e+00 4.279399044998631751e+01
1.496356727922978536e+01 6.291972259954958346e+00 4.182342736035148789e+01
1.321344972914686622e+01 9.105135343753271826e+00 4.098671937448640534e+01
1.285668682745727764e+01 7.792366215855565770e+00 4.137318728882952712e+01
1.370233462110148359e+01 8.567720392947338226e+00 4.220005227730770514e+01
1.371920117307238840e+01 8.281137153627543768e+00 4.124214541003637180e+01
1.198361675016138861e+01 1.109147613572472935e+01 4.022199210403132952e+01
1.161238131134680351e+01 9.787400181562647461e+00 4.062395000573796011e+01
1.246090600270298765e+01 1.056575659287424074e+01 4.144502682621764222e+01
1.248017237072976826e+01 1.026624963064218576e+01 4.049112725779464483e+01
1.074960283441042286e+01 1.307236351276870856e+01 3.930329129498810659e+01
1.037882324482903229e+01 1.176741914203282668e+01 3.970284440188954278e+01
1.122452742985446328e+01 1.254574152535417575e+01 4.052685817547069291e+01
1.124640892358814881e+01 1.224736431891047417e+01 3.957266100354717508e+01
1.293640185155024769e+00 4.822639455980246126e+00 4.054995515209586898e+01
1.622257710235118111e+00 6.183908847529401065e+00 4.035258198816108433e+01
5.911325172808048478e-01 5.828764819920102092e+00 4.125294500167751011e+01
7.838299004899571543e-01 5.642557248952971172e+00 4.028951650977015930e+01
2.537759610225327034e+00 2.833150470518649655e+00 4.110755445832631949e+01
2.856860379106385572e+00 4.205209118356898479e+00 4.098253539501278908e+01
1.826542510385175344e+00 3.796006569050216051e+00 4.186060051961044337e+01
2.022521257189112021e+00 3.661916013149933313e+00 4.088920355975339760e+01
3.788174093320249902e+00 8.376674758226094752e-01 4.147289762354419906e+01
4.100081582083489273e+00 2.216678068637557786e+00 4.144059432096420181e+01
3.085033141299390991e+00 1.741307489728600055e+00 4.230297444339834811e+01
3.266471177493837530e+00 1.677282145206845376e+00 4.132165849311486738e+01
5.043109093755049344e+00 -1.158009879206179260e+00 4.165631987869993935e+01
5.350236158085755811e+00 2.205752628289268102e-01 4.172826411068310648e+01
4.355973857777099667e+00 -3.273127290642484089e-01 4.257162715618854065e+01
4.515751321651026551e+00 -3.113987638416289006e-01 4.158460238053753955e+01
6.299018733130565373e+00 -3.153060560536146362e+00 4.167684858607689335e+01
6.607797622400044091e+00 -1.782555705922823197e+00 4.183924329357323302e+01
5.631082828573172883e+00 -2.389683314521834578e+00 4.266230117634732721e+01
5.770433349907578169e+00 -2.304181122960823558e+00 4.167575629270437076e+01
7.557841806438708510e+00 -5.147760204784278315e+00 4.152070501014959802e+01
7.871843233558482922e+00 -3.792942619371814317e+00 4.177736122773235650e+01
6.911024795230227724e+00 -4.459092970068539330e+00 4.257301921885359519e+01
7.030588922510388805e+00 -4.301119341116071304e+00 4.159284130029833193e+01
8.820466304575807825e+00 -7.139368919684727643e+00 4.117705164566250886e+01
9.142189810677832540e+00 -5.811723469952968735e+00 4.154290892033116478e+01
8.197842306820717795e+00 -6.544400011387851102e+00 4.229881425672577677e+01
8.296289699706356657e+00 -6.302267827272709511e+00 4.133357847400237972e+01
1.008376092939066382e+01 -9.137556823164356246e+00 4.068381256174268401e+01
1.042032509870146129e+01 -7.832985922727123906e+00 4.111371874414592043e+01
9.487246275768427495e+00 -8.600888587360943305e+00 4.184835430538848300e+01
9.567607341742377258e+00 -8.307680990396068665e+00 4.089568888449948503e+01
1.134908447327400083e+01 -1.114962513068732974e+01 4.004682314771088159e+01
1.170482675874311340e+01 -9.855966539179664920e+00 4.049391919438051701e+01
1.077016748275692848e+01 -1.062480600269407205e+01 4.122555975992883504e+01
1.084461350886534703e+01 -1.031741323945148991e+01 4.027689360247261163e+01
1.263194771441144404e+01 -1.316345407640340248e+01 3.924405598774053061e+01
1.298760450078349749e+01 -1.186990667489195594e+01 3.969154159683929350e+01
1.205372627150808462e+01 -1.263941194803077650e+01 4.042347949550076436e+01
1.212737986132216683e+01 -1.233151898340430108e+01 3.947491369860472332e+01
1.678473541848034856e+01 -8.186445664958052149e+00 4.107746493532719967e+01
1.645420393201149878e+01 -9.518230926890559829e+00 4.073527061545608063e+01
1.732051060872201020e+01 -9.261929366448939049e+00 4.182330657625976045e+01
1.730692509270251378e+01 -9.009930292572263966e+00 4.085567446614776799e+01
1.550349906483670992e+01 -6.175934496512594407e+00 4.171134988372656949e+01
1.517852913069571308e+01 -7.511695864453958649e+00 4.137948227485247088e+01
1.603987036499757224e+01 -7.243178037953975412e+00 4.246851370458399089e+01
1.602915743460622977e+01 -6.999619871688476991e+00 4.149868657938701944e+01
1.422564048837082318e+01 -4.160498636611428047e+00 4.211116264330923542e+01
1.391011409605753713e+01 -5.515356113628726575e+00 4.185659573123290045e+01
1.475186586492825924e+01 -5.177152324483684787e+00 4.294152529420505005e+01
1.475714996184379402e+01 -4.993682945702085263e+00 4.195851407078525597e+01
1.295631732410902615e+01 -2.150925466274424380e+00 4.231977190195473071e+01
1.264591189842558627e+01 -3.521559866060011590e+00 4.216162698793380770e+01
1.347066165642571356e+01 -3.102153278358869226e+00 4.323115302822998274e+01
1.349083101416830743e+01 -2.992065105647751189e+00 4.223743586965950669e+01
1.169528518047680521e+01 -1.498524065347847101e-01 4.235016177646416935e+01
1.138603888563329214e+01 -1.528288942347352908e+00 4.228474430278469498e+01
1.219199552181978952e+01 -1.033544270395303943e+00 4.333624875363690165e+01
1.223012893133287271e+01 -9.947119425601407272e-01 4.233773090532681493e+01
1.044367479312481706e+01 1.842562033269815158e+00 4.218980363266948075e+01
1.012975396422953267e+01 4.645000740785464322e-01 4.223878270795290035e+01
1.091726933378804176e+01 1.047016295610785575e+00 4.325882897864895682e+01
1.097497205309059609e+01 9.984309525260799401e-01 4.226167810710421691e+01
9.199173375112071227e+00 3.826528635929264954e+00 4.187336824917326794e+01
8.878200163368209274e+00 2.455970013834540833e+00 4.200954923442687061e+01
9.650164666395612656e+00 3.103419590469234102e+00 4.300196036484672391e+01
9.725288719194578491e+00 2.987417988576248185e+00 4.201155640430874172e+01
7.963962752233326725e+00 5.800406354534207054e+00 4.137305582289003780e+01
7.630093235000854790e+00 4.447602518460648469e+00 4.161482622341007698e+01
8.388215710858709429e+00 5.169622067162455537e+00 4.256558280786879322e+01
8.481007269397922599e+00 4.972303574555695604e+00 4.158964472625743269e+01
6.732052703658296444e+00 7.774402897080462616e+00 4.074243433937081704e+01
6.388070181971955641e+00 6.434111238045264081e+00 4.103448620718710060e+01
7.139076716466578709e+00 7.190076032708955900e+00 4.196427457793361526e+01
7.242056043453732883e+00 6.953142119429756463e+00 4.099822200226732605e+01
5.499282136519600073e+00 9.749297574211240658e+00 3.997580939264940270e+01
5.154203229186768098e+00 8.411334048307068656e+00 4.027709688170936175e+01
5.902312821197522652e+00 9.174385084804614010e+00 4.120342574018324200e+01
6.008363381115112034e+00 8.929988032163766576e+00 4.023956716165544378e+01
2.198650508606313991e+01 -4.881723963809743161e+00 4.162510026788393702e+01
2.166425946264063285e+01 -6.236151824967661739e+00 4.137673978973931099e+01
2.258241454073489507e+01 -5.903871712978435937e+00 4.239976529271866212e+01
2.251208936195246579e+01 -5.707793186178045985e+00 4.142170211451542627e+01
2.071112649190515498e+01 -2.867420928826047710e+00 4.206603815501509303e+01
2.039354049309267225e+01 -4.234669389297601505e+00 4.189349604219493273e+01
2.131460352663009417e+01 -3.843320186264180371e+00 4.289274010123953929e+01
2.123932039821671225e+01 -3.701278088363286756e+00 4.190574643712603375e+01
1.944122425672004439e+01 -8.565889510489156367e-01 4.229638288902070542e+01
1.912737616455723000e+01 -2.233688535935473674e+00 4.222499585692780499e+01
2.003579617864382101e+01 -1.765225498140478688e+00 4.320239826137891725e+01
1.997231161981481051e+01 -1.699136485445921441e+00 4.220660613789563342e+01
1.817923697085451451e+01 1.145566443206665674e+00 4.233211271726776914e+01
1.786515561114119066e+01 -2.327179669437059450e-01 4.237316127652472630e+01
1.875340760948167329e+01 3.187698242698557838e-01 4.332545829089919209e+01
1.871099136649985795e+01 2.986860315393856657e-01 4.232656014614124729e+01
1.692641502294420164e+01 3.138502007527321780e+00 4.220354017142781089e+01
1.660696782655627857e+01 1.767400991302324753e+00 4.233783645591356048e+01
1.748071076300812265e+01 2.383825083335477046e+00 4.326336042630093459e+01
1.745528797802495902e+01 2.292243871557969825e+00 4.226788739117991156e+01
1.568183584213984183e+01 5.123419130996030191e+00 4.190061860956852513e+01
1.535304247003959510e+01 3.766592584697056267e+00 4.212626577157449503e+01
1.621564796407074383e+01 4.443153567991384278e+00 4.301967329199901258e+01
1.620512979414321464e+01 4.281591443575162970e+00 4.203286680232867667e+01
1.444529554303140806e+01 7.097932622444841577e+00 4.141446547683106871e+01
1.410336506596245343e+01 5.765566760520357548e+00 4.174292363067966249e+01
1.495456303419413047e+01 6.507558341527548862e+00 4.259434039853939424e+01
1.496044515460773283e+01 6.266783156556305023e+00 4.162377730890456462e+01
1.321553517583805260e+01 9.071941991588799326e+00 4.078745293527506988e+01
1.285857522650521290e+01 7.759221155191136532e+00 4.117390293237652799e+01
1.370429584720070615e+01 8.534456658786519156e+00 4.200080470749594497e+01
1.372116239917161096e+01 8.247873419466724698e+00 4.104289784022461163e+01
1.199080289870337346e+01 1.105022515662878213e+01 4.002334942451059163e+01
1.161933376565526643e+01 9.746208552710772466e+00 4.042528397129480311e+01
1.246794349956117465e+01 1.052442360350381634e+01 4.124640689402885840e+01
1.248720986758795526e+01 1.022491664127176136e+01 4.029250732560586101e+01
1.076185575156969243e+01 1.302304714333140723e+01 3.910549309183934952e+01
1.039084666679088009e+01 1.171816083160711308e+01 3.950502278095662945e+01
1.123663440587618290e+01 1.249634443738044531e+01 4.032908186628885971e+01
1.125851589960986843e+01 1.219796723093674373e+01 3.937488469436534189e+01
1.348243827244831383e+00 4.800228957812560537e+00 4.035741131158027173e+01
1.676840431984599089e+00 6.161502671645479268e+00 4.016003312793012725e+01
6.457231497402826648e-01 5.806345921625326589e+00 4.106040018262072522e+01
8.384205329494349712e-01 5.620138350658195669e+00 4.009697169071337441e+01
2.587314356718846131e+00 2.818790543550368621e+00 4.091355879600750001e+01
2.906391754352910972e+00 4.190854134828808419e+00 4.078853433517209481e+01
1.876082808355457043e+00 3.781637233523105213e+00 4.166660324105782820e+01
2.072061555159393720e+00 3.647546677622822475e+00 4.069520628120078243e+01
3.832659157779983339e+00 8.313539405420045103e-01 4.127766087587866650e+01
4.144563735701873419e+00 2.210365178141151077e+00 4.124535699303716996e+01
3.129516415394219209e+00 1.734992795971817880e+00 4.210773744029168597e+01
3.310954451588665748e+00 1.670967451450063201e+00 4.112642149000820524e+01
5.082509058558929205e+00 -1.156276936448903170e+00 4.146006184437688802e+01
5.389667626132077061e+00 2.223009267592591653e-01 4.153201105867995580e+01
4.395393126749232771e+00 -3.255674804488236096e-01 4.237537244519244695e+01
4.555170590623159654e+00 -3.096535152262041013e-01 4.138834766954144584e+01
6.333319745536146961e+00 -3.143279110049699288e+00 4.147979829368927085e+01
6.642175266327126515e+00 -1.772792617078366550e+00 4.164220223409734700e+01
5.665430819314391186e+00 -2.379872601333119508e+00 4.246526005584927788e+01
5.804781340648796473e+00 -2.294370409772108488e+00 4.147871517220632143e+01
7.587029626341302624e+00 -5.129927405386501604e+00 4.132310022280978501e+01
7.901163347407281989e+00 -3.775142546084101713e+00 4.157976730346918259e+01
6.940293942771328162e+00 -4.441211048506240822e+00 4.237543226896388404e+01
7.059858070051488355e+00 -4.283237419553772796e+00 4.139525435040862078e+01
8.844524831414016575e+00 -7.113481674712515357e+00 4.097913806528919878e+01
9.166449035211188701e+00 -5.785887005970012709e+00 4.134500307118076989e+01
8.222024754331510366e+00 -6.518440916052464118e+00 4.210093133927756526e+01
8.320472147217149228e+00 -6.276308731937322527e+00 4.113569555655416821e+01
1.010268798326468342e+01 -9.103603720182572800e+00 4.048585177694678805e+01
1.043950985534420717e+01 -7.799099710496206761e+00 4.091575911021878653e+01
9.506333874557741481e+00 -8.566846131253756269e+00 4.165043456393776466e+01
9.586694940531691245e+00 -8.273638534288881630e+00 4.069776914304876669e+01
1.136287911044298227e+01 -1.110759462489498972e+01 3.984908716325846711e+01
1.171892227326592817e+01 -9.814017811255443036e+00 4.029618032292565744e+01
1.078415179227261333e+01 -1.058267377721715619e+01 4.102787161975444263e+01
1.085859781838103189e+01 -1.027528101397457405e+01 4.007920546229821923e+01
1.264063071442477337e+01 -1.311332699997829465e+01 3.904682949670174708e+01
1.299658778807344461e+01 -1.181986111206273904e+01 3.949431196397649302e+01
1.206259855933699932e+01 -1.258918332298700093e+01 4.022630066360436984e+01
1.213625214915108153e+01 -1.228129035836052552e+01 3.927773486670832881e+01
1.677237440591264317e+01 -8.149634686898812319e+00 4.087923570315444977e+01
1.644175021928324298e+01 -9.481398695085410111e+00 4.053704821987311391e+01
1.730809210176338198e+01 -9.225152657782025756e+00 4.162506922657615149e+01
1.729450658574388555e+01 -8.973153583905350672e+00 4.065743711646415903e+01
1.549625116488831367e+01 -6.147232320074016876e+00 4.151229702744983285e+01
1.517120236944925082e+01 -7.482975830467873735e+00 4.118043477436233246e+01
1.603257372281037973e+01 -7.214505202342724743e+00 4.226945401819731529e+01
1.602186079241903727e+01 -6.970947036077226322e+00 4.129962689300034384e+01
1.422348371720388371e+01 -4.139906576607106814e+00 4.191156154440326986e+01
1.390791380848110670e+01 -5.494754219471300161e+00 4.165699623385598471e+01
1.474968235509936676e+01 -5.156576731730960539e+00 4.274192097811699398e+01
1.475496645201490153e+01 -4.973107352949361015e+00 4.175890975469719990e+01
1.295924715947306538e+01 -2.138435284930860103e+00 4.211989215784721097e+01
1.264882760614951707e+01 -3.509066492889411304e+00 4.196174731068332164e+01
1.347358283840296878e+01 -3.089668519866747953e+00 4.303127250771938606e+01
1.349375219614556265e+01 -2.979580347155629916e+00 4.203755534914891001e+01
1.170330184213280411e+01 -1.454529675384099718e-01 4.215026412833122293e+01
1.139405728455531452e+01 -1.523889895522807292e+00 4.208484670574640774e+01
1.220001324691202349e+01 -1.029144159165070516e+00 4.313635117225975080e+01
1.223814665642510668e+01 -9.903118313299072994e-01 4.213783332394966408e+01
1.045677944421695216e+01 1.838882350649371888e+00 4.199013880457618342e+01
1.014286148210996963e+01 4.608197454253599723e-01 4.203911807723114435e+01
1.093037574516506538e+01 1.043337724978635528e+00 4.305916419823840613e+01
1.098807846446761971e+01 9.947523818939298934e-01 4.206201332669366622e+01
9.217365199264101250e+00 3.814779819603717037e+00 4.167417686000996468e+01
8.896385030707977037e+00 2.444222756182743872e+00 4.181035713501540840e+01
9.668352199088221965e+00 3.091668081774993304e+00 4.280276896551308141e+01
9.743476251887187800e+00 2.975666479882006943e+00 4.181236500497509923e+01
7.987244677034526674e+00 5.780600097677223381e+00 4.117456849512306860e+01
7.653342133062227326e+00 4.427803587073178448e+00 4.141633427439371928e+01
8.411477091758682079e+00 5.149803142607207285e+00 4.236709608799952065e+01
8.504268650297895249e+00 4.952484650000447353e+00 4.139115800638816012e+01
6.760415342117516602e+00 7.746542758080091851e+00 4.054487285547097741e+01
6.416377892585530596e+00 6.406263270991499503e+00 4.083691588279583584e+01
7.167404964326676620e+00 7.162194992894578505e+00 4.176671455419333512e+01
7.270384291313830794e+00 6.925261079615379067e+00 4.080066197852704590e+01
5.532705812182732608e+00 9.713380901446308613e+00 3.977938725141419241e+01
5.187570646395829321e+00 8.375429784245746134e+00 4.008066540415516954e+01
5.935701246631486683e+00 9.138447008733772137e+00 4.100700514751373760e+01
6.041751806549076065e+00 8.894049956092924702e+00 4.004314656898593938e+01
2.195272490609080052e+01 -4.858336365253176581e+00 4.142826563559194142e+01
2.163046874720174984e+01 -6.212761942629914103e+00 4.117990637281769750e+01
2.254862785703412698e+01 -5.880488167442796232e+00 4.220293031552613883e+01
2.247830267825169770e+01 -5.684409640642406281e+00 4.122486713732290298e+01
2.068247130894686947e+01 -2.852148860451162005e+00 4.186806780969458686e+01
2.036488564659157063e+01 -4.219397394500418841e+00 4.169552566062223775e+01
2.128594855078543446e+01 -3.828047987273002661e+00 4.269476975891890191e+01
2.121066542237205255e+01 -3.686005889372109046e+00 4.170777609480539638e+01
1.941769344807450182e+01 -8.494207144365855111e-01 4.209755486263539837e+01
1.910384341507390360e+01 -2.226519864903564017e+00 4.202616798310807411e+01
2.001226417824213399e+01 -1.758058015496628101e+00 4.300357026093183777e+01
1.994877961941312350e+01 -1.691969002802070854e+00 4.200777813744855393e+01
1.816083189342035098e+01 1.144643400896199203e+00 4.213269480145734747e+01
1.784673035770324745e+01 -2.336363886726691708e-01 4.217374412454741162e+01
1.873499014397080487e+01 3.178389991643031931e-01 4.312604105760451745e+01
1.869257390098898952e+01 2.977552064338330751e-01 4.212714291284657264e+01
1.691313528714384518e+01 3.129498452627465621e+00 4.200379026445548902e+01
1.659363720738964076e+01 1.758409312768267174e+00 4.213808675582269103e+01
1.746739968369690033e+01 2.374802137479235409e+00 4.306361310371465834e+01
1.744197689871373669e+01 2.283220925701728188e+00 4.206814006859363531e+01
1.567368145179371197e+01 5.106345178564983378e+00 4.170078468497765556e+01
1.534479420517198633e+01 3.749540942804595822e+00 4.192642919484273278e+01
1.620743541412898381e+01 4.426044466783960019e+00 4.281984574195427484e+01
1.619691724420145462e+01 4.264482342367738710e+00 4.183303925228393894e+01
1.444226806459482226e+01 7.072798136252237633e+00 4.121478519890549563e+01
1.410018692419964026e+01 5.740468507703281986e+00 4.154323345095829012e+01
1.495144144865262348e+01 6.482368828769232927e+00 4.239467320114650306e+01
1.495732356906622584e+01 6.241593643797989088e+00 4.142411011151167344e+01
1.321762319388617435e+01 9.038748906475516876e+00 4.058815826957940942e+01
1.286046353793364005e+01 7.726077042860175048e+00 4.097459009879704439e+01
1.370625795295123517e+01 8.501192256678395509e+00 4.180152916114238337e+01
1.372312450492213998e+01 8.214609017358601051e+00 4.084362229387104293e+01
1.199799240659294064e+01 1.100897426881745211e+01 3.982466449663035490e+01
1.162628640608705233e+01 9.705017862903424941e+00 4.022657535821994657e+01
1.247498231535649715e+01 1.048308961264776329e+01 4.104774501537922760e+01
1.249424868338327776e+01 1.018358265041570831e+01 4.009384544695623021e+01
1.077411253203733565e+01 1.297373043728110886e+01 3.890763543132865721e+01
1.040287083576431648e+01 1.166890301333520341e+01 3.930714137204421377e+01
1.124874324233004153e+01 1.244694593677912486e+01 4.013124639028494300e+01
1.127062473606372706e+01 1.214856873033542328e+01 3.917704921836142518e+01
1.402848199897451575e+00 4.777818214463699142e+00 4.016485125646720178e+01
1.731423529925387950e+00 6.139096323443040681e+00 3.996746796814049674e+01
7.003142925676311137e-01 5.783926635689001117e+00 4.086783913245897537e+01
8.930116757767834201e-01 5.597719064721870197e+00 3.990441064055162457e+01
2.636869610609105852e+00 2.804430594000138388e+00 4.071955519798702738e+01
2.955923220973904364e+00 4.176499216271675863e+00 4.059452524361179826e+01
1.925623356749479154e+00 3.767267707720374670e+00 4.147259799810766623e+01
2.121602103553415830e+00 3.633177151820091932e+00 4.050120103825062046e+01
3.877144397504654449e+00 8.250403855449780499e-01 4.108242113187764488e+01
4.189045933377061992e+00 2.204052296985266945e+00 4.105011664261942883e+01
3.173999784055599349e+00 1.728678030275994315e+00 4.191249742933623423e+01
3.355437820250045888e+00 1.664652685754239636e+00 4.093118147905275350e+01
5.121908842633139614e+00 -1.154544163263105938e+00 4.126380252247827940e+01
5.429099271859597842e+00 2.240263375182601768e-01 4.133575677577213980e+01
4.434812435003764541e+00 -3.238222617972344453e-01 4.217911648448679784e+01
4.594589898877691425e+00 -3.079082965746149370e-01 4.119209170883579674e+01
6.367620224537588136e+00 -3.133498100211052240e+00 4.128274530343325210e+01
6.676553375407606516e+00 -1.763030212781322437e+00 4.144515859666202573e+01
5.699778891112956103e+00 -2.370061949826407943e+00 4.226821635712051517e+01
5.839129412447361389e+00 -2.284559758265396923e+00 4.128167147347755872e+01
7.616216568748031435e+00 -5.112095420009495683e+00 4.112548831567976748e+01
7.930484351970246593e+00 -3.757343737883910073e+00 4.138216640240804622e+01
6.969563306689909865e+00 -4.423329291369503480e+00 4.217783843741106153e+01
7.089127433970070946e+00 -4.265355662417035454e+00 4.119766051885579827e+01
8.868582131428272675e+00 -7.087595707730776518e+00 4.078121003005757217e+01
9.190709709624478307e+00 -5.760052528089267376e+00 4.114708286254552405e+01
8.246207643571194623e+00 -6.492482156243598368e+00 4.190303437357172101e+01
8.344655036456833486e+00 -6.250349972128456777e+00 4.093779859084832395e+01
1.012161364637241512e+01 -9.069652342603037098e+00 4.028786649010818621e+01
1.045869662118320598e+01 -7.765216156499216815e+00 4.071777497394588607e+01
9.525422226944710857e+00 -8.532804247463461778e+00 4.145249085622190677e+01
9.605783292918660621e+00 -8.239596650498587138e+00 4.049982543533290880e+01
1.137667238584666940e+01 -1.106556628278447718e+01 3.965131403938316623e+01
1.173302035070740601e+01 -9.772072382655565548e+00 4.009840425205719328e+01
1.079813725025814897e+01 -1.054054242386893847e+01 4.083014695564357055e+01
1.087258327636656752e+01 -1.023314966062635634e+01 3.988148079818734715e+01
1.264931283249300975e+01 -1.306320244516757256e+01 3.884955078315345389e+01
1.300557410993462248e+01 -1.176981920262161907e+01 3.929703004535114275e+01
1.207147246999748447e+01 -1.253895593023716160e+01 4.002907022218545308e+01
1.214512605981156668e+01 -1.223106296561068618e+01 3.908050442528941204e+01
1.676001504299881262e+01 -8.112823890084129630e+00 4.068097938312806860e+01
1.642929688082782391e+01 -9.444566345581517197e+00 4.033879883219620410e+01
1.729567445006886572e+01 -9.188376598588313016e+00 4.142680467825198320e+01
1.728208893404936930e+01 -8.936377524711637932e+00 4.045917256813999074e+01
1.548900447201836883e+01 -6.118530138322733514e+00 4.131322750603889915e+01
1.516387571891771557e+01 -7.454255538181400631e+00 4.098137068438290243e+01
1.602527760763075193e+01 -7.185832766971659069e+00 4.207037757233986497e+01
1.601456467723940946e+01 -6.942274600706160648e+00 4.110055044714289352e+01
1.422132760528900874e+01 -4.119314494495158741e+00 4.171195164290423207e+01
1.390571356127295211e+01 -5.474152161894798141e+00 4.145738795693363699e+01
1.474749912351100534e+01 -5.136001350338846194e+00 4.254230781381321691e+01
1.475278322042654011e+01 -4.952531971557246671e+00 4.155929659039342283e+01
1.296217723396588184e+01 -2.125945109846437919e+00 4.192000884846472530e+01
1.265174334635548270e+01 -3.496573079136247486e+00 4.176186406915289950e+01
1.347650413285715487e+01 -3.077183846877088680e+00 4.283138841058427460e+01
1.349667349059974875e+01 -2.967095674165970642e+00 4.183767125201379855e+01
1.171131852346988289e+01 -1.410535624428371770e-01 4.195036542290137049e+01
1.140207572529542723e+01 -1.519490887593947459e+00 4.188494805206237714e+01
1.220803100523493967e+01 -1.024744073268565536e+00 4.293645253443632726e+01
1.224616441474802286e+01 -9.859117454334025421e-01 4.193793468612624054e+01
1.046988411411709841e+01 1.835202618577370215e+00 4.179047257637015633e+01
1.015596905985672826e+01 4.571393580745171104e-01 4.183945204922311234e+01
1.094348220055779564e+01 1.039659120824088179e+00 4.285949801839770146e+01
1.100118491986034996e+01 9.910737777393825443e-01 4.186234714685296154e+01
9.235557233921358744e+00 3.803030929508453895e+00 4.147498075367227699e+01
8.914570007818356956e+00 2.432475447368650734e+00 4.161116030814075373e+01
9.686539880126751711e+00 3.079916460344296780e+00 4.260357284885415652e+01
9.761663932925717546e+00 2.963914858451310863e+00 4.161316888831617433e+01
8.010527249854629162e+00 5.760793758419683108e+00 4.097607003678715643e+01
7.676591200310365792e+00 4.408004680342014758e+00 4.121783112763624501e+01
8.434738822393898161e+00 5.129983952408070813e+00 4.216859824624945219e+01
8.527530380933111331e+00 4.932665459801310881e+00 4.119266016463809166e+01
6.788779132287519502e+00 7.718682426174382272e+00 4.034729062595545912e+01
6.444685958220632394e+00 6.378415289925213116e+00 4.063932468398812858e+01
7.195733863884361980e+00 7.134313458167509836e+00 4.156913380560721549e+01
7.298713190871516154e+00 6.897379544888310399e+00 4.060308122994092628e+01
