-1.2629800391 7.0095759889 2.9716948478
-1.4187276446 6.6214141607 3.0161571232
-1.5738086053 6.2328601103 3.0581821844
-1.7282385357 5.8442429126 3.0977405847
-1.8820618238 5.4549057131 3.1349333331
-2.0359444683 5.0644793562 3.1697566320
-2.1897266582 4.6741049490 3.2020973645
-2.3434091921 4.2837854260 3.2319805118
-2.4969928792 3.8935236537 3.2594310990
-2.6504785384 3.5033224288 3.2844741933
-2.8038669976 3.1131844784 3.3071349010
-2.9571590935 2.7231124589 3.3274383651
-3.1103556700 2.3331089550 3.3454097635
-3.2634575778 1.9431764804 3.3610743055
-3.4164656735 1.5533174764 3.3744572303
-3.5693808191 1.1635343122 3.3855838044
-3.7222038812 0.7738292850 3.3944793186
-3.8749357299 0.3842046199 3.4011690865
-4.0275772387 -0.0053375304 3.4056784416
-4.1801292833 -0.3947950845 3.4080327352
-4.3325927412 -0.7841660326 3.4082573343
-4.4849684912 -1.1734484355 3.4063776192
-4.6372574124 -1.5626404245 3.4024189815
-4.7894603836 -1.9517402007 3.3964068215
-4.9415782831 -2.3407460341 3.3883665470
-5.0936119879 -2.7296562628 3.3783235706
-5.2455623731 -3.1184692920 3.3663033080
-5.3976840495 -3.5069795491 3.3523217454
-5.5504451028 -3.8950402720 3.3363889043
-5.7037879578 -4.2831017887 3.3185287128
-5.8577359923 -4.6708403546 3.2987768861
-6.0121962996 -5.0575128955 3.2771970975
-6.1670625676 -5.4455920351 3.2537271114
-6.3221243430 -5.8311937849 3.2285690148
-6.4774643609 -6.2174277025 3.2016128239
-6.6331455958 -6.6043866019 3.1728655918
-0.0806813158 8.7718972003 2.7799529900
-0.2385611533 8.3846648951 2.8355108696
-0.3959858557 7.9981284445 2.8883330507
-0.5530227927 7.6122003602 2.9384632754
-0.7098182203 7.2237052833 2.9863970820
-0.8660637191 6.8366501087 3.0315668449
-1.0217492310 6.4484356158 3.0743786812
-1.1767667942 6.0598270338 3.1147438912
-1.3311332851 5.6711538536 3.1526357887
-1.4848929084 5.2817555901 3.1881506679
-1.6387165468 4.8912558882 3.2212889164
-1.7924411115 4.5008111444 3.2519438128
-1.9460674043 4.1104242802 3.2801404126
-2.0995962370 3.7200981461 3.3059038147
-2.2530284300 3.3298355206 3.3292591590
-2.4063648126 2.9396391101 3.3502316233
-2.5596062211 2.5495115472 3.3688464216
-2.7127534989 2.1594553918 3.3851288007
-2.8658074952 1.7694731290 3.3991040385
-3.0187690646 1.3795671704 3.4107974409
-3.1716390663 0.9897398531 3.4202343398
-3.3244183628 0.5999934403 3.4274400899
-3.4771078204 0.2103301208 3.4324400675
-3.6297083072 -0.1792479897 3.4352596669
-3.7822206938 -0.5687388494 3.4359242988
-3.9346458512 -0.9581404891 3.4344593880
-4.0869846511 -1.3474510123 3.4308903707
-4.2392379655 -1.7366685937 3.4252426928
-4.3914066650 -2.1257914793 3.4175418074
-4.5434916194 -2.5148179851 3.4078131733
-4.6954936967 -2.9037464964 3.3960822518
-4.8474137624 -3.2925754665 3.3823745064
-4.9995024492 -3.6810892598 3.3667107698
-5.1522309558 -4.0691483435 3.3491070099
-5.3055419560 -4.4572044206 3.3295827637
-5.4594591470 -4.8449352397 3.3081766833
-5.6138903783 -5.2316010889 3.2849575335
-5.7687266867 -5.6196660479 3.2598417354
-5.9237618534 -6.0052616780 3.2330607798
-6.0790750161 -6.3914852466 3.2044802462
-6.2347291488 -6.7784288978 3.1741071796
0.3160353115 8.5990690683 2.8423853144
0.1582131941 8.2117910096 2.8963184792
0.0008437996 7.8252089357 2.9475176545
-0.1561399471 7.4392353492 2.9960265193
-0.3128747404 7.0506925498 3.0423160604
-0.4690638142 6.6635908384 3.0858482653
-0.6246896454 6.2753276644 3.1270079734
-0.7796465340 5.8866687611 3.1657116049
-0.9339525608 5.4979439313 3.2019352784
-1.0876518436 5.1084892490 3.2357704981
-1.2414199512 4.7179211346 3.2672218121
-1.3950903961 4.3274110114 3.2961891035
-1.5486639817 3.9369617840 3.3226975028
-1.7021415203 3.5465762835 3.3467721829
-1.8555238324 3.1562572662 3.3684383562
-2.0088117461 2.7660074138 3.3877212725
-2.1620060962 2.3758293322 3.4046462160
-2.3151077237 1.9857255515 3.4192385029
-2.4681174745 1.5956985260 3.4315234786
-2.6210361991 1.2057506335 3.4415265153
-2.7738647521 0.8158841756 3.4492730095
-2.9266039909 0.4261013781 3.4547883794
-3.0792547755 0.0364043909 3.4580980625
-3.2318179676 -0.3532047114 3.4592275132
-3.3842944300 -0.7427239293 3.4582022006
-3.5366850261 -1.1321513375 3.4550476055
-3.6889906193 -1.5214850843 3.4497892191
-3.8412120720 -1.9107233911 3.4424525403
-3.9933502456 -2.2998645515 3.4330630731
-4.1454059998 -2.6889069302 3.4216463255
-4.2973801919 -3.0778489618 3.4082278067
-4.4492736764 -3.4666891504 3.3928330254
-4.6013329590 -3.8552019099 3.3754877287
-4.7540321436 -4.2432550666 3.3562137412
-4.9073142542 -4.6313015466 3.3350262036
-5.0612032418 -5.0190206970 3.3119666710
-5.2156076215 -5.4056763798 3.2871089318
-5.3704162438 -5.7937233466 3.2603482472
-5.5254265457 -6.1793098702 3.2319451988
-5.6807145650 -6.5655199778 3.2017411747
-5.8363432627 -6.9524451294 3.1697432253
0.7128318966 8.4261001074 2.8992545893
0.5550659559 8.0387797014 2.9515615211
0.3977502889 7.6521552548 3.0011362676
0.2408181255 7.2661392776 3.0480224330
0.0841418513 6.8775527105 3.0926661266
-0.0719928632 6.4904080467 3.1345593636
-0.2275614753 6.1021002258 3.1740654304
-0.3824604622 5.7133952631 3.2111059470
-0.5367090482 5.3246231681 3.2456598781
-0.6903513624 4.9351167661 3.2778138701
-0.8440674612 4.5444852326 3.3075765989
-0.9976873343 4.1539147424 3.3348547524
-1.1512117845 3.7634081790 3.3596735362
-1.3046416232 3.3729683503 3.3820581969
-1.4579776689 2.9825979866 3.4020340199
-1.6112207470 2.5922997414 3.4196263263
-1.7643716887 2.2020761898 3.4348604702
-1.9174313307 1.8119298293 3.4477618363
-2.0704005139 1.4218630790 3.4583558372
-2.2232800831 1.0318782797 3.4666679106
-2.3760708866 0.6419776944 3.4727235166
-2.5287737746 0.2521635079 3.4765481356
-2.6813895992 -0.1375621718 3.4781672658
-2.8339192139 -0.5271973142 3.4776064199
-2.9863634726 -0.9167399653 3.4748911238
-3.1387232290 -1.3061882463 3.4700469136
-3.2909993363 -1.6955403536 3.4630993335
-3.4431926465 -2.0847945578 3.4540739335
-3.5953040098 -2.4739492023 3.4429962674
-3.7473342742 -2.8630027032 3.4298918905
-3.8992842851 -3.2519535470 3.4147863577
-4.0511548843 -3.6408002904 3.3977052214
-4.2031883029 -4.0293075154 3.3786792018
-4.3558613455 -4.4173505289 3.3577358826
-4.5091174874 -4.8053833299 3.3348860094
-4.6629808686 -5.1930869657 3.3101740011
-4.8173605816 -5.5797290789 3.2836785949
-4.9721437486 -5.9677543252 3.2552741085
-5.1271308932 -6.3533288221 3.2252498561
-5.2823954431 -6.7395224296 3.1934233177
-5.4380003336 -7.1264259103 3.1598015617
1.1096961447 8.2530000489 2.9505809748
0.9519847918 7.8656407449 3.0012602886
0.7947212296 7.4789772166 3.0492093143
0.6378390029 7.0929219995 3.0944715690
0.4812190874 6.7042956633 3.1374679987
0.3251366265 6.3171116707 3.1777210135
0.1696227301 5.9287632785 3.2155721049
0.0147788316 5.5400165599 3.2509481657
-0.1394153757 5.1512016245 3.2838310423
-0.2930041304 4.7616482445 3.3143024634
-0.4466717781 4.3709583342 3.3423751937
-0.6002446585 3.9803325318 3.3679629155
-0.7537235726 3.5897736963 3.3910909094
-0.9071093281 3.1992846079 3.4117844958
-1.0604027403 2.8088679676 3.4300690321
-1.2136046298 2.4185263967 3.4459699104
-1.3667158226 2.0282624362 3.4595125543
-1.5197371491 1.6380785469 3.4707224163
-1.6726694436 1.2479771097 3.4796249748
-1.8255135435 0.8579604248 3.4862457321
-1.9782702886 0.4680307133 3.4906102110
-2.1309405205 0.0781901162 3.4927439529
-2.2835250819 -0.3115593042 3.4926725146
-2.4360248161 -0.7012155642 3.4904214664
-2.5884405666 -1.0907767578 3.4860163893
-2.7407731756 -1.4802410560 3.4794828727
-2.8930234851 -1.8696067058 3.4708465123
-3.0451923347 -2.2588720293 3.4601329078
-3.1972805619 -2.6480354229 3.4473676601
-3.3492890018 -3.0370953557 3.4325763704
-3.5012184861 -3.4260503686 3.4157846371
-3.6530698431 -3.8148990732 3.3970180545
-3.8050808827 -4.2033963418 3.3763123671
-3.9577309099 -4.5914250777 3.3537008100
-4.1109639508 -4.9794402025 3.3291897424
-4.2648042724 -5.3671245625 3.3028264041
-4.4191614582 -5.7537497807 3.2746943984
-4.5739213509 -6.1417496694 3.2446473475
-4.7288870050 -6.5273092916 3.2130028976
-4.8841297172 -6.9134834386 3.1795549393
-5.0397123840 -7.3003621636 3.1443105715
1.5066157942 8.0797787061 2.9963852331
1.3489573995 7.6923839884 3.0454356814
1.1917442826 7.3056847035 3.0917578282
1.0349103124 6.9195934290 3.1353950921
0.8783445564 6.5309313564 3.1767430113
0.7223122109 6.1437116894 3.2153547073
0.5668504934 5.7553268331 3.2515496715
0.4120588381 5.3665426931 3.2852601334
0.2579159184 4.9776893723 3.3164708522
0.1043772869 4.5880937870 3.3452585874
-0.0492454920 4.1973505789 3.3716401457
-0.2027749793 3.8066745495 3.3955363833
-0.3562119718 3.4160685294 3.4169726552
-0.5095572728 3.0255352679 3.4359743551
-0.6628116915 2.6350774324 3.4525669122
-0.8159760423 2.2446976085 3.4667757885
-0.9690511440 1.8543982994 3.4786264763
-1.1220378191 1.4641819260 3.4881444945
-1.2749368935 1.0740508272 3.4953553869
-1.4277491952 0.6840072599 3.5002847186
-1.5804755541 0.2940533994 3.5029580739
-1.7331168014 -0.0958086600 3.5034010534
-1.8856737687 -0.4855769046 3.5016392714
-2.0381472878 -0.8752494003 3.4976983538
-2.1905381897 -1.2648242923 3.4916039352
-2.3428473042 -1.6542998035 3.4833816563
-2.4950754599 -2.0436742344 3.4730571625
-2.6472234828 -2.4329459612 3.4606561007
-2.7992921966 -2.8221134349 3.4462041177
-2.9512824216 -3.2111751806 3.4297268579
-3.1031949750 -3.6001297954 3.4112499613
-3.2550306697 -3.9889759476 3.3907990616
-3.4070227505 -4.3774589273 3.3684149716
-3.5596528268 -4.7654693413 3.3441364615
-3.7128655740 -5.1534628857 3.3179655193
-3.8666853252 -5.5411243011 3.2899521588
-4.0210220716 -5.9277293836 3.2601847597
-4.1757608161 -6.3157003757 3.2284965273
-4.3307066009 -6.7012423532 3.1952329983
-4.4859290600 -7.0873941639 3.1601648270
-4.6414910385 -7.4742451400 3.1232991547
1.9035786478 7.9064459481 3.0366887300
1.7459715469 7.5190193290 3.0841092050
1.5888071845 7.1322876379 3.1288034517
1.4320197620 6.7461635131 3.1708147786
1.2755059361 6.3574697618 3.2105131124
1.1195215412 5.9702180972 3.2474825535
0.9641094404 5.5818009059 3.2820204232
0.8093671605 5.1929836999 3.3140643427
0.6552724178 4.8040964679 3.3436020112
0.5017804568 4.4144634694 3.3707051747
0.3481989508 4.0236720662 3.3953946289
0.1947092478 3.6329509129 3.4175985718
0.0413105570 3.2423028076 3.4373424323
-0.1119979182 2.8517304648 3.4546516767
-0.2652169795 2.4612365148 3.4695518051
-0.4183474330 2.0708235039 3.4820683487
-0.5713900888 1.6804938937 3.4922268667
-0.7243457596 1.2902500621 3.5000529439
-0.8772152609 0.9000943025 3.5055721874
-1.0299994100 0.5100288251 3.5088102242
-1.1826990252 0.1200557567 3.5097926982
-1.3353149255 -0.2698228583 3.5085452677
-1.4878479298 -0.6596050577 3.5050936027
-1.6402988567 -1.0492889598 3.4994633827
-1.7926685234 -1.4388727634 3.4916802937
-1.9449577459 -1.8283547464 3.4817700263
-2.0971673378 -2.2177332646 3.4697582730
-2.2492981101 -2.6070067507 3.4556707262
-2.4013508713 -2.9961737130 3.4395330761
-2.5533264258 -3.3852327339 3.4213710081
-2.7052255747 -3.7741824691 3.4012102015
-2.8570491146 -4.1630216453 3.3790763271
-3.0090255832 -4.5514861020 3.3550153017
-3.1616387028 -4.9394742486 3.3290713065
-3.3148338955 -5.3274424090 3.3012419804
-3.4686355018 -5.7150773102 3.2715800600
-3.6229538399 -6.1016591078 3.2401786060
-3.7776735011 -6.4895977689 3.2068507132
-3.9326009881 -6.8751194146 3.1719693295
-4.0878047280 -7.2612461025 3.1352822582
-4.2433475013 -7.6480664335 3.0967966948
2.3005726029 7.7330116746 3.0715134319
2.1430151029 7.3455566854 3.1173029682
1.9858977785 6.9587959572 3.1603684324
1.8291551728 6.5726422063 3.2007530115
1.6726910234 6.1839208495 3.2388008586
1.5167523955 5.7966408775 3.2741272705
1.3613873322 5.4081954926 3.3070072640
1.2066915455 5.0193495866 3.3373838988
1.0526418593 4.6304329258 3.3652478357
0.8991931104 4.2407673137 3.3906657717
0.7456492785 3.8499328301 3.4136624311
0.5921957528 3.4591716614 3.4341735106
0.4388317500 3.0684865694 3.4522245126
0.2855564824 2.6778802302 3.4678409747
0.1323691574 2.2873552333 3.4810484666
-0.0207310213 1.8969140821 3.4918725873
-0.1737448526 1.5065591935 3.5003389623
-0.3266731383 1.1162928985 3.5064732401
-0.4795166818 0.7261174422 3.5103010899
-0.6322762877 0.3360349850 3.5118481987
-0.7849527611 -0.0539523980 3.5111402682
-0.9375469074 -0.4438427152 3.5082030127
-1.0900595313 -0.8336340583 3.5030621559
-1.2424914366 -1.2233246010 3.4957434286
-1.3948434255 -1.6129125981 3.4862725665
-1.5471162981 -2.0023963847 3.4746753074
-1.6993108523 -2.3917743746 3.4609773892
-1.8514278827 -2.7810450588 3.4452045471
-2.0034681809 -3.1702070049 3.4273825124
-2.1554325346 -3.5592588550 3.4075370094
-2.3073217275 -3.9481993243 3.3856937540
-2.4591365387 -4.3370272002 3.3618784519
-2.6111006594 -4.7254690063 3.3361421513
-2.7636997388 -5.1134310466 3.3085343139
-2.9168800415 -5.5013701276 3.2790482566
-3.0706658583 -5.8889750512 3.2477393852
-3.2249677573 -6.2755305109 3.2147053398
-3.3796703343 -6.6634335172 3.1797394383
-3.5345810415 -7.0489322313 3.1432415242
-3.6897675414 -7.4350311039 3.1049369653
-3.8452925369 -7.8218179950 3.0648330232
2.6975856829 7.5594857895 3.1008819016
2.5400760675 7.1720059730 3.1450396776
2.3830040453 6.7852195869 3.1864756170
2.2263045084 6.3990394440 3.2252327741
2.0698877662 6.0102945611 3.2616294085
1.9139927095 5.6229899771 3.2953121793
1.7586720953 5.2345205422 3.3265337011
1.6040199149 4.8456503021 3.3552425099
1.4500121639 4.4567086927 3.3814322449
1.2966031731 4.0670152632 3.4051645265
1.1430934246 3.6761428129 3.4264679415
0.9896724814 3.2853467302 3.4452858300
0.8363395700 2.8946297371 3.4616437665
0.6830939128 2.5039944672 3.4755673588
0.5299347284 2.1134434658 3.4870822453
0.3768612323 1.7229791901 3.4962140912
0.2238726378 1.3326040086 3.5029885861
0.0709681562 0.9423202025 3.5074314412
-0.0818530021 0.5521299658 3.5095683858
-0.2345916277 0.1620354051 3.5094251648
-0.3872485109 -0.2279614582 3.5070275360
-0.5398244419 -0.6178586882 3.5024012673
-0.6923202097 -1.0076544333 3.4955721339
-0.8447366019 -1.3973469250 3.4865659164
-0.9970744041 -1.7869344765 3.4754083972
-1.1493343997 -2.1764154824 3.4621253594
-1.3015173691 -2.5657884161 3.4467425833
-1.4536240894 -2.9550518296 3.4292858451
-1.6056553344 -3.3442043512 3.4097809145
-1.7576118736 -3.7332446844 3.3882535521
-1.9094944723 -4.1221716061 3.3647295082
-2.0613038912 -4.5109839651 3.3392345205
-2.2132588384 -4.8993991080 3.3118247890
-2.3658467098 -5.2873313163 3.2825549174
-2.5190147060 -5.6752377371 3.2514139355
-2.6727870133 -6.0628093316 3.2184598604
-2.8270743758 -6.4493355021 3.1837948041
-2.9817617972 -6.8371996455 3.1471926678
-3.1366571860 -7.2226729196 3.1090796410
-3.2918278673 -7.6087413826 3.0691591000
-3.4473364532 -7.9954921445 3.0274383832
3.0946060658 7.3858781752 3.1248172902
2.9371426019 6.9983770777 3.1673426292
2.7801141321 6.6115684158 3.2071484424
2.6234559049 6.2253651170 3.2442776410
2.4670842917 5.8366007837 3.2790225113
2.3112306055 5.4492752798 3.3110611919
2.1559518507 5.0607859315 3.3406238323
2.0013403934 4.6718957129 3.3676644740
1.8473714653 4.2829336222 3.3921797469
1.6939987930 3.8932171558 3.4142261748
1.5405195561 3.5023118399 3.4338361347
1.3871276239 3.1114859258 3.4509607429
1.2338222345 2.7207420919 3.4656256447
1.0806026222 2.3300829261 3.4778565166
0.9274680186 1.9395109257 3.4876790639
0.7744176526 1.5490284983 3.4951190164
0.6214507517 1.1586379612 3.5002021264
0.4685665416 0.7683415426 3.5029541653
0.3157642480 0.3781413816 3.5034009207
0.1630430962 -0.0119604703 3.5015681937
0.0104023117 -0.4019620494 3.4974817954
-0.1421588786 -0.7918614776 3.4911675455
-0.2946412469 -1.1816569627 3.4826512686
-0.4470455631 -1.5713467960 3.4719587917
-0.5993725950 -1.9609293516 3.4591159426
-0.7516231080 -2.3504030853 3.4441485465
-0.9037978638 -2.7397665326 3.4270824241
-1.0558976210 -3.1290183078 3.4079433898
-1.2079231341 -3.5181571018 3.3867572489
-1.3598751537 -3.9071816810 3.3635497961
-1.5117544255 -4.2960908853 3.3383468131
-1.6635616907 -4.6848836267 3.3111740672
-1.8155105422 -5.0732682154 3.2820929227
-1.9680899469 -5.4611669864 3.2511629813
-2.1212481332 -5.8490372867 3.2183690256
-2.2750091310 -6.2365723178 3.1837716233
-2.4292837893 -6.6230663540 3.1474772468
-2.5839579089 -7.0108885468 3.1092407631
-2.7388393809 -7.3963339678 3.0695141276
-2.8939956041 -7.7823695280 3.0279791958
-3.0494890872 -8.1690815807 2.9846433935
3.4916221135 7.2121986671 3.1433433278
3.3342030569 6.8246798303 3.1842356983
3.1772163816 6.4378522700 3.2224109252
3.0205976996 6.0516290463 3.2579117656
2.8642689356 5.6628493261 3.2910044955
2.7084544208 5.2755065822 3.3213987982
2.5532149430 4.8870014400 3.3493023324
2.3986413378 4.4980955784 3.3746746645
2.2447081382 4.1091174505 3.3975154227
2.0913683698 3.7193827013 3.4178760228
1.9379161013 3.3284495959 3.4357925533
1.7845496417 2.9375989021 3.4512240270
1.6312682423 2.5468332509 3.4641961585
1.4780711513 2.1561551811 3.4747346917
1.3249576145 1.7655671388 3.4828653964
1.1719268763 1.3750714786 3.4886140656
1.0189781795 0.9846704637 3.4920065121
0.8661107662 0.5943662660 3.4930685655
0.7133238788 0.2041609675 3.4918260694
0.5606167595 -0.1859434391 3.4883048784
0.4079886518 -0.5759450494 3.4825308555
0.2554388004 -0.9658420462 3.4745298692
0.1029664517 -1.3556326985 3.4643277907
-0.0494291457 -1.7453153597 3.4519504918
-0.2017487406 -2.1348884671 3.4374238423
-0.3539930786 -2.5243505394 3.4207737072
-0.5061629022 -2.9137001760 3.4020259452
-0.6582589502 -3.3029360550 3.3812064059
-0.8102819569 -3.6920569316 3.3583409279
-0.9622326529 -4.0810616364 3.3334553368
-1.1141117636 -4.4699490735 3.3065754433
-1.2659200098 -4.8587182191 3.2777270415
-1.4178657395 -5.2470684913 3.2469766652
-1.5704393226 -5.6349303450 3.2143887645
-1.7235901039 -6.0227611902 3.1799439204
-1.8773419075 -6.4102565454 3.1437051883
-2.0316056196 -6.7967157125 3.1057832836
-2.1862682132 -7.1844929919 3.0659144450
-2.3411371075 -7.5699082443 3.0245757847
-2.4962801700 -7.9559085135 2.9814281319
-2.6517597931 -8.3425793885 2.9364790105
3.8886223989 7.0384570295 3.1564843108
3.7312459995 6.6509239826 3.1957433263
3.5742993586 6.2640808883 3.2322876473
3.4177184580 5.8778409586 3.2661598668
3.2614302691 5.4890498931 3.2976002527
3.1056527351 5.1016935686 3.3263500507
2.9504499661 4.7131767264 3.3525944363
2.7959113629 4.3242595267 3.3762985127
2.6420108242 3.9352697721 3.3974649087
2.4887005790 3.5455214569 3.4161399280
2.3352717749 3.1545656018 3.4323632871
2.1819272929 2.7636951375 3.4461020031
2.0286663990 2.3729126443 3.4573818581
1.8754883570 1.9822206084 3.4662286612
1.7223924287 1.5916214219 3.4726682453
1.5693778751 1.2011173832 3.4767264638
1.4164439562 0.8107106978 3.4784291880
1.2635899320 0.4204034792 3.4778023034
1.1108150627 0.0301977493 3.4748717076
0.9581186094 -0.3599045601 3.4696633062
0.8054998344 -0.7499016069 3.4622030111
0.6529580014 -1.1397916367 3.4525167372
0.5004923768 -1.5295729819 3.4406304002
0.3481022290 -1.9192440603 3.4265699137
0.1957868294 -2.3088033736 3.4103611867
0.0435454527 -2.6982495057 3.3920301217
-0.1086226230 -3.0875811212 3.3716026121
-0.2607181154 -3.4767969635 3.3491045402
-0.4127417385 -3.8658958535 3.3245617751
-0.5646942013 -4.2548766871 3.2980001706
-0.7165762086 -4.6437384340 3.2694455638
-0.8683884598 -5.0324801350 3.2389237727
-1.0203339326 -5.4207924624 3.2065064985
-1.1729042376 -5.8086140496 3.1722628849
-1.3260499228 -6.1964022355 3.1361693625
-1.4797945587 -6.5838549285 3.0982914086
-1.6340490059 -6.9702766048 3.0587438616
-1.7887017678 -7.3580061356 3.0172447567
-1.9435593591 -7.7433890049 2.9742957282
-2.0986904929 -8.1293517018 2.9295370960
-2.2541574329 -8.5159790449 2.8829764914
4.2855957317 6.8646629303 3.1642650874
4.1282602403 6.4771191821 3.2018905054
3.9713518772 6.0902638991 3.2368037404
3.8148069996 5.7040104624 3.2690472115
3.6585571241 5.3152120626 3.2988352215
3.5028143955 4.9278457887 3.3259405464
3.3476457894 4.5393213044 3.3505259211
3.1931393670 4.1503970323 3.3725619884
3.0392684571 3.7614000179 3.3920543756
2.8859843980 3.3716428054 3.4090442785
2.7325756029 2.9806691925 3.4235749519
2.5792496560 2.5897839134 3.4356215126
2.4260058397 2.1989894944 3.4452098082
2.2728434349 1.8082883660 3.4523657109
2.1197617212 1.4176828626 3.4571151144
1.9667599774 1.0271752240 3.4594839305
1.8138374824 0.6367675956 3.4594980864
1.6609935151 0.2464620291 3.4571835215
1.5082273552 -0.1437395157 3.4525661838
1.3555382837 -0.5338351708 3.4456720281
1.2029255828 -0.9238231582 3.4365270125
1.0503885372 -1.3137017884 3.4251570958
0.8979264336 -1.7034694594 3.4115882350
0.7455385615 -2.0931246549 3.3958463827
0.5932242135 -2.4826659429 3.3779574847
0.4409826857 -2.8720919739 3.3579474780
0.2888132778 -3.2614014793 3.3358422879
0.1367152935 -3.6505932690 3.3116678268
-0.0153119593 -4.0396662304 3.2854499911
-0.1672691681 -4.4286193262 3.2572146603
-0.3191570157 -4.8174515920 3.2269876947
-0.4709761798 -5.2061621348 3.1947949335
-0.6229241465 -5.5944330283 3.1607132367
-0.7754936114 -5.9822111347 3.1248162818
-0.9286364092 -6.3699535914 3.0870764062
-1.0823758124 -6.7573607650 3.0475614406
-1.2366225960 -7.1437424456 3.0063902222
-1.3912671366 -7.5314215233 2.9632630268
-1.5461146331 -7.9167698975 2.9187053522
-1.7012350035 -8.3026928498 2.8723375465
-1.8566903700 -8.6892744233 2.8241673574
4.6825311840 6.6908259186 3.1667110409
4.5252348572 6.3032749503 3.2027027614
4.3683630238 5.9164107962 3.2359848683
4.2118524224 5.5301470252 3.2665995973
4.0556386183 5.1413452627 3.2947353679
3.8999285410 4.7539726341 3.3201964067
3.7447915812 4.3654445220 3.3431230849
3.5903145551 3.9765173935 3.3634915783
3.4364702854 3.5875174334 3.3813105070
3.2832091275 3.1977559343 3.3966159693
3.1298169440 2.8067694968 3.4094546648
2.9765061514 2.4158742943 3.4198098923
2.8232760505 2.0250727960 3.4277075627
2.6701259405 1.6343673733 3.4331736090
2.5170551204 1.2437603006 3.4362339833
2.3640628883 0.8532537559 3.4369146534
2.2111485432 0.4628498218 3.4352415997
2.0583113842 0.0725504862 3.4312408127
1.9055507118 -0.3176423564 3.4249382889
1.7528658279 -0.7077269032 3.4163600290
1.6002560363 -1.0977014424 3.4055320345
1.4477206430 -1.4875643516 3.3924803054
1.2952589565 -1.8773140960 3.3772308371
1.1428702884 -2.2669492270 3.3598096186
0.9905539533 -2.6564683803 3.3402426295
0.8383092694 -3.0458702744 3.3185558383
0.6861355587 -3.4351537082 3.2947751994
0.5340321475 -3.8243175600 3.2689266522
0.3819983660 -4.2133607844 3.2410361179
0.2300335491 -4.6022824112 3.2111294984
0.0781370365 -4.9910815433 3.1792326747
-0.0736918275 -5.3797573540 3.1453715045
-0.2256449203 -5.7679834679 3.1096279901
-0.3782158738 -6.1557150183 3.0720801808
-0.5313578897 -6.5434088132 3.0326963812
-0.6850939005 -6.9307677424 2.9915467062
-0.8393345401 -7.3171070406 2.9487538643
-0.9939723840 -7.7047330938 2.9040008324
-1.1488109264 -8.0900449654 2.8578362928
-1.3039216302 -8.4759261114 2.8098611763
-1.4593664640 -8.8624597946 2.7600833562
5.0794181127 6.5169554018 3.1638480710
4.9221592184 6.1294006594 3.1982061343
4.7653221811 5.7425309175 3.2298572064
4.6088441255 5.3562599518 3.2588433309
4.4526641765 4.9674587504 3.2853271640
4.2969846238 4.5800833180 3.3091442563
4.1418768301 4.1915555397 3.3304127245
3.9874264601 3.8026297129 3.3491142639
3.8336058933 3.4136310590 3.3652604750
3.6803644132 3.0238698157 3.3788823783
3.5269855098 2.6328754177 3.3900300192
3.3736865611 2.2419751088 3.3986949484
3.2204668872 1.8511712979 3.4049031375
3.0673258074 1.4604662946 3.4086805779
2.9142626408 1.0698623105 3.4100532776
2.7612767068 0.6793614591 3.4090472577
2.6083673252 0.2889657578 3.4056885493
2.4555338169 -0.1013228716 3.4000031911
2.3027755043 -0.4915026016 3.3920172252
2.1500917112 -0.8815716972 3.3817566953
1.9974817638 -1.2715285147 3.3692476438
1.8449449906 -1.6613715003 3.3545161085
1.6924807229 -2.0510991879 3.3375881208
1.5400882948 -2.4407101980 3.3184897028
1.3877670443 -2.8302032355 3.2972468651
1.2355163123 -3.2195770877 3.2738856044
1.0833354437 -3.6088306227 3.2484319019
0.9312237880 -3.9979627871 3.2209117204
0.7791806984 -4.3869726043 3.1913510035
0.6272055325 -4.7758591718 3.1597756727
0.4752976532 -5.1646216599 3.1262116261
0.3234564275 -5.5532593089 3.0906847374
0.1714956985 -5.9414374445 3.0532821293
0.0189210405 -6.3291195051 3.0140860564
-0.1342221935 -6.7167618457 2.9730608564
-0.2879565558 -7.1040699399 2.9302788570
-0.4421924872 -7.4903645895 2.8858665083
-0.5968250718 -7.8779351810 2.8394899630
-0.7516557316 -8.2632086482 2.7917203908
-0.9067577966 -8.6490460375 2.7421398764
-1.0621930693 -9.0355298286 2.6907564265
5.4762461812 6.3430606243 3.1557025727
5.3190230044 5.9555055114 3.1884271569
5.1622190489 5.5686334243 3.2184474205
5.0057718298 5.1823583634 3.2458052068
4.8496235520 4.7935615913 3.2706375652
4.6939724309 4.4061868544 3.2928111990
4.5388913657 4.0176633107 3.3124221116
4.3844649631 3.6287428771 3.3294574949
4.2306652210 3.2397497107 3.3439319152
4.0774402633 2.8499931882 3.3558713398
3.9240713837 2.4589956148 3.3653290577
3.7707810467 2.0680949322 3.3723049285
3.6175685931 1.6772934863 3.3768249821
3.4644333637 1.2865935223 3.3789152655
3.3113746992 0.8959971861 3.3786018399
3.1583919411 0.5055065246 3.3759107768
3.0054844315 0.1151234876 3.3708681554
2.8526515141 -0.2751500714 3.3635000594
2.6998925340 -0.6653123938 3.3538325739
2.5472068380 -1.0553618141 3.3418917829
2.3945937759 -1.4452967584 3.3277037659
2.2420526993 -1.8351157429 3.3112945964
2.0895829629 -2.2248173720 3.2926903381
1.9371839249 -2.6144003363 3.2719170434
1.7848549462 -3.0038634107 3.2490007510
1.6325953916 -3.3932054528 3.2239674831
1.4804046300 -3.7824254004 3.1968432441
1.3282820339 -4.1715222694 3.1676540179
1.1762269801 -4.5604951521 3.1364257669
1.0242388498 -4.9493432146 3.1031844292
0.8723170290 -5.3380656948 3.0679559182
0.7204609078 -5.7266619001 3.0307661198
0.5684901576 -6.1147890086 2.9917072489
0.4159096938 -6.5024187898 2.9508655966
0.2627633501 -6.8900070256 2.9082016040
0.1090289906 -7.2772618300 2.8637897385
-0.0452035839 -7.6635096860 2.8177600596
-0.2005626414 -8.0484605112 2.7702641028
-0.3546560370 -8.4362557810 2.7203896574
-0.5097504214 -8.8220475758 2.6692057005
-0.6651770350 -9.2084795914 2.6162186623
5.8730053796 6.1691506469 3.1423014150
5.7158162271 5.7815985181 3.1733928325
5.5590436633 5.3947272810 3.2017826437
5.4026255979 5.0084511785 3.2275124831
5.2465068454 4.6196626403 3.2506939862
5.0908821014 4.2322920401 3.2712247936
4.9358253767 3.8437765634 3.2891789671
4.7814203104 3.4548655397 3.3045491652
4.6276385806 3.0658819626 3.3173528993
4.4744270664 2.6761345403 3.3276111172
4.3210650364 2.2851384880 3.3353802441
4.1677801645 1.8942420712 3.3406684933
4.0145718135 1.5034475699 3.3435019503
3.8614393469 1.1127571625 3.3439067149
3.7083821282 0.7221729268 3.3419088986
3.5553995221 0.3316968408 3.3375346206
3.4024908941 -0.0586692153 3.3308100049
3.2496556114 -0.4489234581 3.3217611776
3.0968930429 -0.8390641999 3.3104142634
2.9442025597 -1.2290898461 3.2967953835
2.7915835351 -1.6189988942 3.2809306522
2.6390353453 -2.0087899319 3.2628461746
2.4865573690 -2.3984616349 3.2425680445
2.3341489885 -2.7880127650 3.2201223415
2.1818095891 -3.1774421685 3.1955351288
2.0295385599 -3.5667487736 3.1688324513
1.8773352933 -3.9559315885 3.1400403335
1.7251991863 -4.3449896990 3.1091847778
1.5731296394 -4.7339222667 3.0762917620
1.4211260576 -5.1227285265 3.0413872387
1.2691878502 -5.5114077842 3.0044971325
1.1173144310 -5.8999594146 2.9656473397
0.9653314019 -6.2880325992 2.9249351322
0.8127431478 -6.6756074567 2.8824506677
0.6595919117 -7.0631390806 2.8381505640
0.5050091909 -7.4488628691 2.7924494914
0.3508137256 -7.8346018668 2.7448857369
0.1962805089 -8.2214500643 2.6953743821
0.0421816720 -8.6091815935 2.6438762383
-0.1129059199 -8.9949260677 2.5910908305
-0.2683247067 -9.3813045435 2.5365022788
6.2696860424 5.9952343287 3.1236719161
6.1125292473 5.6076884827 3.1531306104
5.9557864142 5.2208212369 3.1798904510
5.7993958507 4.8345470946 3.2039928562
5.6433045212 4.4457705240 3.2255242752
5.4877041441 4.0584074369 3.2444130272
5.3326694268 3.6699037837 3.2607114346
5.1782831301 3.2810061044 3.2744175839
5.0245166722 2.8920361318 3.2855519083
4.8713156056 2.5023020944 3.2941303744
4.7179573404 2.1113121625 3.3002124343
4.5646748793 1.7204245491 3.3038146867
4.4114676089 1.3296414659 3.3049632700
4.2583349160 0.9389650220 3.3036843341
4.1052761882 0.5483972250 3.3000040375
3.9522908142 0.1579399821 3.2939485440
3.7993781839 -0.2324048981 3.2855440196
3.6465376890 -0.6226357043 3.2748166297
3.4937687231 -1.0127508207 3.2617925356
3.3410706818 -1.4027487255 3.2464978924
3.1884429634 -1.7926279888 3.2289588459
3.0358849686 -2.1823872706 3.2092015305
2.8833961013 -2.5720253190 3.1872520661
2.7309757681 -2.9615409684 3.1631365565
2.5786233792 -3.3509331364 3.1368810867
2.4263383482 -3.7402008228 3.1085117213
2.2741200921 -4.1293431066 3.0780545019
2.1219680320 -4.5183591440 3.0455354458
1.9698815927 -4.9072481661 3.0109805442
1.8178602030 -5.2960094764 2.9744157603
1.6659032962 -5.6846424490 2.9358670280
1.5140103093 -6.0731465254 2.8953602505
1.3611077958 -6.4603047935 2.8532400606
1.2085282013 -6.8476929668 2.8091401579
1.0553928779 -7.2349769354 2.7632417142
0.9011655761 -7.6199766978 2.7160122248
0.7474879223 -8.0075252789 2.6664561238
0.5921325665 -8.3922417408 2.6158081651
0.4372832445 -8.7769361302 2.5633423356
0.2821367690 -9.1620491483 2.5090975870
0.1266118873 -9.5475972284 2.4530993245
6.6662788646 5.8213203080 3.0998418193
6.5091527916 5.4337839821 3.1276683603
6.3524380614 5.0469238093 3.1527988339
6.1960733829 4.6606545714 3.1752744349
6.0400074230 4.2718936247 3.1951566866
5.8844294515 3.8845413559 3.2124042883
5.7294144687 3.4960532002 3.2270480522
5.5750444450 3.1071727102 3.2390914482
5.4212905969 2.7182202633 3.2485578027
5.2680970715 2.3285037936 3.2554581467
5.1147395817 1.9375244759 3.2598548462
4.9614565760 1.5466500939 3.2617729055
4.8082474654 1.1558827885 3.2612385125
4.6551116613 0.7652245975 3.2582778641
4.5020485762 0.3746774561 3.2529171631
4.3490576237 -0.0157568011 3.2451826148
4.1961382191 -0.4060764386 3.2351004239
4.0432897792 -0.7962798187 3.2226967919
3.8905117227 -1.1863653992 3.2079979134
3.7378034710 -1.5763317320 3.1910299746
3.5851644474 -1.9661774608 3.1718191495
3.4325940781 -2.3559013191 3.1503915982
3.2800917921 -2.7455021283 3.1267734643
3.1276570213 -3.1349787955 3.1009908724
2.9752892008 -3.5243303106 3.0730699265
2.8229877692 -3.9135557453 3.0430367071
2.6707521682 -4.3026542497 3.0109172705
2.5185818434 -4.6916250504 2.9767376460
2.3664762441 -5.0804674481 2.9405238350
2.2144348230 -5.4691808153 2.9023018086
2.0615412646 -5.8569801517 2.8623326611
1.9096278666 -6.2454361336 2.8201775036
1.7576332259 -6.6333270048 2.7761820361
1.6044141649 -7.0194263640 2.7307359362
1.4513219861 -7.4064063810 2.6832509221
1.2961962299 -7.7900513456 2.6347748282
1.1410817199 -8.1738314851 2.5844733132
0.9855928090 -8.5579983146 2.5323722896
0.8305174099 -8.9420210876 2.4784890219
0.6750166838 -9.3262785644 2.4228850021
0.5189163876 -9.7106967381 2.3656183047
7.0627749163 5.6474169872 3.0708392664
6.9056779654 5.2598933509 3.0970343461
6.7489897477 4.8730432679 3.1205361734
6.5926493762 4.4867818157 3.1413857132
6.4366067867 4.0980400651 3.1596198541
6.2810493128 3.7107018431 3.1752273380
6.1260518571 3.3222327699 3.1882177246
5.9716956848 2.9333732180 3.1985998139
5.8179518679 2.5444421172 3.2063997936
5.6647630721 2.1547472892 3.2116238110
5.5114034701 1.7637829669 3.2143370300
5.3581170686 1.3729261272 3.2145728683
5.2049033039 0.9821788386 3.2123575607
5.0517616131 0.5915430654 3.2077173480
4.8986914341 0.2010206689 3.2006784738
4.7456922065 -0.1893865905 3.1912671816
4.5927633715 -0.5796770521 3.1795097118
4.4399043716 -0.9698491531 3.1654322987
4.2871146517 -1.3599014260 3.1490611674
4.1343936588 -1.7498324974 3.1304225314
3.9817408421 -2.1396410856 3.1095425900
3.8291556536 -2.5293259983 3.0864475261
3.6766375478 -2.9188861305 3.0611635034
3.5241859822 -3.3083204627 3.0337166646
3.3718004173 -3.6976280577 3.0041331290
3.2194803164 -4.0868080590 2.9724389908
3.0672251467 -4.4758596879 2.9386603175
2.9141245951 -4.8640000777 2.9030538899
2.7619989735 -5.2527951505 2.8651898127
2.6099367442 -5.6414600259 2.8253191552
2.4579373869 -6.0299942101 2.7834678607
2.3053120634 -6.4174361863 2.7399160778
2.1533288353 -6.8051767816 2.6942943899
1.9987916784 -7.1892162475 2.6477690335
1.8437152702 -7.5722853965 2.5996426708
1.6884017834 -7.9555243434 2.5496988938
1.5330137838 -8.3388106019 2.4979601989
1.3771225422 -8.7223681536 2.4444662918
1.2214036227 -9.1056578040 2.3892490706
1.0668762748 -9.4899185262 2.3319527745
0.9120420950 -9.8745864379 2.2729084505
7.4591656548 5.4735325172 3.0366927705
7.3020962653 5.0860246670 3.0612571983
7.1454330111 4.6991876203 3.0831312125
6.9891154115 4.3129367677 3.1023555416
6.8330942510 3.9242176956 3.1189427615
6.6775554240 3.5368966664 3.1329112823
6.5225733580 3.1484501659 3.1442496935
6.3682286959 2.7596151992 3.1529720656
6.2144924198 2.3707091582 3.1591074126
6.0613056425 1.9810399301 3.1626570551
5.9079411471 1.5900948641 3.1636888365
5.7546486075 1.1992597546 3.1622445851
5.6014274863 0.8085365949 3.1583505787
5.4482772467 0.4179272745 3.1520330988
5.2951973532 0.0274335793 3.1433184268
5.1421872717 -0.3629428065 3.1322328413
4.9892464699 -0.7532002978 3.1188026150
4.8363744168 -1.1433374076 3.1030540116
4.6835705834 -1.5333527444 3.0850132834
4.5308344433 -1.9232450102 3.0647066683
4.3781654718 -2.3130129985 3.0421603878
4.2255631469 -2.7026555918 3.0174006439
4.0730269490 -3.0921717594 2.9904536177
3.9205563613 -3.4815605552 2.9613454664
3.7681508697 -3.8708211151 2.9301023223
3.6149074373 -4.2591749120 2.8969820058
3.4626318980 -4.6481789484 2.8615527440
3.3104199708 -5.0370526930 2.8240666452
3.1582711526 -5.4257955823 2.7845497216
3.0055000847 -5.8134481217 2.7432821498
2.8534782538 -6.2019316458 2.6997871884
2.6994397718 -6.5879213546 2.6550513326
2.5450719101 -6.9720934218 2.6087738579
2.3900552627 -7.3546824983 2.5610027263
2.2346665610 -7.7374107177 2.5114202622
2.0789255459 -8.1202265781 2.4600556464
1.9229108426 -8.5029967820 2.4069455073
1.7678386226 -8.8864961697 2.3517897776
1.6131471887 -9.2698476024 2.2948578407
1.4580289889 -9.6534284785 2.2362158364
1.3022300881 -10.0372977584 2.1759097821
7.8480517052 5.2974325292 2.9983038944
7.6906993432 4.9106612507 3.0212611217
7.5338909222 4.5245301216 3.0415233610
7.3775103292 4.1389205852 3.0591360374
7.2223157224 3.7512381222 3.0740016100
7.0674465354 3.3646537508 3.0862789893
6.9128677395 2.9767095916 3.0959468180
6.7587831817 2.5882277600 3.1030092922
6.6052227096 2.1995704295 3.1074903341
6.4521241517 1.8100476476 3.1093858191
6.2987482125 1.4191227399 3.1087638119
6.1454433633 1.0283097609 3.1056670786
5.9922090882 0.6376106375 3.1001219295
5.8390448719 0.2470271919 3.0921546758
5.6859502007 -0.1434388572 3.0817916266
5.5329245619 -0.5337858922 3.0690590857
5.3799674442 -0.9240123953 3.0539833484
5.2270783384 -1.3141169460 3.0365906991
5.0742567367 -1.7040982190 3.0169074084
4.9215021333 -2.0939549824 2.9949597304
4.7688140248 -2.4836860949 2.9707739005
4.6161919097 -2.8732905039 2.9443761330
4.4636352889 -3.2627672426 2.9157926190
4.3111436659 -3.6521154285 2.8850495237
4.1587165466 -4.0413342595 2.8521729859
4.0063534396 -4.4304230131 2.8171891145
3.8540538561 -4.8193810422 2.7801239881
3.7009848068 -5.2071493148 2.7412932615
3.5488133405 -5.5958483070 2.7001502520
3.3952987187 -5.9825280418 2.6575332911
3.2414316229 -6.3683683890 2.6131474994
3.0873066488 -6.7534106285 2.5670073024
2.9332300904 -7.1367863363 2.5192589502
2.7786710967 -7.5193361866 2.4698671929
2.6238464787 -7.9020223311 2.4186506068
2.4688039092 -8.2848131471 2.3656307292
2.3136722411 -8.6676062666 2.3108308169
2.1580220908 -9.0506308988 2.2542940449
2.0024088251 -9.4334634168 2.1960429527
1.8480196957 -9.8168038148 2.1357828603
1.6932524645 -10.2004181947 2.0738212905
8.2346867354 5.1231210099 2.9551697274
8.0774358471 4.7372508565 2.9764996003
7.9207503838 4.3518744283 2.9951412441
7.7645000755 3.9668947961 3.0111392051
7.6095056141 3.5798001850 3.0243663172
7.4548243182 3.1936945252 3.0350158166
7.3010036361 2.8064231436 3.0429873801
7.1473747742 2.4183795666 3.0483818727
6.9941089232 2.0300138098 3.0512087749
6.8411534205 1.6406526713 3.0514578170
6.6877639616 1.2497481222 3.0491965558
6.5344448665 0.8589571923 3.0444618158
6.3811956395 0.4682817477 3.0372799335
6.2280157854 0.0777235488 3.0276772439
6.0749048104 -0.3127157467 3.0156800781
5.9218622215 -0.7030345827 3.0013147595
5.7688875275 -1.0932315018 2.9846076011
5.6159802385 -1.4833051443 2.9655849032
5.4631398663 -1.8732542449 2.9442729498
5.3103659242 -2.2630776313 2.9206980070
5.1576579280 -2.6527742211 2.8948863200
5.0050153950 -3.0423430200 2.8668641114
4.8524378447 -3.4317831190 2.8366575783
4.6999247992 -3.8210936920 2.8042928915
4.5474757822 -4.2102739935 2.7697961920
4.3950903204 -4.5993233555 2.7331935910
4.2427679425 -4.9882411854 2.6945111669
4.0897112615 -5.3758541298 2.6540891588
3.9361811796 -5.7624014959 2.6118947486
3.7823378766 -6.1479958441 2.5679245061
3.6285347381 -6.5339166178 2.5219330240
3.4745124864 -6.9190881619 2.4741765082
3.3204637021 -7.3014317487 2.4250457251
3.1661560786 -7.6839181551 2.3740662694
3.0116430963 -8.0665116788 2.3212595231
2.8569800976 -8.4491861814 2.2666449438
2.7023121731 -8.8318478870 2.2102414981
2.5472755600 -9.2147124027 2.1520866698
2.3924671404 -9.5973957998 2.0921871832
2.2370440020 -9.9802461263 2.0306283184
2.0829732172 -10.3635436218 1.9670659227
8.6208110076 4.9501630240 2.9071695115
8.4637608462 4.5651193792 2.9268780718
8.3072691291 4.1804178427 2.9439047372
8.1512014874 3.7959913157 2.9582928193
7.9964575239 3.4094038128 2.9698853709
7.8420036437 3.0237042878 2.9789096000
7.6884357467 2.6367828455 2.9852428215
7.5355366644 2.2492277379 2.9889418825
7.3827120775 1.8611620124 2.9901013523
7.2299603082 1.4719582552 2.9887013892
7.0765548915 1.0810754496 2.9848074373
6.9232191579 0.6903078132 2.9784412411
6.7699526315 0.2996571526 2.9696291598
6.6167548376 -0.0908748303 2.9583975495
6.4636253025 -0.4812865369 2.9447727596
6.3105635531 -0.8715764697 2.9287811304
6.1575691180 -1.2617432297 2.9104489894
6.0046415268 -1.6517855147 2.8898026497
5.8517803107 -2.0417021171 2.8668684064
5.6989850025 -2.4314919211 2.8416725345
5.5462551364 -2.8211539007 2.8142412872
5.3935902489 -3.2106871166 2.7846008922
5.2409898779 -3.6000907148 2.7527775514
5.0884535634 -3.9893639229 2.7187974378
4.9359808473 -4.3785060484 2.6826866938
4.7835712739 -4.7675164753 2.6444714302
4.6304253982 -5.1550639394 2.6045210760
4.4768161564 -5.5413983078 2.5628005726
4.3232898982 -5.9280014976 2.5190090768
4.1694754694 -6.3137027805 2.4734341756
4.0154759965 -6.6985160024 2.4260934706
3.8614891932 -7.0836987724 2.3767558429
3.7075282959 -7.4660746067 2.3260429030
3.5533950265 -7.8485161018 2.2734830312
3.3991045021 -8.2310332784 2.2190952880
3.2447128250 -8.6136049001 2.1628981240
3.0903705783 -8.9961437202 2.1049081171
2.9357620786 -9.3788480609 2.0451598331
2.7814964513 -9.7613656881 1.9836498718
2.6268574980 -10.1440038591 1.9204551269
2.4715537097 -10.5268942209 1.8556178560
9.0064818847 4.7790130121 2.8543667047
8.8496920454 4.3946541043 2.8724608058
8.6934362964 4.0105020632 2.8878781942
8.5375821987 3.6265196485 2.9006610943
8.3831227193 3.2403323150 2.9106226232
8.2289224611 2.8549472596 2.9180239362
8.0756338368 2.4682883395 2.9227201260
7.9230169268 2.0809409839 2.9247745189
7.7709082481 1.6931984805 2.9242357049
7.6184653835 1.3041488150 2.9211782250
7.4650431502 0.9132880052 2.9156592318
7.3116899649 0.5225437568 2.9076691846
7.1584053720 0.1319178204 2.8972344618
7.0051889168 -0.2585881576 2.8843814367
6.8520401452 -0.6489726339 2.8691364741
6.6989586039 -1.0392341656 2.8515259281
6.5459438409 -1.4293714086 2.8315761378
6.3929954050 -1.8193831148 2.8093134264
6.2401128467 -2.2092681299 2.7847640974
6.0872957174 -2.5990253910 2.7579544328
5.9345435700 -2.9886539244 2.7289106903
5.7818559591 -3.3781528425 2.6976591020
5.6292324407 -3.7675213419 2.6642258716
5.4766725725 -4.1567587002 2.6286371729
5.3241759139 -4.5458642737 2.5909191478
5.1708978681 -4.9332801750 2.5514876132
5.0177245909 -5.3208467803 2.5099438861
4.8640977456 -5.7072558488 2.4666266723
4.7101938555 -6.0926008161 2.4215324380
4.5563490043 -6.4782957796 2.3743870985
4.4023323786 -6.8631052655 2.3254780397
4.2483538807 -7.2482908028 2.2745655166
4.0944154269 -7.6307427720 2.2222721684
3.9403883773 -8.0131629734 2.1681376097
3.7862426784 -8.3956258431 2.1121761384
3.6320294038 -8.7781161710 2.0544058774
3.4778960534 -9.1605529246 1.9948424185
3.3235602287 -9.5431171743 1.9335193699
3.1696241846 -9.9254836444 1.8704271957
3.0154565046 -10.3079141611 1.8056409170
2.8622093329 -10.6913234945 1.7387918427
9.3916356145 4.6104149961 2.7968551860
9.2351250758 4.2265103120 2.8133420730
9.0791166227 3.8427178402 2.8271561670
8.9234825532 3.4590219598 2.8383389352
8.7693206753 3.0730889346 2.8466737807
8.6153823651 2.6878965134 2.8524554657
8.4623837729 2.3013889679 2.8555172618
8.3100589700 1.9141497115 2.8559291573
8.1582315274 1.5264717951 2.8537429172
8.0062979962 1.1375839633 2.8490076615
7.8528616227 0.7467430197 2.8418734707
7.6994937192 0.3560198380 2.8322693119
7.5461938491 -0.0345838804 2.8202215792
7.3929615763 -0.4250665395 2.8057566597
7.2397964654 -0.8154266452 2.7889009306
7.0866980816 -1.2056628039 2.7696807563
6.9336659911 -1.5957737201 2.7481224853
6.7806997607 -1.9857581939 2.7242524481
6.6277989585 -2.3756151187 2.6980969543
6.4749631537 -2.7653434788 2.6696822903
6.3221919165 -3.1549423468 2.6390347175
6.1694848184 -3.5444108810 2.6061804694
6.0168414323 -3.9337483228 2.5711457506
5.8642613323 -4.3229539940 2.5339567343
5.7117440941 -4.7120272946 2.4946395608
5.5584273540 -5.0994703789 2.4536143686
5.4046315192 -5.4855448717 2.4108354100
5.2509332521 -5.8719258692 2.3659542595
5.0969572270 -6.2572415849 2.3193025652
4.9430600593 -6.6429174057 2.2705936014
4.7890029180 -7.0277023691 2.2201247359
4.6350051624 -7.4128735154 2.1676457773
4.4810315393 -7.7954622311 2.1137696195
4.3270487098 -8.1778895717 2.0580648274
4.1729771411 -8.5603239331 2.0005358601
4.0188573108 -8.9427590464 1.9412008870
3.8648255224 -9.3251212077 1.8800756951
3.7106191488 -9.7075755947 1.8171946679
3.5578511973 -10.0907416037 1.7521696836
3.4039891500 -10.4729962437 1.6858073737
3.2507825217 -10.8566348583 1.6173308756
9.7772251018 4.4412630153 2.7344823132
9.6210119893 4.0578540927 2.7493621927
9.4652697734 3.6744541217 2.7615720011
9.3098746320 3.2910709721 2.7711528623
9.1560438147 2.9053968807 2.7778545122
9.0024010575 2.5204017789 2.7820096980
8.8497310529 2.1340352643 2.7834274049
8.6977373421 1.7468832119 2.7821853233
8.5462273988 1.3592412045 2.7783390678
8.3950390253 0.9704972527 2.7718823154
8.2415810376 0.5796812296 2.7631307842
8.0881909281 0.1889841849 2.7519104760
7.9348682810 -0.2015922338 2.7382477996
7.7816126811 -0.5920464830 2.7221691549
7.6284237138 -0.9823771213 2.7037009302
7.4753009646 -1.3725828075 2.6828694990
7.3222440198 -1.7626622977 2.6597012180
7.1692524663 -2.1526144430 2.6342224237
7.0163258917 -2.5424381873 2.6064594304
6.8634638844 -2.9321325647 2.5764385275
6.7106660337 -3.3216966968 2.5441859781
6.5579319298 -3.7111297899 2.5097280165
6.4052611639 -4.1004311329 2.4730908460
6.2526533282 -4.4896000943 2.4343006377
6.0991375031 -4.8768003012 2.3938540074
5.9457446623 -5.2641977358 2.3512622314
5.7918495233 -5.6502142039 2.3069314686
5.6380729368 -6.0365525878 2.2604914854
5.4840196994 -6.4218159250 2.2122888759
5.3300681300 -6.8074548196 2.1620212384
5.1759713058 -7.1921860865 2.1099992800
5.0219577426 -7.5773198549 2.0559588901
4.8679271190 -7.9601354862 2.0004855110
4.7139718074 -8.3425982724 1.9432075536
4.5599700301 -8.7250234222 1.8841077214
4.4068599055 -9.1082777991 1.8228630640
4.2529722854 -9.4906044063 1.7601572395
4.0989518742 -9.8730017882 1.6956936869
3.9461888419 -10.2563443109 1.6290567635
10.1623538230 4.2756399349 2.6675315183
10.0063848760 3.8923979176 2.6808143236
9.8508629269 3.5091277075 2.6914284318
9.6956663964 3.1258441073 2.6994150422
9.5421388896 2.7402338472 2.7044905423
9.3887653413 2.3552767572 2.7070252648
9.2364038608 1.9689084546 2.7068045109
9.0847225266 1.5817185723 2.7039140872
8.9335095004 1.1940031818 2.6984137990
8.7825344951 0.8051458305 2.6903050455
8.6290645268 0.4143483185 2.6799485803
8.4756619122 0.0236707767 2.6671243273
8.3223262537 -0.3668851918 2.6518587065
8.1690571542 -0.7573180875 2.6341781276
8.0158542166 -1.1476265125 2.6141089872
7.8627170439 -1.5378091688 2.5916776659
7.7096452399 -1.9278648549 2.5669105257
7.5566384085 -2.3177924645 2.5398339075
7.4036961541 -2.7075909830 2.5104741288
7.2508180818 -3.0972594853 2.4788574808
7.0980037971 -3.4867971335 2.4450102274
6.9452529061 -3.8762031737 2.4089586023
6.7925650160 -4.2654769337 2.3707288075
6.6399397344 -4.6546178203 2.3303470115
6.4863201882 -5.0417383741 2.2883456368
6.3328398354 -5.4290744875 2.2441930203
6.1788302827 -5.8150051599 2.1983195356
6.0249575781 -6.2012781186 2.1503292928
5.8708100892 -6.5864523177 2.1005871304
5.7167814414 -6.9720220473 2.0487722964
5.5626237309 -7.3566468380 1.9952127767
5.4085633236 -7.7416930973 1.9396278187
5.2544508903 -8.1248860314 1.8825304858
5.1014152619 -8.5082461751 1.8233397242
4.9474111674 -8.8907248255 1.7626656486
4.7934251841 -9.2731424414 1.7001875420
4.6403191086 -9.6564677964 1.6355627068
10.5475095309 4.1101801274 2.5958749535
10.3918140877 3.7270991310 2.6075565645
10.2365378645 3.3439515892 2.6165711340
10.0815622738 2.9607598005 2.6229598984
9.9283797451 2.5751876830 2.6264006087
9.7753139610 2.1902465860 2.6273065453
9.6233054546 1.8038419949 2.6254362736
9.4719788492 1.4165719407 2.6208852792
9.3210971627 1.0287354167 2.6137186637
9.1703266615 0.6397102685 2.6039516567
9.0168408351 0.2489337387 2.5919910824
8.8634218477 -0.1417218588 2.5775637504
8.7100693210 -0.5322549661 2.5606960907
8.5567828765 -0.9226641279 2.5414145216
8.4035621356 -1.3129479910 2.5197454464
8.2504067199 -1.7031053009 2.4957152515
8.0973162508 -2.0931348996 2.4693503034
7.9442903503 -2.4830357233 2.4406769458
7.7913286401 -2.8728067995 2.4097214980
7.6384307427 -3.2624472445 2.3765102519
7.4855962806 -3.6519562612 2.3410694708
7.3328248765 -4.0413331355 2.3034253868
7.1801161538 -4.4305772346 2.2636041990
7.0274697360 -4.8196880036 2.2216320727
6.8737254601 -5.2067031062 2.1780858979
6.7201396505 -5.5939574865 2.1323808344
6.5659938012 -5.9797630842 2.0849779219
6.4120046927 -6.3659371146 2.0354493659
6.2577436270 -6.7509652819 1.9841843916
6.1036170821 -7.1364135399 1.9308386603
5.9504162660 -7.5216179124 1.8754201032
5.7962605869 -7.9064946288 1.8183151261
5.6420617434 -8.2903395479 1.7595334593
5.4880048732 -8.6730645149 1.6990944293
5.3347772640 -9.0565603361 1.6364971806
10.9327290657 3.9449634679 2.5195354430
10.7773415013 3.5620334100 2.5296105524
10.6223402997 3.1789973372 2.5370207359
10.4676109892 2.7958857120 2.5418071792
10.3148244699 2.4103162416 2.5436017788
10.1621140416 2.0253608106 2.5428679985
10.0105128190 1.6388736663 2.5393338080
9.8595902344 1.2514679371 2.5331067528
9.7090748598 0.8634492406 2.5242591009
9.5584704740 0.4741919652 2.5128308321
9.4049644353 0.0834391707 2.4992671123
9.2515247309 -0.3071917634 2.4832377088
9.0981510022 -0.6976993246 2.4647690599
8.9448428904 -1.0880821035 2.4438875907
8.7916000364 -1.4783387915 2.4206197104
8.6384220810 -1.8684681788 2.3949918096
8.4853086648 -2.2584691510 2.3670302576
8.3322594277 -2.6483406875 2.3367613997
8.1792740106 -3.0380818583 2.3042115555
8.0263520532 -3.4276918217 2.2694070164
7.8734931958 -3.8171698214 2.2323740435
7.7206970786 -4.2065151837 2.1931388660
7.5679633418 -4.5957273151 2.1517276791
7.4152916255 -4.9848056993 2.1081666430
7.2613929667 -5.3716766168 2.0630901608
7.1076756928 -5.7588178985 2.0158451365
6.9533604257 -6.1444354998 1.9669335410
6.7992219423 -6.5304543610 1.9158862850
6.6459521508 -6.9160218457 1.8627609854
6.4916533799 -7.3012509821 1.8079172012
