-3.8670656220 2.6443445584 2.8525068158
-4.0208233183 2.2570687068 2.8712721903
-4.1744956691 1.8698436947 2.8877742128
-4.3280834491 1.4826715548 2.9020377431
-4.4815874376 1.0955542641 2.9140876633
-4.6350084186 0.7084937438 2.9239488761
-4.7883471794 0.3214918594 2.9316463028
-4.9416045106 -0.0654495796 2.9372048816
-5.0947812051 -0.4523288194 2.9406495661
-5.2478780580 -0.8391441613 2.9420053229
-5.4008958655 -1.2258939618 2.9412971308
-5.5538354250 -1.6125766325 2.9385499782
-5.7066975340 -1.9991906388 2.9337888620
-5.8594829900 -2.3857345002 2.9270387860
-6.0121925896 -2.7722067894 2.9183247593
-6.1650408612 -3.1584559844 2.9076564152
-6.3184052413 -3.5443504670 2.8950363340
-6.4722385322 -3.9302560153 2.8804955372
-6.6265592430 -4.3159055191 2.8640626674
-6.7812899626 -4.7006859966 2.8457856445
-6.9363492736 -5.0866324559 2.8256531093
-7.0915566805 -5.4705445312 2.8037859690
-7.2469870730 -5.8549840679 2.7801389951
-7.4026920150 -6.2400280127 2.7547222994
-0.8347244164 9.0436939202 2.2470623815
-0.9925165306 8.6586999982 2.3054905692
-1.1499248683 8.2742693266 2.3612076711
-1.3070050742 7.8903304302 2.4142538444
-1.4638936732 7.5042915504 2.4650780723
-1.6203179990 7.1194225915 2.5131729445
-1.7762831707 6.7336044052 2.5589090626
-1.9316970228 6.3474617749 2.6022099972
-2.0865713202 5.9612635694 2.6430537332
-2.2409426769 5.5744755353 2.6815309991
-2.3953519138 5.1868015531 2.7176395446
-2.5496709310 4.7991625932 2.7512860613
-2.7039004465 4.4115611143 2.7824952231
-2.8580411878 4.0239995216 2.8112917409
-3.0120938912 3.6364801656 2.8377003604
-3.1660593007 3.2490053418 2.8617458602
-3.3199381685 2.8615772897 2.8834530496
-3.4737312528 2.4741981927 2.9028467670
-3.6274393184 2.0868701771 2.9199518780
-3.7810631356 1.6995953124 2.9347932734
-3.9346034795 1.3123756110 2.9473958671
-4.0880611293 0.9252130272 2.9577845943
-4.2414368683 0.5381094586 2.9659844098
-4.3947314828 0.1510667449 2.9720202861
-4.5479457611 -0.2359133311 2.9759172112
-4.7010804944 -0.6228290439 2.9777001875
-4.8541364742 -1.0096787245 2.9773942290
-5.0071144939 -1.3964607606 2.9750243609
-5.1600153468 -1.7831735955 2.9706156166
-5.3128398260 -2.1698157281 2.9641930368
-5.4655887241 -2.5563857120 2.9557816679
-5.6182628326 -2.9428821550 2.9454065598
-5.7710736706 -3.3291451315 2.9330811832
-5.9244015674 -3.7150487103 2.9188131037
-6.0781993636 -4.1009600422 2.9026297763
-6.2324859400 -4.4866130611 2.8845622913
-6.3871846562 -4.8713971748 2.8646628254
-6.5422111528 -5.2573417236 2.8429023396
-6.6973893647 -5.6412570986 2.8194261970
-6.8527904091 -6.0256966945 2.7941688693
-7.0084658696 -6.4107369354 2.7671404400
-0.4422331131 8.8743709384 2.3197119464
-0.5999711075 8.4893308615 2.3765333490
-0.7573272298 8.1048543903 2.4306449021
-0.9143569017 7.7208700150 2.4820867318
-1.0711880646 7.3347824772 2.5312883627
-1.2275584644 6.9498664243 2.5777658187
-1.3834664063 6.5639986617 2.6218728278
-1.5388217078 6.1778047432 2.6635369975
-1.6936372134 5.7915539624 2.7027385303
-1.8479493095 5.4047089428 2.7395643654
-2.0023029730 5.0169676984 2.7740156913
-2.1565675185 4.6292639125 2.8060042531
-2.3107436683 4.2416000363 2.8355547855
-2.4648321534 3.8539784652 2.8626920591
-2.6188337128 3.4664015379 2.8874408788
-2.7727490929 3.0788715355 2.9098260816
-2.9265790472 2.6913906819 2.9298725345
-3.0803243349 2.3039611421 2.9476051332
-3.2339857213 1.9165850228 2.9630487987
-3.3875639760 1.5292643719 2.9762284769
-3.5410598733 1.1420011778 2.9871691358
-3.6944741912 0.7547973704 2.9958957634
-3.8478077105 0.3676548203 3.0024333661
-4.0010612149 -0.0194246608 3.0068069670
-4.1542354897 -0.4064393197 3.0090416034
-4.3073313220 -0.7933874619 3.0091623257
-4.4603494997 -1.1802674505 3.0071941948
-4.6132908109 -1.5670777065 3.0031622814
-4.7661560437 -1.9538167077 2.9970916629
-4.9189459858 -2.3404829884 2.9890074230
-5.0716614234 -2.7270751386 2.9789346492
-5.2243031416 -3.1135918035 2.9668984318
-5.3770795272 -3.4998647369 2.9529161457
-5.5303736285 -3.8857738105 2.9370002858
-5.6841384074 -4.2716874243 2.9191747252
-5.8383930601 -4.6573406462 2.8994729808
-5.9930616410 -5.0421254562 2.8779514444
-6.1480572365 -5.4280648596 2.8545634915
-6.3032077264 -5.8119809976 2.8294787613
-6.4585808720 -6.1964180034 2.8026115628
-6.6142282670 -6.5814517656 2.7739719619
-0.0496410089 8.7049059613 2.3868261998
-0.2073260581 8.3198224275 2.4420393672
-0.3646311755 7.9353027315 2.4945440034
-0.5216115508 7.5512753420 2.5443801927
-0.6783869169 7.1651422886 2.5919576712
-0.8347049996 6.7801819899 2.6368163132
-0.9905576386 6.3942678611 2.6792926919
-1.1458565703 6.0080260491 2.7193185303
-1.3006156717 5.6217261874 2.7568762896
-1.4548711793 5.2348279296 2.7920490515
-1.6091720660 4.8470233989 2.8248414286
-1.7633849644 4.4592587880 2.8551703988
-1.9175105997 4.0715365376 2.8830607577
-2.0715497048 3.6838590300 2.9085373359
-2.2255030201 3.2962285889 2.9316249980
-2.3793712930 2.9086474787 2.9523486396
-2.5331552765 2.5211179037 2.9707331857
-2.6868557299 2.1336420085 2.9868035884
-2.8404734169 1.7462218766 3.0005848248
-2.9940091055 1.3588595314 3.0121018953
-3.1474635677 0.9715569352 3.0213798215
-3.3008375783 0.5843159899 3.0284436436
-3.4541319149 0.1971385368 3.0333184195
-3.6073473567 -0.1899736431 3.0360292218
-3.7604846851 -0.5770188289 3.0366011366
-3.9135446814 -0.9639953593 3.0350592614
-4.0665281281 -1.3509016323 3.0314287031
-4.2194358074 -1.7377361043 3.0257345766
-4.3722685007 -2.1244972900 3.0180020025
-4.5250269884 -2.5111837614 3.0082561062
-4.6777120499 -2.8977941470 2.9965220153
-4.8303244621 -3.2843271312 2.9828248589
-4.9830693572 -3.6706062347 2.9671859775
-5.1363323302 -4.0565172440 2.9496227311
-5.2900665470 -4.4424296841 2.9301554000
-5.4442914650 -4.8280798446 2.9088199041
-5.5989317574 -5.2128624563 2.8856768010
-5.7538983414 -5.5987935343 2.8606620035
-5.9090225614 -5.9827079421 2.8339692085
-6.0643692355 -6.3671397575 2.8054927311
-6.2199899569 -6.7521643206 2.7752426309
0.3430417972 8.5353068004 2.4484246274
0.1854084727 8.1501825551 2.5020282115
0.0281531062 7.7656222541 2.5529246627
-0.1287792506 7.3815543587 2.6011540137
-0.2855005078 6.9953789828 2.6471059129
-0.4417679254 6.6103773317 2.6903444636
-0.5975672356 6.2244200961 2.7311888299
-0.7528120254 5.8381338352 2.7695749238
-0.9075171570 5.4517884379 2.8054875015
-1.0617187960 5.0648407424 2.8390057253
-1.2159697493 4.6769769610 2.8701376121
-1.3701338689 4.2891555810 2.8988055434
-1.5242118810 3.9013790293 2.9250343761
-1.6782045191 3.5136496724 2.9488490015
-1.8321125236 3.1259698157 2.9702743436
-1.9859366409 2.7383417035 2.9893353566
-2.1396776231 2.3507675181 3.0060570231
-2.2933362271 1.9632493800 3.0204643517
-2.4469132141 1.5757893472 3.0325823752
-2.6004093488 1.1883894156 3.0424361481
-2.7538253994 0.8010515183 3.0500507448
-2.9071621363 0.4137775270 3.0554512574
-3.0604203323 0.0265692507 3.0586627939
-3.2136007611 -0.3605715630 3.0597104762
-3.3667041978 -0.7476432278 3.0586194379
-3.5197314177 -1.1346441183 3.0554148226
-3.6726831961 -1.5215726693 3.0501217820
-3.8255603077 -1.9084273754 3.0427654745
-3.9783635261 -2.2952067900 3.0333710623
-4.1310936237 -2.6819095251 3.0219637112
-4.2837513709 -3.0685342496 3.0085685876
-4.4363375357 -3.4550796894 2.9932108580
-4.5890538737 -3.8413612240 2.9759158835
-4.7422883569 -4.2272706607 2.9567058160
-4.8959944376 -4.6131785255 2.9355973390
-5.0501917810 -4.9988224157 2.9126287475
-5.2048056048 -5.3835999864 2.8878647092
-5.3597450374 -5.7695196203 2.8612238242
-5.5148444144 -6.1534298542 2.8329235912
-5.6701660176 -6.5378539329 2.8028385323
-5.8257614293 -6.9228666369 2.7709787113
0.7358051813 8.3655813758 2.5045272007
0.5782223187 7.9804192058 2.5565199594
0.4210154102 7.5958209594 2.6058070614
0.2641297570 7.2117151039 2.6524284781
0.1074608783 6.8255006412 2.6967535036
-0.0487575645 6.4404605704 2.7383708093
-0.2045055600 6.0544635286 2.7775819253
-0.3596984765 5.6681363059 2.8143270177
-0.5143521121 5.2817489603 2.8485931712
-0.6685026413 4.8947556719 2.8804555740
-0.8227065428 4.5068367252 2.9099256199
-0.9768247863 4.1189626772 2.9369312582
-1.1308580976 3.7311359374 2.9614974070
-1.2848072095 3.3433588533 2.9836490181
-1.4386728606 2.9556337090 3.0034110751
-1.5924557951 2.5679627259 3.0208085906
-1.7461567622 2.1803480610 3.0358666044
-1.8997765153 1.7927918079 3.0486101814
-2.0533158115 1.4052959962 3.0590644089
-2.2067754109 1.0178625912 3.0672543952
-2.3601560764 0.6304934947 3.0732052667
-2.5134585727 0.2431905447 3.0769421666
-2.6666836659 -0.1440444842 3.0784902522
-2.8198321232 -0.5312098803 3.0778746934
-2.9729047123 -0.9183039946 3.0751206702
-3.1259022006 -1.3053252397 3.0702533713
-3.2788253551 -1.6922720898 3.0632979920
-3.4316749418 -2.0791430795 3.0542797324
-3.5844517255 -2.4659368035 3.0432237954
-3.7371564687 -2.8526519154 3.0301553854
-3.8897899321 -3.2392871267 3.0150997066
-4.0423528736 -3.6258412065 2.9980819608
-4.1950435510 -4.0121214896 2.9791315782
-4.3482521462 -4.3980259043 2.9582754228
-4.5019324806 -4.7839258540 2.9355265818
-4.6561043743 -5.1695603272 2.9109256936
-4.8106935171 -5.5543300722 2.8845414748
-4.9656076235 -5.9402352117 2.8562753899
-5.1206835545 -6.3241388824 2.8263684461
-5.2759814564 -6.7085527378 2.7946756043
-5.4315528903 -7.0935509880 2.7612069432
1.1286390205 8.1957376958 2.5551543819
0.9711053196 7.8105404233 2.6055351821
0.8139455415 7.4259069241 2.6532118776
0.6571052447 7.0417656865 2.6982243689
0.5004869767 6.6555154085 2.7409213619
0.3443157860 6.2704398827 2.7809163965
0.1886170570 5.8844063694 2.8184931705
0.0334737120 5.4980417059 2.8535961642
-0.1211309329 5.1116160324 2.8862148202
-0.2752331416 4.7245810305 2.9164203030
-0.4293929022 4.3366110441 2.9442273517
-0.5834681980 3.9486884639 2.9695696383
-0.7374597533 3.5608156791 2.9924721424
-0.8913682980 3.1729950147 3.0129598761
-1.0451945681 2.7852287309 3.0310578819
-1.1989393038 2.3975190227 3.0467912306
-1.3526032499 2.0098680191 3.0601850187
-1.5061871549 1.6222777838 3.0712643665
-1.6596917703 1.2347503150 3.0800544154
-1.8131178502 0.8472875450 3.0865803265
-1.9664661507 0.4598913412 3.0908672774
-2.1197374292 0.0725635056 3.0929404611
-2.2729324443 -0.3146942243 3.0928250833
-2.4260519549 -0.7018801753 3.0905463605
-2.5790967199 -1.0889927376 3.0861295181
-2.7320674977 -1.4760303645 3.0795997882
-2.8849650458 -1.8629915716 3.0709824085
-3.0377901202 -2.2498749359 3.0603026193
-3.1905434751 -2.6366790950 3.0475856627
-3.3432258628 -3.0234027462 3.0328567802
-3.4958380327 -3.4100446456 3.0161412116
-3.6483807314 -3.7966036068 2.9974641931
-3.8010485996 -4.1828790206 2.9768592657
-3.9542338650 -4.5687750304 2.9543579172
-4.1078907995 -4.9546637946 2.9299696460
-4.2620393271 -5.3402857736 2.9037373984
-4.4166055394 -5.7250449723 2.8757338725
-4.5714961041 -6.1109326415 2.8458436001
-4.7265499529 -6.4948274188 2.8143307690
-4.8818254884 -6.8792286289 2.7810310397
-5.0373742403 -7.2642099012 2.7459545159
1.5215332187 8.0257838359 2.6003271257
1.3640473464 7.6405543118 2.6490949465
1.2069333408 7.2558882802 2.6951602882
1.0501370257 6.8717142642 2.7385629705
0.8935675692 6.4854314706 2.7796309110
0.7374418810 6.1003234798 2.8180027772
0.5817903430 5.7142568554 2.8539442668
0.4266942414 5.3278582976 2.8874042267
0.2721360584 4.9413979409 2.9183744824
0.1180793587 4.5543251305 2.9469221328
-0.0360391920 4.1663082600 2.9730652242
-0.1900744853 3.7783413081 2.9967432980
-0.3440272420 3.3904266409 3.0179813948
-0.4978981885 3.0025665581 3.0368045865
-0.6516880556 2.6147632924 3.0532379745
-0.8053975787 2.2270190093 3.0673066868
-0.9590274967 1.8393358073 3.0790358760
-1.1125785515 1.4517157172 3.0884507168
-1.2660514877 1.0641607030 3.0955764042
-1.4194470518 0.6766726615 3.1004381504
-1.5727659917 0.2892534226 3.1030611836
-1.7260090565 -0.0980952500 3.1034707451
-1.8791769955 -0.4853716583 3.1016920877
-2.0322705582 -0.8725741699 3.0977504733
-2.1852904935 -1.2597012168 3.0916711711
-2.3382375493 -1.6467512949 3.0834794556
-2.4911124724 -2.0337229634 3.0732006045
-2.6439160078 -2.4206148436 3.0608598974
-2.7966488981 -2.8074256178 3.0464826134
-2.9493118836 -3.1941540291 3.0300940296
-3.1019057018 -3.5807988795 3.0117194199
-3.2544310868 -3.9673590293 2.9913840527
-3.4070789441 -4.3536260290 2.9691256156
-3.5602433869 -4.7395103250 2.9449801253
-3.7138792184 -5.1253847094 2.9189535038
-3.8680064165 -5.5109911924 2.8910909668
-4.0225514066 -5.8957371933 2.8614691206
-4.1774201692 -6.2816044967 2.8299557921
-4.3324532621 -6.6654881143 2.7968379888
-4.4877077278 -7.0498743260 2.7619323595
-4.6432350538 -7.4348361716 2.7252490428
1.9144777327 7.8557279171 2.6400668808
1.7570383272 7.4704690150 2.6872208160
1.5999687107 7.0857731925 2.7316739682
1.4432149792 6.7015690221 2.7734660672
1.2866925100 6.3152570327 2.8129040757
1.1306105533 5.9301195851 2.8496520077
0.9750041098 5.5440232280 2.8839574216
0.8199529055 5.1575943394 2.9157735756
0.6654386390 4.7711029603 2.9450947008
0.5114246234 4.3839962623 2.9719837941
0.3573443406 3.9959366826 2.9964621655
0.2033460972 3.6079295343 3.0184753634
0.0494291773 3.2199771569 3.0380484887
-0.1044071398 2.8320818217 3.0552066731
-0.2581635791 2.4442457308 3.0699750756
-0.4118408690 2.0564710179 3.0823788808
-0.5654397411 1.6687597473 3.0924432963
-0.7189609297 1.2811139145 3.1001935506
-0.8724051706 0.8935354465 3.1056548904
-1.0257732016 0.5060262017 3.1088525787
-1.1790657612 0.1185879703 3.1098118924
-1.3322835884 -0.2687775246 3.1085581201
-1.4854274223 -0.6560686274 3.1051165598
-1.6384980013 -1.0432837482 3.0995125178
-1.7914960633 -1.4304213633 3.0917713051
-1.9444223447 -1.8174800133 3.0819182369
-2.0972775801 -2.2044583028 3.0699786296
-2.2500625023 -2.5913548993 3.0559778000
-2.4027778414 -2.9781685319 3.0399410626
-2.5554243246 -3.3648979908 3.0218937283
-2.7080026764 -3.7515421256 3.0018611029
-2.8605136175 -4.1380998445 2.9798684852
-3.0131442021 -4.5243549660 2.9559577389
-3.1662902720 -4.9102243201 2.9301693078
-3.3199072417 -5.2960812126 2.9025055555
-3.4740150949 -5.6816692790 2.8730139256
-3.6285405245 -6.0663995054 2.8417748543
-3.7833891743 -6.4522436330 2.8086397144
-3.9384027973 -6.8361138923 2.7739179406
-4.0936374482 -7.2204828259 2.7374074856
-4.2491445617 -7.6054228750 2.6991185322
2.3074625967 7.6855780857 2.6743955871
2.1500682728 7.3002926948 2.7199348468
1.9930416411 6.9155698378 2.7627750876
1.8363290770 6.5313381511 2.8029559400
1.6798517514 6.1450002985 2.8407632791
1.5238117395 5.7598364135 2.8758866434
1.3682482804 5.3737137120 2.9085553419
1.2132396150 4.9872580647 2.9387270827
1.0587667120 4.6007393307 2.9663985201
0.9047925508 4.2136026720 2.9916285197
0.7507475914 3.8255045678 3.0144416060
0.5967834467 3.4374614028 3.0347894627
0.4428994070 3.0494754868 3.0526972508
0.2890947588 2.6615490594 3.0681901603
0.1353687848 2.2736842897 3.0812934072
-0.0182792357 1.8858832761 3.0920322316
-0.1718500251 1.4981480462 3.1004318953
-0.3253443085 1.1104805575 3.1065176789
-0.4787628121 0.7228826972 3.1103148800
-0.6321062633 0.3353562829 3.1118488107
-0.7853753895 -0.0520969372 3.1111447949
-0.9385709189 -0.4394752835 3.1082281673
-1.0916935788 -0.8267771443 3.1031242699
-1.2447440956 -1.2140009752 3.0958584507
-1.3977231948 -1.6011452982 3.0864560616
-1.5506315999 -1.9882087008 3.0749424563
-1.7034700327 -2.3751898348 3.0613429884
-1.8562392123 -2.7620874157 3.0456830097
-2.0089398553 -3.1489002210 3.0279878683
-2.1615726752 -3.5356270897 3.0082829069
-2.3141383821 -3.9222669202 2.9865934613
-2.4666376823 -4.3088186703 2.9629448588
-2.6192536650 -4.6950585362 2.9373831617
-2.7723837484 -5.0809098075 2.9099531340
-2.9259840363 -5.4667461845 2.8806536032
-3.0800744716 -5.8523130007 2.8495341969
-3.2345819520 -6.2370249548 2.8166790977
-3.3894121247 -6.6228431870 2.7819234976
-3.5444075197 -7.0066979611 2.7455988370
-3.6996235659 -7.3910474135 2.7074847119
-3.8551116349 -7.7759633795 2.6675913592
2.7004779479 7.5153424912 2.7033356728
2.5431273014 7.1300335102 2.7472595847
2.3861422343 6.7452863835 2.7884863068
2.2294694074 6.3610298264 2.8270553609
2.0730353686 5.9746694483 2.8632314367
1.9170355049 5.5894821495 2.8967297325
1.7615129124 5.2033364939 2.9277612285
1.6065444240 4.8168576600 2.9562881133
1.4521103308 4.4303152366 2.9823094778
1.2981731980 4.0431525414 3.0058800345
1.1441606241 3.6550200968 3.0270274679
0.9902276370 3.2669450889 3.0457097153
0.8363735348 2.8789297950 3.0619519969
0.6825976125 2.4909764203 3.0757795599
0.5288991616 2.1030870974 3.0872176766
0.3752774714 1.7152638868 3.0962916415
0.2217318294 1.3275087768 3.1030267685
0.0682615212 0.9398236841 3.1074483897
-0.0851341681 0.5522104538 3.1095818517
-0.2384559544 0.1646708598 3.1094525141
-0.3917045533 -0.2227933937 3.1070857467
-0.5448806801 -0.6101806728 3.1025069281
-0.6979850495 -0.9974894121 3.0957414423
-0.8510183747 -1.3847181145 3.0868146781
-1.0039813675 -1.7718653498 3.0757520257
-1.1568747378 -2.1589297540 3.0625788757
-1.3096991930 -2.5459100281 3.0473206166
-1.4624554380 -2.9328049370 3.0300026336
-1.6151441747 -3.3196133082 3.0106503062
-1.7677661018 -3.7063340308 2.9892890069
-1.9203219143 -4.0929660538 2.9659440995
-2.0728123035 -4.4795083850 2.9406409376
-2.2254162815 -4.8657297125 2.9134297986
-2.3785326957 -5.2515598526 2.8843596536
-2.5321184154 -5.6373727845 2.8534258224
-2.6861932985 -6.0229156082 2.8206800691
-2.8406843862 -6.4076068753 2.7862102353
-2.9954976599 -6.7933965876 2.7498356266
-3.1504760224 -7.1772338239 2.7119092389
-3.3056746271 -7.5615616725 2.6721926755
-3.4611447710 -7.9464513552 2.6306962360
3.0935140502 7.3450292655 2.7269100471
2.9362056632 6.9596995959 2.7692180575
2.7792607289 6.5749309668 2.8088307689
2.6226261999 6.1906521871 2.8457875858
2.4662335839 5.8042726182 2.8803319471
2.3102720680 5.4190649262 2.9122048070
2.1547882232 5.0328997009 2.9415987652
1.9998575527 4.6464012442 2.9684805148
1.8454597228 4.2598387865 2.9928515938
1.6915568044 3.8726539661 3.0147625445
1.5375736936 3.4844913546 3.0342441526
1.3836689418 3.0963886623 3.0512607177
1.2298418568 2.7083481310 3.0658375179
1.0760917430 2.3203719282 3.0779998567
0.9224179028 1.9324621475 3.0877730611
0.7688196364 1.5446208087 3.0951824783
0.6152962427 1.1568498582 3.1002534738
0.4618470194 0.7691511692 3.1030114287
0.3084712639 0.3815265422 3.1034817376
0.1551682734 -0.0060222941 3.1016898056
0.0019373454 -0.3934936829 3.0976610467
-0.1512222218 -0.7808860373 3.0914208813
-0.3043111288 -1.1681978408 3.0829947343
-0.4573300745 -1.5554276449 3.0724080322
-0.6102797562 -1.9425740695 3.0596862023
-0.7631608688 -2.3296358006 3.0448546698
-0.9159741047 -2.7166115899 3.0279388562
-1.0687201535 -3.1035002535 3.0089641779
-1.2213997014 -3.4903006699 2.9879560436
-1.3740134315 -3.8770117797 2.9649398538
-1.5265620229 -4.2636325834 2.9399409978
-1.6790461510 -4.6501621407 2.9129848535
-1.8316406425 -5.0363617461 2.8841259235
-1.9847456302 -5.4221678053 2.8534172685
-2.1383188246 -5.8079544609 2.8208507330
-2.2923799553 -6.1934706459 2.7864801681
-2.4468561496 -6.5781388982 2.7503969830
-2.6016540408 -6.9638975640 2.7124049098
-2.7566165178 -7.3477152883 2.6728780256
-2.9117987940 -7.7320194934 2.6315603258
-3.0672520819 -8.1168807817 2.5884621817
3.4865613176 7.1746465022 2.7451420932
3.3292937630 6.7892990418 2.7858337673
3.1723875233 6.4045116735 2.8238320914
3.0157898486 6.0202133148 2.8591763441
2.8594367902 5.6338178798 2.8920886829
2.7035118227 5.2485928055 2.9223358716
2.5480646126 4.8624113811 2.9500921082
2.3931694113 4.4758968487 2.9753286060
2.2388053129 4.0893179928 2.9980493564
2.0849338149 3.7021149369 3.0183007222
1.9309772682 3.3139263117 3.0361165259
1.7770978569 2.9258000683 3.0514675281
1.6232948991 2.5377384096 3.0643790633
1.4695677109 2.1497434630 3.0748764901
1.3159156063 1.7618172802 3.0829851886
1.1623378981 1.3739618378 3.0887305574
1.0088338978 0.9861790377 3.0921380115
0.8554029165 0.5984707072 3.0932329799
0.7020442651 0.2108385999 3.0920409027
0.5487572549 -0.1767156035 3.0885872291
0.3955411978 -0.5641902946 3.0828974152
0.2423954071 -0.9515839366 3.0749969216
0.0893191970 -1.3388950627 3.0649112111
-0.0636881161 -1.7261222757 3.0526657472
-0.2166272138 -2.1132642467 3.0382859912
-0.3694987751 -2.5003197135 3.0217974012
-0.5223034764 -2.8872874800 3.0032254295
-0.6750419913 -3.2741664144 2.9825955213
-0.8277149894 -3.6609554480 2.9599331129
-0.9803231374 -4.0476535737 2.9352636295
-1.1328670979 -4.4342598449 2.9086124847
-1.2853475295 -4.8207733733 2.8800050782
-1.4379349677 -5.2069481785 2.8495001419
-1.5910306932 -5.5927273094 2.8171547035
-1.7445933298 -5.9784849605 2.7829571700
-1.8986424388 -6.3639719602 2.7469634278
-2.0531051781 -6.7486149600 2.7092683575
-2.2078891398 -7.1343401554 2.6696604500
-2.3628368269 -7.5181364731 2.6285343653
-2.5180038361 -7.9024150806 2.5856168954
-2.6734412849 -8.2872459549 2.5409184917
3.8796103373 7.0042022367 2.7580556573
3.7223821830 6.6188398730 2.7971306789
3.5655131979 6.2340365183 2.8335143543
3.4089509343 5.8497212142 2.8672458278
3.2526355728 5.4633132198 2.8985259777
3.0967453614 5.0780737573 2.9271473914
2.9413326850 4.6918794833 2.9532658716
2.7864706207 4.3053523974 2.9768571617
2.6321377440 3.9187607519 2.9979277082
2.4782949005 3.5315433197 3.0165196914
2.3243620511 3.1433328043 3.0326699019
2.1705051204 2.7551871081 3.0463556493
2.0167234390 2.3671083928 3.0576023234
1.8630163354 1.9790987426 3.0664353363
1.7093831369 1.5911601649 3.0728801194
1.5558231698 1.2032945905 3.0769621210
1.4023357596 0.8155038741 3.0787068040
1.2489202321 0.4277897950 3.0781396429
1.0955759129 0.0401540580 3.0752861219
0.9423021285 -0.3474017064 3.0701717323
0.7890982064 -0.7348759406 3.0628219700
0.6359634752 -1.1222671591 3.0532623336
0.4828972658 -1.5095739472 3.0415183224
0.3298989106 -1.8967949602 3.0276154337
0.1769677445 -2.2839289220 3.0115791614
0.0241031052 -2.6709746236 2.9934349938
-0.1286956669 -3.0579309225 2.9732084121
-0.2814292281 -3.4447967401 2.9509248879
-0.4340982314 -3.8315710614 2.9266098824
-0.5867033260 -4.2182529331 2.9002888443
-0.7392451572 -4.6048414617 2.8719872083
-0.8917243666 -4.9913358124 2.8417303939
-1.0443070955 -5.3774828486 2.8095813610
-1.1973956398 -5.7632323111 2.7756009772
-1.3509496077 -6.1489583359 2.7397742540
-1.5049883532 -6.5344137071 2.7021590591
-1.6594390130 -6.9190293095 2.6628536466
-1.8142104315 -7.3047187146 2.6216316138
-1.9691443715 -7.6884918139 2.5789076839
-2.1242971218 -8.0727429573 2.5343918687
-2.2797196944 -8.4575414914 2.4880947077
4.2726518895 6.8337044254 2.7656750374
4.1154617046 6.4483300293 2.8031332081
3.9586285368 6.0635134251 2.8379020874
3.8021002457 5.6791837930 2.8700206774
3.6458207306 5.2927665210 2.8996686123
3.4899634955 4.9075156412 2.9266642768
3.3345832696 4.5213118377 2.9511451133
3.1797520342 4.1347756885 2.9730913975
3.0254478983 3.7481748264 2.9925120294
2.8716309788 3.3609468377 3.0094450097
2.7177189996 2.9727185163 3.0239300244
2.5638817331 2.5845574221 3.0359510099
2.4101185234 2.1964656725 3.0455334098
2.2564287130 1.8084453061 3.0527026875
2.1028116438 1.4204982832 3.0574843244
1.9492666565 1.0326264866 3.0599038165
1.7957930923 0.6448317218 3.0599866725
1.6423902922 0.2571157177 3.0577584108
1.4890575979 -0.1305198721 3.0532445572
1.3357943523 -0.5180734689 3.0464706429
1.1825998991 -0.9055435677 3.0374622018
1.0294735839 -1.2929287361 3.0262447683
0.8764147544 -1.6802276131 3.0128438754
0.7234227603 -2.0674389078 2.9972850527
0.5704969538 -2.4545613984 2.9795938239
0.4176366899 -2.8415939307 2.9597957057
0.2648413269 -3.2285354162 2.9379162050
0.1121102260 -3.6153848312 2.9139808185
-0.0405572480 -4.0021412152 2.8880150296
-0.1931617265 -4.3888036691 2.8600443079
-0.3457038371 -4.7753713537 2.8300941072
-0.4981842033 -5.1618434882 2.7981898642
-0.6507644736 -5.5479599008 2.7643987598
-0.8038478315 -5.9336770649 2.7287853711
-0.9573949379 -6.3193689518 2.6913313604
-1.1114249030 -6.7047903566 2.6520965211
-1.2658647934 -7.0893765121 2.6111823792
-1.4206249863 -7.4750279143 2.5683480011
-1.5755461678 -7.8587760672 2.5240276351
-1.7306856126 -8.2429979690 2.4779149523
-1.8860942168 -8.6277623321 2.4300205873
4.6656769699 6.6631609277 2.7680249692
4.5085233278 6.2777773475 2.8038662071
4.3517245470 5.8929502082 2.8370202559
4.1952287992 5.5086088439 2.8675259676
4.0389832962 5.1221855437 2.8955417991
3.8831572749 4.7369261878 2.9209118675
3.7278074405 4.3507161394 2.9437553174
3.5730047558 3.9641743762 2.9640569519
3.4187269154 3.5775678271 2.9818281192
3.2649332325 3.1903330543 2.9971026497
3.1110393436 2.8020909632 3.0099230477
2.9572189752 2.4139184731 3.0202799440
2.8034714863 2.0258176544 3.0281988339
2.6497962345 1.6377904977 3.0337052307
2.4961925772 1.2498389140 3.0368246635
2.3426598713 0.8619647355 3.0375826741
2.1891974743 0.4741697164 3.0360048146
2.0358047437 0.0864555334 3.0321166456
1.8824810384 -0.3011762132 3.0259437321
1.7292257181 -0.6887239981 3.0175116432
1.5760381443 -1.0761863707 3.0068459483
1.4229176802 -1.4635619534 2.9939722152
1.2698636911 -1.8508494400 2.9789160087
1.1168755447 -2.2380475951 2.9617028880
0.9639526115 -2.6251552524 2.9423584044
0.8110942644 -3.0121713131 2.9209081003
0.6582998801 -3.3990947442 2.8973775068
0.5055688381 -3.7859245778 2.8717921423
0.3529005216 -4.1726599083 2.8441775106
0.2002943174 -4.5592998917 2.8145590998
0.0477496163 -4.9458437437 2.7829623804
-0.1047341871 -5.3322907378 2.7494128043
-0.2573141523 -5.7183737894 2.7139817598
-0.4103942290 -6.1040561391 2.6767374008
-0.5639361966 -6.4897114887 2.6376580903
-0.7179588870 -6.8750966977 2.5968054904
-0.8723892513 -7.2596514535 2.5542842944
-1.0271394661 -7.6452627488 2.5098394153
-1.1820488224 -8.0289843128 2.4639240704
-1.3371758590 -8.4131752863 2.4162160439
-1.4925713465 -8.7979037434 2.3667260733
5.0586768065 6.4925794869 2.7651306109
4.9015582902 6.1071895419 2.7993549490
4.7447924780 5.7223545540 2.8308942436
4.5883278577 5.3380040262 2.8597871896
4.4321145534 4.9515779083 2.8861711646
4.2763180059 4.5663129815 2.9099159147
4.1209965338 4.1800999293 2.9311223762
3.9662201577 3.7935559543 2.9497798681
3.8119662098 3.4069471971 2.9659021771
3.6581931259 3.0197093568 2.9795189791
3.5043146018 2.6314574757 2.9906755158
3.3505084229 2.2432775307 2.9993691696
3.1967739642 1.8551715431 3.0056254854
3.0431105998 1.4671414527 3.0094700245
2.8895177036 1.0791891192 3.0109283614
2.7359946498 0.6913163221 3.0100260818
2.5825408130 0.3035247621 3.0067887791
2.4291555685 -0.0841839382 3.0012420533
2.2758382930 -0.4718082331 2.9934115071
2.1225883642 -0.8593466531 2.9833227443
1.9694051621 -1.2467978030 2.9710013678
1.8162880681 -1.6341603613 2.9564729768
1.6632364662 -2.0214330783 2.9397631651
1.5102497426 -2.4086147750 2.9208975190
1.3573272867 -2.7957043416 2.8999016153
1.2044684904 -3.1827007358 2.8768010197
1.0516727487 -3.5696029811 2.8516212847
0.8989394603 -3.9564101655 2.8243879484
0.7462680271 -4.3431214396 2.7951265325
0.5936578547 -4.7297360150 2.7638625411
0.4411083527 -5.1162531625 2.7306214592
0.2886189343 -5.5026722102 2.6954287513
0.1360372204 -5.8887192836 2.6583599953
-0.0170413881 -6.2743644185 2.6194867860
-0.1705798532 -6.6599809460 2.5787842403
-0.3245966958 -7.0453278396 2.5363158311
-0.4790187089 -7.4298493415 2.4921893129
-0.6337601214 -7.8154185360 2.4461358335
-0.7886585292 -8.1991119550 2.3986270089
-0.9437739987 -8.5832704045 2.3493252040
-1.0991571643 -8.9679613175 2.2982412650
5.4516428786 6.3219677130 2.7570175258
5.2945580848 5.9365741880 2.7896251099
5.1378238387 5.5517340044 2.8195498355
4.9813889474 5.1673768493 2.8468302336
4.8252060549 4.7809510784 2.8715827309
4.6694372687 4.3956834438 2.8937025620
4.5141421646 4.0094705795 2.9132725704
4.3593898972 3.6229277403 2.9302865725
4.2051574868 3.2363201959 2.9447607816
4.0514024204 2.8490829413 2.9567207389
3.8975365966 2.4608251853 2.9662143402
3.7437419628 2.0726416577 2.9732457659
3.5900179107 1.6845343283 2.9778406088
3.4363638321 1.2965050841 2.9800244755
3.2827791186 0.9085557311 2.9798229842
3.1292631624 0.5206879942 2.9772617617
2.9758153563 0.1329035191 2.9723664409
2.8224350943 -0.2547961276 2.9651626585
2.6691217718 -0.6424094568 2.9556760524
2.5158747853 -1.0299350557 2.9439322592
2.3626935338 -1.4173715862 2.9299569126
2.2095774179 -1.8047177840 2.9137756406
2.0565258407 -2.1919724572 2.8954140636
1.9035382081 -2.5791344843 2.8748977927
1.7506139283 -2.9662028126 2.8522524277
1.5977524127 -3.3531764571 2.8275035550
1.4449530757 -3.7400544986 2.8006767463
1.2922153352 -4.1268360818 2.7717975567
1.1395386123 -4.5135204137 2.7408915236
0.9869223317 -4.9001067618 2.7079841646
0.8343659221 -5.2865944523 2.6731009768
0.6818688156 -5.6729828685 2.6362674354
0.5292834016 -6.0589914693 2.5975632842
0.3762045420 -6.4445971070 2.5570634205
0.2226680318 -6.8301726437 2.5147397734
0.0686556907 -7.2154792134 2.4706575661
-0.0857590768 -7.5999657065 2.4249275067
-0.2410903772 -7.9833947327 2.3776778740
-0.3953810697 -8.3691547216 2.3281666093
-0.5504857559 -8.7532791433 2.2772726256
-0.7058573378 -9.1379309714 2.2245963887
5.8445669325 6.1513330657 2.7437116653
5.6875144758 5.7659387054 2.7747027509
5.5308104130 5.3810959404 2.8030131989
5.3744038738 4.9967346562 2.8286813692
5.2182496375 4.6103123454 2.8518028956
5.0625069317 4.2250448185 2.8722983248
4.9072362416 3.8388352776 2.8902325483
4.7525059303 3.4522968605 2.9056038550
4.5982927564 3.0656938851 2.9184308678
4.4445531883 2.6784607993 2.9287350212
4.2906974678 2.2902010110 2.9365667769
4.1369118046 1.9020176967 2.9419371502
3.9831956083 1.5139127724 2.9448717792
3.8295482893 1.1258880703 2.9453963139
3.6759692578 0.7379453409 2.9435364136
3.5224579250 0.3500862527 2.9393177441
3.3690137030 -0.0376876058 2.9327659750
3.2156360049 -0.4253747252 2.9239067776
3.0623242455 -0.8129736744 2.9127658223
2.9090778412 -1.2004830986 2.8993687763
2.7558962105 -1.5879017181 2.8837413012
2.6027787739 -1.9752283273 2.8659090515
2.4497249541 -2.3624617923 2.8458976719
2.2967341767 -2.7496010501 2.8237327957
2.1438058700 -3.1366451062 2.7994400430
1.9909394650 -3.5235930337 2.7730450185
1.8381343959 -3.9104439708 2.7445733106
1.6853901001 -4.2971971193 2.7140504892
1.5327060183 -4.6838517430 2.6815021047
1.3800815947 -5.0704071658 2.6469536863
1.2275162770 -5.4568627693 2.6104307405
1.0750095167 -5.8432179919 2.5719587506
0.9224185555 -6.2291857501 2.5316215983
0.7693378210 -6.6147497270 2.4894973443
0.6158018070 -7.0002822217 2.4455547897
0.4610998512 -7.3843394189 2.4001375055
0.3067199448 -7.7684128502 2.3528720221
0.1520688316 -8.1533975488 2.3036931562
-0.0022218139 -8.5391086631 2.2525731398
-0.1573164434 -8.9231976449 2.2000886070
-0.3126771224 -9.3078089445 2.1458217698
6.2374409964 5.9806828398 2.7252393482
6.0804195131 5.5952903432 2.7546142981
5.9237442744 5.2104475670 2.7813108626
5.7673647359 4.8260846097 2.8053672248
5.6112374358 4.4396688137 2.8268584111
5.4555191656 4.0544041571 2.8457300693
5.3002709806 3.6682010131 2.8620293040
5.1455605254 3.2816702373 2.8757588450
4.9913643458 2.8950751160 2.8869397060
4.8376378249 2.5078497046 2.8955892459
4.6837896837 2.1195916470 2.9017604028
4.5300104921 1.7314122588 2.9054710531
4.3762996791 1.3433133996 2.9067468779
4.2226566740 0.9552968455 2.9056135683
4.0690809068 0.5673642890 2.9020968220
3.9155718086 0.1795173410 2.8962223414
3.7621288110 -0.2082424686 2.8880158304
3.6087513476 -0.5959136894 2.8775029925
3.4554388530 -0.9834949493 2.8647095279
3.3021907640 -1.3709849528 2.8496611316
3.1490065192 -1.7583824797 2.8323834912
2.9958855594 -2.1456863837 2.8129022848
2.8428273279 -2.5328955901 2.7912431787
2.6898312701 -2.9200090949 2.7674318259
2.5368968348 -3.3070259625 2.7414938644
2.3840234730 -3.6939453243 2.7134549150
2.2312106387 -4.0807663764 2.6833405800
2.0784577895 -4.4674883783 2.6511764419
1.9257643857 -4.8541106507 2.6169880614
1.7731298912 -5.2406325734 2.5808009767
1.6205537731 -5.6270535841 2.5426407021
1.4680355020 -6.0133731758 2.5025327263
1.3146967344 -6.3985956427 2.4607633172
1.1616275842 -6.7840101549 2.4170370699
1.0081090887 -7.1693432994 2.3715065114
0.8537024294 -7.5528113884 2.3245584332
0.6997506861 -7.9383686649 2.2753825769
0.5444314128 -8.3216124930 2.2249934913
0.3895312331 -8.7048419515 2.1728014609
0.2343929252 -9.0884175642 2.1188426508
0.0789499404 -9.4723527260 2.0631421427
6.6302573935 5.8100241495 2.7016272410
6.4732655455 5.4246361650 2.7293865216
6.3166177992 5.0397958991 2.7544696965
6.1602639384 4.6554336776 2.7769147659
6.0041618944 4.2690273880 2.7967763623
5.8484664551 3.8837683058 2.8140249900
5.6932389157 3.4975745648 2.8286901543
5.5385462739 3.1110545761 2.8407789897
5.3843649104 2.7244705172 2.8503148768
5.2306490586 2.3372562025 2.8573111366
5.0768060511 1.9490035524 2.8618230911
4.9230309130 1.5608317130 2.8638754940
4.7693230935 1.1727424861 2.8634940671
4.6156820419 0.7847375893 2.8607045397
4.4621072089 0.3968186561 2.8555326460
4.3085980455 0.0089872377 2.8480041221
4.1551540044 -0.3787551956 2.8381447037
4.0017745396 -0.7664072538 2.8259801238
3.8484591064 -1.1539676248 2.8115361099
3.6952071626 -1.5414350734 2.7948383824
3.5420181671 -1.9288084399 2.7759126520
3.3888915818 -2.3160866379 2.7547846178
3.2358268705 -2.7032686526 2.7314799655
3.0828234993 -3.0903535398 2.7060243652
2.9298809372 -3.4773404228 2.6784434701
2.7769986557 -3.8642284918 2.6487629145
2.6241761294 -4.2510170013 2.6170083125
2.4714128354 -4.6377052682 2.5832052563
2.3187082544 -5.0242926701 2.5473793151
2.1660618695 -5.4107786435 2.5095560336
2.0127238993 -5.7965208651 2.4699533299
1.8601934272 -6.1828043836 2.4282164085
1.7076019638 -6.5686295300 2.3846324102
1.5540141129 -6.9529928347 2.3395244576
1.4005354166 -7.3380805683 2.2924155249
1.2453981574 -7.7204434633 2.2441672265
1.0902753037 -8.1029207462 2.1941012148
0.9348512569 -8.4857181519 2.1422429867
0.7797706043 -8.8684013830 2.0886109630
0.6243469540 -9.2512802842 2.0332597508
0.4684376746 -9.6342942540 1.9762411611
7.0230087536 5.6393639156 2.6729023363
6.8660452320 5.2539830368 2.6990465138
6.7094236769 4.8691477492 2.7225168888
6.5530942027 4.4847886211 2.7433512732
6.3970157790 4.0983947605 2.7615841442
6.2413416096 3.7131438943 2.7772105862
6.0861329097 3.3269624893 2.7902427161
5.9314560999 2.9404563550 2.8006920294
5.7772874429 2.5538864843 2.8085842478
5.6235799600 2.1666865995 2.8139286964
5.4697397233 1.7784429416 2.8167829867
5.3159663059 1.3902821782 2.8171787557
5.1622591775 1.0022060518 2.8151417639
5.0086178087 0.6142162200 2.8106977764
4.8550416707 0.2263142557 2.8038725608
4.7015302359 -0.1614983504 2.7946918843
4.5480829781 -0.5492201894 2.7831815120
4.3946993724 -0.9368499324 2.7693672037
4.2413788956 -1.3243863286 2.7532747118
4.0881210261 -1.7118282038 2.7349297791
3.9349252446 -2.0991744594 2.7143581369
3.7817910337 -2.4864240696 2.6915855030
3.6287178779 -2.8735760800 2.6666375796
3.4757052647 -3.2606296063 2.6395400516
3.3227526834 -3.6475838316 2.6103185848
3.1698596263 -4.0344380046 2.5789988244
3.0170255882 -4.4211914383 2.5456063939
2.8635056987 -4.8072035549 2.5103556822
2.7107892349 -5.1937555133 2.4728992521
2.5581303244 -5.5802050885 2.4334468195
2.4055284722 -5.9665518261 2.3920239061
2.2524200148 -6.3520089803 2.3488640200
2.0998423881 -6.7377144505 2.3036692065
1.9451805942 -7.1203956648 2.2573979549
1.7900829366 -7.5022868742 2.2094840112
1.6347965787 -7.8843208497 2.1597546099
1.4794544598 -8.2663973250 2.1082324527
1.3237057326 -8.6486995075 2.0549543214
1.1681030623 -9.0307861879 1.9999506101
1.0134803115 -9.4136710212 1.9429345371
0.8586114447 -9.7968925990 1.8841812543
7.4156880238 5.4687088537 2.6390919307
7.2587515515 5.0833376139 2.6636216672
7.1021549202 4.6985097155 2.6854799240
6.9458485766 4.3141559829 2.7047043194
6.7897921849 3.9277774006 2.7213094385
6.6341377712 3.5425373245 2.7353146395
6.4789461619 3.1563711112 2.7467148819
6.3242832686 2.7698818152 2.7555259736
6.1701252805 2.3833291711 2.7617759487
6.0164239481 1.9961469549 2.7654701830
5.8625842069 1.6079157753 2.7666684805
5.7088102666 1.2197695142 2.7654093595
5.5551016184 0.8317098529 2.7617186157
5.4014577542 0.4437383874 2.7556220475
5.2478781670 0.0558566292 2.7471454534
5.0943623509 -0.3319339936 2.7363146295
4.9409098012 -0.7196321337 2.7231553671
4.7875200147 -1.1072365244 2.7076934500
4.6341924895 -1.4947459770 2.6899546531
4.4809267261 -1.8821593791 2.6699647391
4.3277222261 -2.2694756934 2.6477494574
4.1745784935 -2.6566939555 2.6233345415
4.0214950342 -3.0438132717 2.5967457076
3.8684713566 -3.4308328178 2.5680086528
3.7155069708 -3.8177518366 2.5371490533
3.5618629597 -4.2039333011 2.5043821486
3.4090167547 -4.5906510722 2.4693589656
3.2562284207 -4.9772664833 2.4322900698
3.1034974770 -5.3637790230 2.3932010397
2.9502631066 -5.7494036001 2.3523254060
2.7976473661 -6.1357121653 2.3092774032
2.6433871873 -6.5199843777 2.2648684590
2.4888629957 -6.9027734198 2.2188568215
2.3338133905 -7.2842712288 2.1712860280
2.1784647192 -7.6658867726 2.1219004575
2.0228330645 -8.0475778633 2.0707282806
1.8669826872 -8.4292353890 2.0178037615
1.7119085676 -8.8114932596 1.9628856860
1.5571510665 -9.1936337660 1.9061987543
1.4020493905 -9.5759656384 1.8478013761
1.2463957056 -9.9585370671 1.7877354975
7.8022411063 5.2962308900 2.6009376338
7.6450776101 4.9114590230 2.6238721170
7.4883667050 4.5272054167 2.6441313777
7.3320133206 4.1433731205 2.6617568770
7.1766376990 3.7578393960 2.6766731044
7.0215356717 3.3731987630 2.6890143730
6.8666785099 2.9874402795 2.6987675041
6.7122329284 2.6012366354 2.7059402263
6.5582232790 2.2148842049 2.7105564079
6.4045986252 1.8278185314 2.7126169694
6.2507540200 1.4396005681 2.7121818960
6.0969745072 1.0514691369 2.7092904732
5.9432595958 0.6634258648 2.7039685233
5.7896087954 0.2754722927 2.6962418690
5.6360216164 -0.1123901228 2.6861363315
5.4824975706 -0.5001600081 2.6736777275
5.3290361708 -0.8878360711 2.6588918667
5.1756369311 -1.2754170993 2.6418045501
5.0222993674 -1.6629019583 2.6224415672
4.8690229967 -2.0502895898 2.6008286942
4.7158073382 -2.4375790099 2.5769916918
4.5626519128 -2.8247693071 2.5509563036
4.4095562430 -3.2118596402 2.5227482540
4.2565198537 -3.5988492368 2.4923932466
4.1035422717 -3.9857373907 2.4599169629
3.9506230259 -4.3725234602 2.4253450604
3.7977616475 -4.7592068659 2.3887031714
3.6442765308 -5.1449210767 2.3502538545
3.4915315559 -5.5314009774 2.3095541193
3.3376933224 -5.9162329003 2.2672941688
3.1835723189 -6.3003821432 2.2232370337
3.0292458728 -6.6838824301 2.1773988118
2.8749645195 -7.0660231825 2.1299034580
2.7202938573 -7.4474921740 2.0807264269
2.5654112081 -7.8290765698 2.0297235763
2.4103555080 -8.2107504465 1.9769168231
2.2552321131 -8.5924299981 1.9223294911
2.0996896407 -8.9743027093 1.8660012008
1.9441824127 -9.3560219259 1.8079546890
1.7896817479 -9.7381603204 1.7479531494
1.6348766554 -10.1205264713 1.6862524870
8.1869663929 5.1252060602 2.5580319409
8.0298904198 4.7411682005 2.5793546812
7.8732846155 4.3575287999 2.5980077289
7.7170423267 3.9742086030 2.6140318262
7.5618349596 3.5891525715 2.6273272239
7.4068911606 3.2049003348 2.6380563197
7.2526587727 2.8196890287 2.6461413262
7.0985905324 2.4338406798 2.6516690651
6.9448264357 2.0477235327 2.6546515884
6.7913233263 1.6607868361 2.6550847892
6.6374721585 1.2725822529 2.6530282368
6.4836854892 0.8844655852 2.6485163556
6.3299628435 0.4964384097 2.6415749891
6.1763037476 0.1085022172 2.6322299798
6.0227077282 -0.2793415859 2.6205071666
5.8691743133 -0.6670916760 2.6064323823
5.7157030320 -1.0547468109 2.5900314513
5.5622934143 -1.4423058274 2.5713301874
5.4089449919 -1.8297676404 2.5503543912
5.2556572978 -2.2171312403 2.5271298485
5.1024298667 -2.6043956914 2.5016823283
4.9492622348 -2.9915601299 2.4740375807
4.7961539400 -3.3786237619 2.4442213353
4.6431045223 -3.7655858612 2.4122593000
4.4901135231 -4.1524457677 2.3781771583
4.3371804861 -4.5392028846 2.3420005695
4.1843049569 -4.9258566769 2.3037551658
4.0308344588 -5.3114470779 2.2637236201
3.8769823885 -5.6961698341 2.2218833768
3.7228797331 -6.0801169902 2.1782359248
3.5688155573 -6.4643353134 2.1325847718
3.4145776560 -6.8479446719 2.0851438361
3.2603235260 -7.2292442384 2.0362371313
3.1058630294 -7.6106645982 1.9854808031
2.9512398540 -7.9921764902 1.9328966411
2.7964992110 -8.3737584782 1.8785048609
2.6417597418 -8.7553337862 1.8223252759
2.4867237533 -9.1370787697 1.7643928502
2.3318795349 -9.5186792553 1.7047173809
2.1765373619 -9.9004199590 1.6433729382
2.0223065883 -10.2825301177 1.5800822379
8.5712876708 4.9552785544 2.5102800175
8.4143804278 4.5719136521 2.5299959582
8.2579376424 4.1888231589 2.5470473887
8.1018493072 3.8059522258 2.5614740413
7.9468513921 3.4213078241 2.5731518001
7.7920981595 3.0373846027 2.5822708580
7.6380770949 2.6524563338 2.5887351318
7.4846104461 2.2670043647 2.5925954282
7.3312118828 1.8811294209 2.5939334175
7.1778799634 1.4943182140 2.5927371611
7.0240202384 1.1061281442 2.5890644996
6.8702244548 0.7180272578 2.5829375194
6.7164921542 0.3300170834 2.5743820827
6.5628228794 -0.0579009365 2.5634240489
6.4092161736 -0.4457254437 2.5500892721
6.2556715810 -0.8334551627 2.5344035989
6.1021886469 -1.2210888986 2.5163928655
5.9487669174 -1.6086255360 2.4960828962
5.7954059401 -1.9960640364 2.4734995007
5.6421052637 -2.3834034366 2.4486684723
5.4888644382 -2.7706428471 2.4216155860
5.3356830153 -3.1577814491 2.3923665966
5.1825605481 -3.5448184936 2.3609472373
5.0294965913 -3.9317532985 2.3273832180
4.8764907010 -4.3185852469 2.2917002234
4.7235424355 -4.7053137847 2.2539239121
4.5699976344 -5.0908496454 2.2143608400
4.4160795403 -5.4753972156 2.1729866178
4.2622350976 -5.8601689226 2.1295593971
4.1081605656 -6.2442068476 2.0843187713
3.9539402517 -6.6275222689 2.0372834374
3.7997358527 -7.0111440891 1.9882685936
3.6455581294 -7.3924733167 1.9377871257
3.4912447853 -7.7738602078 1.8854574586
3.3368081200 -8.1553129108 1.8312994826
3.1822939665 -8.5368140003 1.7753325892
3.0278254600 -8.9182920425 1.7175746374
2.8731442453 -9.2999092507 1.6580582041
2.7187486287 -9.6813773831 1.5967848025
2.5640525608 -10.0629477819 1.5338216413
2.4088174653 -10.4447281080 1.4692075901
8.9552518097 4.7868202342 2.4577377513
8.7985620566 4.4040122944 2.4758524996
8.6423168351 4.0213681114 2.4913069779
8.4864077169 3.6388572661 2.5041400286
8.3316470605 3.2545369989 2.5142030431
8.1771058360 2.8708677939 2.5217139894
8.0233177664 2.4861510390 2.5265586024
7.8700864849 2.1008657721 2.5287929901
7.7172781638 1.7152520059 2.5284612034
7.5642034837 1.3285635971 2.5256285257
7.4103344988 0.9403882470 2.5203460138
7.2565289356 0.5523032195 2.5126101570
7.1027863525 0.1643099970 2.5024468334
6.9491063084 -0.2235900229 2.4898819163
6.7954883628 -0.6113955276 2.4749412725
6.6419320759 -0.9991052862 2.4576507598
6.4884370090 -1.3867181488 2.4380362241
6.3350027239 -1.7742330439 2.4161234977
6.1816287839 -2.1616489769 2.3919383973
6.0283147530 -2.5489650280 2.3655067218
5.8750601963 -2.9361803503 2.3368542502
5.7218646807 -3.3232941673 2.3060067405
5.5687277739 -3.7103057715 2.2729899277
5.4156490449 -4.0972145215 2.2378295222
5.2626280644 -4.4840198407 2.2005512082
5.1089737296 -4.8694470434 2.1614994949
4.9554110083 -5.2550018419 2.1203524828
4.8014830104 -5.6396138072 2.0773915902
4.6473340952 -6.0233593363 2.0326182212
4.4932391713 -6.4073953677 1.9858124202
4.3390093224 -6.7907110092 1.9372136166
4.1848162179 -7.1743383704 1.8866299509
4.0306613565 -7.5557331670 1.8345751505
3.8764394187 -7.9371059128 1.7806768320
3.7221257460 -8.3185174598 1.7249509892
3.5677620573 -8.6999553130 1.6674167452
3.4134689651 -9.0813531231 1.6080911525
3.2590153472 -9.4628589882 1.5470060042
3.1048938887 -9.8442067235 1.4841577936
2.9505879072 -10.2256105002 1.4196121972
2.7970399971 -10.6078187163 1.3530718540
9.3388065850 4.6204398910 2.4004859199
9.1823498496 4.2380003120 2.4170054037
9.0263114602 3.8556470452 2.4308678244
8.8705868642 3.4733673601 2.4421114051
8.7160741991 3.0892518865 2.4505632257
8.5617517947 2.7057370145 2.4564687507
8.4082055232 2.3211408348 2.4596958614
8.2552177375 1.9359407357 2.4603061165
8.1026440178 1.5503765365 2.4583461644
7.9499905642 1.1638172604 2.4538604899
7.7961145091 0.7756548876 2.4469761816
7.6423014029 0.3875838196 2.4376394169
7.4885508193 -0.0003945013 2.4258760867
7.3348623326 -0.3882787190 2.4117120758
7.1812355177 -0.7760675610 2.3951732609
7.0276699497 -1.1637598367 2.3762855085
6.8741652048 -1.5513544360 2.3550746719
6.7207208596 -1.9388503269 2.3315665896
6.5673364920 -2.3262465539 2.3057870832
6.4140116801 -2.7135422355 2.2777619552
6.2607460038 -3.1007365629 2.2475169876
6.1075390432 -3.4878287972 2.2150779397
5.9543903800 -3.8748182675 2.1804705471
5.8012995969 -4.2617043686 2.1437205196
5.6482662776 -4.6484865595 2.1048535403
5.4945847831 -5.0339392797 2.0642176542
5.3405171955 -5.4182765358 2.0217797270
5.1865352607 -5.8028688107 1.9772589786
5.0323318251 -6.1865936835 1.9309310531
4.8781985958 -6.5706173295 1.8825656519
4.7239400969 -6.9539161839 1.8324103717
4.5697357351 -7.3375350476 1.7802648058
4.4155565980 -7.7190450046 1.7266347082
4.2613753394 -8.1004268683 1.6711713821
4.1071268178 -8.4818183672 1.6138827714
3.9528440826 -8.8632143217 1.5547880373
3.7986385857 -9.2445543786 1.4939043918
3.6442953815 -9.6259736328 1.4312642627
3.4911341342 -10.0079788131 1.3665543909
3.3370827149 -10.3892419676 1.3004390431
3.1835724758 -10.7716410543 1.2322869002
9.7227315822 4.4535963307 2.3384036018
9.5665226948 4.0715590978 2.3533279901
9.4107066349 3.6895236912 2.3655975423
9.2551820246 3.3074966000 2.3752502007
9.1009447264 2.9235897045 2.3820854992
8.9468686371 2.5402329987 2.3863799810
8.7935957092 2.1557489310 2.3879816566
8.6408833161 1.7706169039 2.3869583865
8.4885738677 1.3850788080 2.3833599689
8.3365345876 0.9986339750 2.3771855259
8.1826453474 0.6104887148 2.3686976679
8.0288185717 0.2224357548 2.3577583280
7.8750538515 -0.1655235068 2.3443934091
7.7213507781 -0.5533877569 2.3286288063
7.5677089433 -0.9411557661 2.3104904058
7.4141279391 -1.3288263866 2.2900040811
7.2606073580 -1.7163985505 2.2671956924
7.1071467931 -2.1038712677 2.2420910832
6.9537458380 -2.4912436238 2.2147160787
6.8004040869 -2.8785147783 2.1850964841
6.6471211350 -3.2656839622 2.1532580827
6.4938965778 -3.6527504762 2.1192266344
6.3407300121 -4.0397136879 2.0830278737
6.1876210352 -4.4265730305 2.0446875089
6.0337751894 -4.8118259670 2.0046161575
5.8800359297 -5.1972446143 1.9624182498
5.7258915924 -5.5815376725 1.9184303935
5.5718500772 -5.9660983586 1.8723539654
5.4175879669 -6.3497836531 1.8244768380
5.2634147264 -6.7337803637 1.7745558873
5.1091282587 -7.1170385614 1.7228496235
4.9549154625 -7.5006301199 1.6691462516
4.8006941878 -7.8823290120 1.6139290656
4.6465399429 -8.2637431536 1.5568983330
4.4923530225 -8.6451303925 1.4980441980
4.3389009092 -9.0271999305 1.4371067238
4.1848178673 -9.4085141744 1.3746495624
4.0306313132 -9.7898900651 1.3104343685
3.8774785899 -10.1720429425 1.2441253663
10.1062932186 4.2896301256 2.2717266633
9.9502886020 3.9077261749 2.2850640835
9.7946572596 3.5257936594 2.2957477916
9.6392996481 3.1438447408 2.3038157919
9.4853150122 2.7599867941 2.3090403329
9.3314636839 2.3766579121 2.3117287100
9.1784476838 1.9921691046 2.3117095556
9.0259953708 1.6070028489 2.3090573708
8.8739333536 1.2214014355 2.3038253825
8.7220731466 0.8348605442 2.2960190312
8.5681786031 0.4467271526 2.2859377741
8.4143460951 0.0586868727 2.2734058447
8.2605752284 -0.3292589338 2.2584491546
8.1068656089 -0.7171089897 2.2410936073
7.9532168430 -1.1048621011 2.2213650954
7.7996285369 -1.4925171558 2.1992894986
7.6461002974 -1.8800731206 2.1748926812
7.4926317315 -2.2675290400 2.1482004904
7.3392224465 -2.6548840336 2.1192387540
7.1858720505 -3.0421372944 2.0880332785
7.0325801515 -3.4292880866 2.0546098482
6.8793463587 -3.8163357431 2.0189942222
6.7261702814 -4.2032796638 1.9812121341
6.5730515297 -4.5901193130 1.9412892900
6.4191253203 -4.9753103556 1.8996656038
6.2653189589 -5.3606821079 1.8559103737
6.1110855095 -5.7449082464 1.8103800192
5.9569698513 -6.1294186797 1.7627549257
5.8026351253 -6.5130343198 1.7133378930
5.6484033197 -6.8969777178 1.6618707830
5.4940715351 -7.2801520754 1.6086262434
