-9.9780391215 -2.8550759049 1.4444724191
-10.1327934707 -3.2339525139 1.4404289930
-10.2875708637 -3.6130641876 1.4346156837
-10.4429227772 -3.9913462664 1.4269500657
-10.5983597514 -4.3696349578 1.4175514739
-10.7539312100 -4.7479256126 1.4064374636
-4.1535558099 10.2759545797 0.4032073477
-4.3102401302 9.8980532508 0.4744824003
-4.4668985599 9.5201388527 0.5431547893
-4.6235229026 9.1422103414 0.6092500823
-4.7803898829 8.7641743273 0.6727657742
-4.9371447379 8.3861859198 0.7337521775
-5.0939517921 8.0081474567 0.7922262171
-5.2507257958 7.6300918129 0.8482191016
-5.4074323183 7.2520212917 0.9017599488
-5.5641215568 6.8738232284 0.9528856962
-5.7207219860 6.4943728409 1.0018383044
-5.8772771155 6.1151333126 1.0483547574
-6.0336332733 5.7355143428 1.0925900806
-6.1899437433 5.3560784410 1.1344427234
-6.3459664284 4.9761636072 1.1740868195
-6.5015300344 4.5955009947 1.2116072221
-6.6570319530 4.2148372328 1.2468373935
-6.8124727168 3.8341734743 1.2798013211
-6.9678528629 3.4535108528 1.3105230063
-7.1231729327 3.0728504826 1.3390264634
-7.2784334715 2.6921934580 1.3653357193
-7.4336350281 2.3115408537 1.3894748130
-7.5887781549 1.9308937241 1.4114677946
-7.7438634074 1.5502531034 1.4313387248
-7.8988913438 1.1696200052 1.4491116740
-8.0538625249 0.7889954223 1.4648107222
-8.2087775137 0.4083803272 1.4784599578
-8.3636368752 0.0277756715 1.4900834771
-8.5184411764 -0.3528176141 1.4997053841
-8.6731909854 -0.7333986195 1.5073497888
-8.8278868719 -1.1139664554 1.5130408077
-8.9825294062 -1.4945202531 1.5168025628
-9.1366236417 -1.8746109556 1.5187017858
-9.2907971422 -2.2543988947 1.5186922905
-9.4451018269 -2.6340414797 1.5168032090
-9.5996065655 -3.0134315138 1.5130487877
-9.7544215634 -3.3923544285 1.5074363003
-9.9092705919 -3.7715249863 1.5000523359
-10.0646595672 -4.1498732269 1.4908271839
-10.2201413233 -4.5282399481 1.4798688303
-10.3757661490 -4.9066232362 1.4671949192
-3.7754945268 10.1189600135 0.5209321560
-3.9322279998 9.7409452916 0.5906617531
-4.0889127838 9.3629359409 0.6577880485
-4.2455481716 8.9849267329 0.7223363908
-4.4024178949 8.6068111070 0.7843071858
-4.5591677977 8.2287544472 0.8437471524
-4.7159618544 7.8506569737 0.9006743548
-4.8727123696 7.4725551729 0.9551194317
-5.0293817781 7.0944553915 1.0071111792
-5.1860007126 6.7162898080 1.0566813318
-5.3425516673 6.3367924119 1.1040844272
-5.4990477102 5.9574984883 1.1490548790
-5.6553444943 5.5778318935 1.1917403314
-5.8115876147 5.1983421955 1.2320459242
-5.9671847465 4.8176489514 1.2703092488
-6.1227199232 4.4369540068 1.3062581300
-6.2781936745 4.0562585327 1.3399165563
-6.4336065346 3.6755636808 1.3713085304
-6.5889590419 3.2948705833 1.4004580686
-6.7442517393 2.9141803524 1.4273892006
-6.8994851733 2.5334940801 1.4521259682
-7.0546598939 2.1528128381 1.4746924251
-7.2097764542 1.7721376772 1.4951126362
-7.3648354106 1.3914696276 1.5134106764
-7.5198373219 1.0108096983 1.5296106308
-7.6747827493 0.6301588776 1.5437365932
-7.8296722563 0.2495181327 1.5558126659
-7.9845064082 -0.1311115909 1.5658629589
-8.1392857718 -0.5117293682 1.5739115893
-8.2940109155 -0.8923342956 1.5799826805
-8.4486824085 -1.2729254906 1.5841003618
-8.6033008211 -1.6535020915 1.5862887676
-8.7576045645 -2.0336854064 1.5865877247
-8.9118524172 -2.4135300689 1.5849959291
-9.0662363936 -2.7932461079 1.5815264885
-9.2208208317 -3.1727266898 1.5761949245
-9.3757057683 -3.5517575910 1.5690112661
-9.5306367107 -3.9310624518 1.5600540403
-9.6860762044 -4.3095623164 1.5492668910
-9.8416184209 -4.6881131970 1.5367459363
-9.9973152287 -5.0667228475 1.5225087267
-3.3975163815 9.9618916285 0.6331622317
-3.5542768423 9.5837597898 0.7013508750
-3.7109715928 9.2056552035 0.7669337704
-3.8676055752 8.8275665319 0.8299368406
-4.0244721730 8.4493706464 0.8903636283
-4.1812123425 8.0712467906 0.9482575496
-4.3379935196 7.6930891164 1.0036379539
-4.4947252443 7.3149376948 1.0565349632
-4.6513666362 6.9368019452 1.1069772452
-4.8079286156 6.5586439050 1.1549941785
-4.9644296207 6.1791082318 1.2008456543
-5.1208673331 5.7997708903 1.2442673506
-5.2771061664 5.4200635795 1.2854009412
-5.4330788586 5.0399685046 1.3242772912
-5.5886464831 4.6592429274 1.3609709484
-5.7441523942 4.2785162359 1.3953499397
-5.8995971233 3.8977896008 1.4274382676
-6.0549812063 3.5170641726 1.4572599495
-6.2103051832 3.1363410823 1.4848390159
-6.3655695980 2.7556214401 1.5101995108
-6.5207749984 2.3749063355 1.5333654899
-6.6759219355 1.9941968372 1.5543610210
-6.8310109636 1.6134939927 1.5732101826
-6.9860426396 1.2327988285 1.5899370633
-7.1410175230 0.8521123493 1.6045657616
-7.2959361756 0.4714355387 1.6171203844
-7.4507991614 0.0907693587 1.6276250470
-7.6056070458 -0.2898852502 1.6361038722
-7.7603603959 -0.6705273691 1.6425809895
-7.9150597800 -1.0511561006 1.6470805348
-8.0697057672 -1.4317705685 1.6496266492
-8.2242989276 -1.8123699181 1.6502434789
-8.3787241338 -2.1926450665 1.6489564454
-8.5330344991 -2.5725538355 1.6457861808
-8.6874853591 -2.9523478368 1.6407398330
-8.8421372579 -3.3319197117 1.6338340351
-8.9970813496 -3.7110540232 1.6250812585
-9.1520836715 -4.0904881288 1.6145526255
-9.3075678442 -4.4691266963 1.6022038035
-9.4631647372 -4.8478456699 1.5881202367
-9.6189280997 -5.2266615995 1.5723192169
-3.0189601698 9.8049139823 0.7399870262
-3.1758427982 9.4266428382 0.8066254368
-3.3326169208 9.0484224673 0.8706589666
-3.4893016209 8.6702366373 0.9321126563
-3.6462072991 8.2919444604 0.9909924329
-3.8029707046 7.9137401331 1.0473380228
-3.9597668371 7.5355103029 1.1011698035
-4.1165039847 7.1572981503 1.1525172313
-4.2731393146 6.7791152021 1.2014088137
-4.4296663885 6.4009446875 1.2478727936
-4.5861278555 6.0213767604 1.2921697373
-4.7423895661 5.6415114752 1.3341398195
-4.8985944428 5.2618109328 1.3737072727
-5.0541946088 4.8810537651 1.4111666272
-5.2097328000 4.5002949535 1.4462870875
-5.3652095450 4.1195356874 1.4790926581
-5.5206253766 3.7387771363 1.5096073577
-5.6759808324 3.3580204491 1.5378552199
-5.8312764541 2.9772667544 1.5638602911
-5.9865127868 2.5965171594 1.5876466310
-6.1416903797 2.2157727504 1.6092383116
-6.2968097848 1.8350345919 1.6286594157
-6.4518715571 1.4543037274 1.6459340372
-6.6068762543 1.0735811780 1.6610862802
-6.7618244368 0.6928679435 1.6741402575
-6.9167166667 0.3121650014 1.6851200910
-7.0715535080 -0.0685266925 1.6940499103
-7.2263355268 -0.4492062044 1.7009538524
-7.3810632897 -0.8298726225 1.7058560605
-7.5357373651 -1.2105250568 1.7087806840
-7.6903583219 -1.5911626387 1.7097518773
-7.8449267297 -1.9717845220 1.7087937994
-7.9994151192 -2.3521472633 1.7059251991
-8.1539395039 -2.7322105477 1.7011597927
-8.3084540984 -3.1121196281 1.6945352873
-8.4631695619 -3.4918255293 1.6860539195
-8.6181690211 -3.8711118175 1.6757305975
-8.7732373258 -4.2507330395 1.6636285873
-8.9287620907 -4.6295751335 1.6497160632
-9.0844075559 -5.0085406680 1.6340673824
-9.2402281751 -5.3876584716 1.6166994058
-2.6398660563 9.6479480438 0.8414314564
-2.7969708931 9.2695363363 0.9065069664
-2.9538966218 8.8911926576 0.9689831847
-3.1106859887 8.5129005178 1.0288821542
-3.2676743471 8.1345019726 1.0862110817
-3.4244952184 7.7562081373 1.1410054467
-3.5813353867 7.3778972906 1.1932863128
-3.7381034035 6.9996157790 1.2430822462
-3.8947557793 6.6213768642 1.2904214804
-4.0511907270 6.2427271297 1.3354209599
-4.2076371869 5.8631785885 1.3781486303
-4.3638732756 5.4833125990 1.4185524535
-4.5195054922 5.1025230041 1.4567995726
-4.6750754880 4.7217312677 1.4926835529
-4.8305837883 4.3409385988 1.5262284008
-4.9860309239 3.9601461853 1.5574581379
-5.1414174296 3.5793551950 1.5863968006
-5.2967438447 3.1985667746 1.6130684396
-5.4520107121 2.8177820494 1.6374971187
-5.6072185787 2.4370021233 1.6597069145
-5.7623679946 2.0562280782 1.6797219155
-5.9174595131 1.6754609741 1.6975662215
-6.0724936900 1.2947018490 1.7132639426
-6.2274710838 0.9139517185 1.7268391987
-6.3823922552 0.5332115758 1.7383161188
-6.5372577670 0.1524823920 1.7477188400
-6.6920681834 -0.2282348844 1.7550715074
-6.8468240703 -0.6089393272 1.7603982726
-7.0015259948 -0.9896300326 1.7637232938
-7.1561745247 -1.3703061187 1.7650707343
-7.3107702286 -1.7509667265 1.7644647627
-7.4653136756 -2.1316110180 1.7619295515
-7.6198351280 -2.5120605389 1.7574808247
-7.7744802441 -2.8922700421 1.7511293000
-7.9292233377 -3.2723974013 1.7429092111
-8.0839924106 -3.6522711063 1.7328512764
-8.2390367264 -4.0317460236 1.7209561098
-8.3941575769 -4.4115967542 1.7072788190
-8.5497096180 -4.7906873035 1.6918003709
-8.7053856279 -5.1699511153 1.6745838069
-8.8612382088 -5.5494292215 1.6556454510
-2.2601965433 9.4908955179 0.9375340414
-2.4176420955 9.1123744216 1.0010270562
-2.5748032101 8.7339185432 1.0619341173
-2.7317590449 8.3555222335 1.1202706782
-2.8888789391 7.9770147195 1.1760434486
-3.0457956547 7.5986271323 1.2292827172
-3.2027120684 7.2202297260 1.2800097172
-3.3595388403 6.8418726458 1.3282517766
-3.5162332614 6.4635710538 1.3740366446
-3.6726565662 6.0845390952 1.4175396502
-3.8289479522 5.7045433266 1.4587935112
-3.9846114459 5.3237205176 1.4978509745
-4.1402124843 4.9428950917 1.5345210366
-4.2957515901 4.5620682772 1.5688277062
-4.4512292915 4.1812412815 1.6007950081
-4.6066461210 3.8004152913 1.6304469825
-4.7620026154 3.4195914719 1.6578076841
-4.9172993156 3.0387709668 1.6829011817
-5.0725367664 2.6579548978 1.7057515573
-5.2277155160 2.2771443646 1.7263829053
-5.3828361155 1.8963404443 1.7448193316
-5.5378991194 1.5155441914 1.7610849535
-5.6929050843 1.1347566379 1.7752038980
-5.8478545697 0.7539787930 1.7872003019
-6.0027481365 0.3732116428 1.7970983106
-6.1575863481 -0.0075438489 1.8049220777
-6.3123697688 -0.3882867417 1.8106957637
-6.4670989648 -0.7690161178 1.8144435359
-6.6217745026 -1.1497310821 1.8161895678
-6.7763969500 -1.5304307624 1.8159580374
-6.9309668753 -1.9111143086 1.8137731277
-7.0854848470 -2.2917808930 1.8096590254
-7.2400219731 -2.6723163439 1.8036301336
-7.3947382214 -3.0526668602 1.7956959935
-7.5496128312 -3.4329936548 1.7858885815
-7.7046294825 -3.8131582363 1.7742334801
-7.8597028946 -4.1928503978 1.7607649064
-8.0148562713 -4.5729619619 1.7455101296
-8.1704137596 -4.9523318849 1.7284632375
-8.3260908247 -5.3319257513 1.7096757884
-8.4819339765 -5.7117931825 1.6891636664
-1.8798617247 9.3336171111 1.0283448017
-2.0370283353 8.9547022372 1.0903943658
-2.1946643254 8.5763349746 1.1496651185
-2.3519659819 8.1979445707 1.2063969020
-2.5093542740 7.8193931263 1.2605851622
-2.6664773511 7.4409460541 1.3122497606
-2.8235593284 7.0624808687 1.3614087695
-2.9805187924 6.6840570303 1.4080864426
-3.1372264610 6.3052216334 1.4523999944
-3.2931803306 5.9251636929 1.4945641327
-3.4488725205 5.5443051311 1.5344518212
-3.6045020636 5.1634435561 1.5719277918
-3.7600694806 4.7825802161 1.6070160573
-3.9155752973 4.4017163386 1.6397406475
-4.0710200441 4.0208531297 1.6701256083
-4.2264042558 3.6399917736 1.6981950005
-4.3817284715 3.2591334328 1.7239728996
-4.5369932342 2.8782792472 1.7474833949
-4.6921990899 2.4974303341 1.7687505884
-4.8473465889 2.1165877879 1.7877985947
-5.0024362833 1.7357526800 1.8046515394
-5.1574687287 1.3549260586 1.8193335590
-5.3124444829 0.9741089486 1.8318687999
-5.4673641058 0.5933023516 1.8422814176
-5.6222281591 0.2125072456 1.8505955760
-5.7770372062 -0.1682754145 1.8568354464
-5.9317918119 -0.5490446976 1.8610252075
-6.0864925420 -0.9297996955 1.8631890438
-6.2411399632 -1.3105395234 1.8633511455
-6.3957346427 -1.6912633196 1.8615357072
-6.5502771482 -2.0719702451 1.8577669280
-6.7047680475 -2.4526594839 1.8520690101
-6.8593054084 -2.8332711101 1.8444560506
-7.0140543854 -3.2137415828 1.8349378302
-7.1689942881 -3.5942319316 1.8235443999
-7.3241331480 -3.9746224827 1.8102994198
-7.4794359817 -4.3546387723 1.7952334851
-7.6348699508 -4.7351892257 1.7783704606
-7.7903504544 -5.1148430980 1.7597553027
-7.9459149005 -5.4947452408 1.7393992009
-8.1015863864 -5.8749301448 1.7173198145
-1.4990770103 9.1761068615 1.1138455104
-1.6567165419 8.7972795822 1.1742626634
-1.8140485523 8.4184941714 1.2320951001
-1.9711450889 8.0397829662 1.2873534536
-2.1283878437 7.6609749986 1.3400478227
-2.2854021213 7.2823176701 1.3902028707
-2.4423953367 6.9036803597 1.4378420151
-2.5991358170 6.5245511557 1.4831022574
-2.7550379754 6.1443211070 1.5261680058
-2.9106958079 5.7638174371 1.5668451224
-3.0663459850 5.3829138685 1.6051426667
-3.2219339596 5.0020083237 1.6410280510
-3.3774602557 4.6211020518 1.6745253142
-3.5329254025 4.2401962797 1.7056585114
-3.6883299335 3.8592922120 1.7344517136
-3.8436743864 3.4783910312 1.7609290073
-3.9989593028 3.0974938960 1.7851144929
-4.1541852276 2.7166019426 1.8070322846
-4.3093527094 2.3357162831 1.8267065091
-4.4644622995 1.9548380062 1.8441613050
-4.6195145523 1.5739681768 1.8594208222
-4.7745100240 1.1931078354 1.8725092207
-4.9294492735 0.8122579990 1.8834506701
-5.0843328613 0.4314196601 1.8922693489
-5.2391613497 0.0505937872 1.8989894433
-5.3939353021 -0.3302186753 1.9036351468
-5.5486552834 -0.7110168068 1.9062306595
-5.7033218591 -1.0917997110 1.9068001872
-5.8579355951 -1.4725665151 1.9053679404
-6.0124970583 -1.8533163700 1.9019581342
-6.1670068150 -2.2340484500 1.8965949871
-6.3214654320 -2.6147619526 1.8893027204
-6.4759697488 -2.9953931505 1.8800970683
-6.6306863618 -3.3758809202 1.8689900655
-6.7855945246 -3.7563870109 1.8560101998
-6.9407024840 -4.1367921305 1.8411822316
-7.0959756687 -4.5168227099 1.8245386758
-7.2513795850 -4.8973852616 1.8060954954
-7.4068320370 -5.2770529160 1.7859086212
-7.5623683825 -5.6569675068 1.7639801443
-7.7180117364 -6.0371633053 1.7403277013
-1.1185795200 9.0188397629 1.1938750950
-1.2759381737 8.6395342341 1.2528595443
-1.4330824288 8.2603833408 1.3092222653
-1.5900455549 7.8813816178 1.3629872270
-1.7471894636 7.5023348431 1.4141743908
-1.9041270551 7.1234774055 1.4628105935
-2.0605150367 6.7434103015 1.5091895656
-2.2166366749 6.3631838104 1.5531184147
-2.3724969094 5.9829173575 1.5945995150
-2.5281123589 5.6023751044 1.6336879668
-2.6837216814 5.2214281914 1.6703943627
-2.8392692618 4.8404803565 1.7046881939
-2.9947556274 4.4595328480 1.7365935249
-3.1501813102 4.0785868912 1.7661344371
-3.3055468460 3.6976436884 1.7933350274
-3.4608527749 3.3167044179 1.8182194077
-3.6160996402 2.9357702345 1.8408117040
-3.7712879887 2.5548422685 1.8611360551
-3.9264183705 2.1739216262 1.8792166128
-4.0814913377 1.7930093891 1.8950775402
-4.2365074456 1.4121066140 1.9087430111
-4.3914672510 1.0312143330 1.9202372091
-4.5463713132 0.6503335536 1.9295843273
-4.7012201928 0.2694652582 1.9368085668
-4.8560144518 -0.1113895956 1.9419341361
-5.0107546534 -0.4922300746 1.9449852510
-5.1654413616 -0.8730552705 1.9459861325
-5.3200751409 -1.2538642995 1.9449610075
-5.4746565564 -1.6346563021 1.9419341069
-5.6291861734 -2.0154304429 1.9369296655
-5.7836645569 -2.3961859103 1.9299719210
-5.9380922715 -2.7769219165 1.9210851138
-6.0925648742 -3.1575709651 1.9102866502
-6.2472503250 -3.5380744054 1.8975908022
-6.4021278578 -3.9185946523 1.8830244820
-6.5572059098 -4.2990128365 1.8666135447
-6.7124502865 -4.6790563682 1.8483924130
-6.8678250132 -5.0596295421 1.8283691635
-7.0232500804 -5.4393098199 1.8066106579
-7.1787589830 -5.8192356460 1.7831099193
-7.3343748491 -6.1994410656 1.7578845671
-0.7369715961 8.8601971785 1.2689144725
-0.8942447535 8.4805454258 1.3264075257
-1.0513242788 8.1011272077 1.3812588304
-1.2082351134 7.7219109110 1.4334993591
-1.3650381461 7.3417447963 1.4833417852
-1.5216124023 6.9620823080 1.5305737177
-1.6779603679 6.5819817557 1.5753729938
-1.8340412912 6.2017209746 1.6177187696
-1.9898606117 5.8214196151 1.6576143858
-2.1454348130 5.4408403849 1.6951132912
-2.3010044706 5.0598518288 1.7302276106
-2.4565128620 4.6788634203 1.7629289987
-2.6119605169 4.2978764057 1.7932415467
-2.7673479694 3.9168920074 1.8211893621
-2.9226757573 3.5359114235 1.8467965682
-3.0779444221 3.1549358278 1.8700873027
-3.2331545088 2.7739663689 1.8910857169
-3.3883065650 2.3930041708 1.9098159751
-3.5434011413 2.0120503319 1.9263022538
-3.6984387908 1.6311059254 1.9405687407
-3.8534200687 1.2501719993 1.9526396334
-4.0083455319 0.8692495755 1.9625391394
-4.1632157393 0.4883396509 1.9702914746
-4.3180312510 0.1074431966 1.9759208631
-4.4727926281 -0.2734388417 1.9794515356
-4.6275004330 -0.6543055436 1.9809077294
-4.7821552281 -1.0351560138 1.9803136867
-4.9367575766 -1.4159893823 1.9776936549
-5.0913080420 -1.7968048038 1.9730718850
-5.2458071873 -2.1776014577 1.9664726312
-5.4002555756 -2.5583785476 1.9579201503
-5.5546537692 -2.9391353015 1.9474387006
-5.7090959874 -3.3198004878 1.9350473940
-5.8637514762 -3.7003179835 1.9207627181
-6.0185994863 -4.0808508134 1.9046100002
-6.1736486201 -4.4612805724 1.8866161831
-6.3288650258 -4.8413357329 1.8668175816
-6.4842114211 -5.2219180702 1.8452144145
-6.6396097655 -5.6016098271 1.8218844125
-6.7950918772 -5.9815456921 1.7968115770
-6.9506808932 -6.3617594781 1.7700135147
-0.3545516718 8.6988610842 1.3391466727
-0.5117870287 8.3191788056 1.3950692151
-0.6688295998 7.9397302196 1.4483505584
-0.8257042277 7.5604836974 1.4990216615
-0.9824679858 7.1802859444 1.5472865492
-1.1390045277 6.8005925128 1.5929432460
-1.2953133106 6.4204599141 1.6361620895
-1.4513544641 6.0401663256 1.6769240302
-1.6071339077 5.6598315867 1.7152333941
-1.7626680237 5.2792170171 1.7511419462
-1.9181992348 4.8981885540 1.7846633395
-2.0736696692 4.5171613214 1.8157714746
-2.2290798587 4.1361365621 1.8444904698
-2.3844303389 3.7551154941 1.8708444593
-2.5397216490 3.3740993104 1.8948575925
-2.6949543312 2.9930891783 1.9165540331
-2.8501289312 2.6120862395 1.9359579581
-3.0052459972 2.2310916098 1.9530935573
-3.1603060800 1.8501063789 1.9679850317
-3.3153097322 1.4691316104 1.9806565934
-3.4702575087 1.0881683416 1.9911324644
-3.6251499661 0.7072175836 1.9994368753
-3.7799876619 0.3262803214 2.0055940652
-3.9347711552 -0.0546424867 2.0096282805
-4.0895010058 -0.4355499077 2.0115637740
-4.2441777740 -0.8164410352 2.0114248040
-4.3988020208 -1.1973149882 2.0092356339
-4.5533743073 -1.5781709115 2.0050205313
-4.7078951942 -1.9590079750 1.9988037665
-4.8623652425 -2.3398253740 1.9906096130
-5.0167850120 -2.7206223282 1.9804623458
-5.1711550628 -3.1013980822 1.9683862411
-5.3255682215 -3.4820777063 1.9544021463
-5.4801949427 -3.8626076568 1.9385287395
-5.6350145313 -4.2431515135 1.9207897560
-5.7900357295 -4.6235913753 1.9012132173
-5.9452249945 -5.0036568577 1.8798373116
-6.1005439087 -5.3842469208 1.8566544415
-6.2559161849 -5.7639490294 1.8317531276
-6.4113721499 -6.1438937559 1.8051084099
-6.5669349450 -6.5241146750 1.7767378872
0.0279597585 8.5374278637 1.4040092241
-0.1292383200 8.1577162584 1.4583606111
-0.2862444750 7.7782384488 1.5100713851
-0.4430834460 7.3989627966 1.5591724860
-0.5998086584 7.0187348019 1.6058591441
-0.7563082009 6.6390116929 1.6499399840
-0.9125786574 6.2588484744 1.6915777187
-1.0685810105 5.8785235873 1.7307551281
-1.2243216382 5.4981570222 1.7674775420
-1.3798168565 5.1175087784 1.8017950107
-1.5353108640 4.7364421756 1.8337227093
-1.6907445969 4.3553778970 1.8632368640
-1.8461185882 3.9743171810 1.8903616203
-2.0014333745 3.5932612399 1.9151211388
-2.1566894954 3.2122112597 1.9375395957
-2.3118874939 2.8311684004 1.9576411805
-2.4670279152 2.4501337950 1.9754500962
-2.6221113076 2.0691085503 1.9909905574
-2.7771382210 1.6880937457 2.0042867904
-2.9321092078 1.3070904339 2.0153630312
-3.0870248215 0.9260996404 2.0242435257
-3.2418856171 0.5451223642 2.0309525279
-3.3966921512 0.1641595768 2.0355142996
-3.5514449804 -0.2167877766 2.0379531092
-3.7061446631 -0.5977187777 2.0382932312
-3.8607917570 -0.9786325348 2.0365589449
-4.0153868206 -1.3595281823 2.0327745340
-4.1699304122 -1.7404048808 2.0269642859
-4.3244230899 -2.1212618168 2.0191524901
-4.4788654111 -2.5020982020 2.0093634386
-4.6332579330 -2.8829132734 1.9976214241
-4.7876012115 -3.2637062930 1.9839507403
-4.9419866272 -3.6443986719 1.9683739967
-5.0965857664 -4.0249394952 1.9509120340
-5.2513780245 -4.4054928429 1.9315869907
-5.4063722601 -4.7859413567 1.9104279561
-5.5615352051 -5.1660158747 1.8874749699
-5.7168274780 -5.5466122502 1.8627126738
-5.8721743315 -5.9263236024 1.8362402803
-6.0276047841 -6.3062760346 1.8080239435
-6.1831419769 -6.6865028779 1.7780812591
0.4105580115 8.3759011307 1.4635229098
0.2533966690 7.9961614188 1.5163025424
0.0964263728 7.6166555499 1.5664421834
-0.0603775094 7.2373518826 1.6139727499
-0.2170649260 6.8570950652 1.6590805442
-0.3735282035 6.4773435648 1.7015849594
-0.5297612110 6.0971511751 1.7416409711
-0.6857257538 5.7167965204 1.7792332210
-0.8414286477 5.3363997046 1.8143680590
-0.9968861771 4.9557194761 1.8470937934
-1.1523442446 4.5746165269 1.8774271121
-1.3077425508 4.1935170051 1.9053466433
-1.4630816290 3.8124221426 1.9308765594
-1.6183620160 3.4313331447 1.9540410481
-1.7735842515 3.0502511894 1.9748643120
-1.9287488780 2.6691774277 1.9933705667
-2.0838564404 2.2881129830 2.0095840406
-2.2389074857 1.9070589510 2.0235289738
-2.3939025631 1.5260164001 2.0352296169
-2.5488422230 1.1449863707 2.0447102302
-2.7037270176 0.7639698752 2.0519950831
-2.8585574999 0.3829678993 2.0571084525
-3.0133342242 0.0019814001 2.0600746225
-3.1680577449 -0.3789886920 2.0609178836
-3.3227286173 -0.7599414741 2.0596625312
-3.4773473966 -1.1408760705 2.0563328652
-3.6319146381 -1.5217916319 2.0509531893
-3.7864308969 -1.9026873359 2.0435478099
-3.9408967273 -2.2835623862 2.0341410353
-4.0953126834 -2.6644160123 2.0227571753
-4.2496793184 -3.0452474692 2.0094205400
-4.4039971841 -3.4260560371 1.9941554395
-4.5583561605 -3.8067595092 1.9769862705
-4.7129288903 -4.1873096462 1.9579360032
-4.8676948962 -4.5678709729 1.9370251776
-5.0226631291 -4.9483267125 1.9142839387
-5.1778005630 -5.3284090027 1.8897541527
-5.3330670214 -5.7090103045 1.8634127669
-5.4883890862 -6.0887298141 1.8353695724
-5.6437946490 -6.4686888204 1.8055819263
-5.7993068458 -6.8489204055 1.7740674265
0.7932383932 8.2142845468 1.5177087292
0.6361132255 7.8345179669 1.5689160553
0.4791782135 7.4549852208 1.6174840459
0.3224088357 7.0756546697 1.6634435908
0.1657584456 6.6953704679 1.7069719460
0.0093306820 6.3155918795 1.7478994238
-0.1468657718 5.9353717856 1.7863731625
-0.3027935124 5.5549889130 1.8223796942
-0.4584597719 5.1745634409 1.8559264040
-0.6138808386 4.7938529363 1.8870598338
-0.7693042469 4.4127154567 1.9157981726
-0.9246684165 4.0315825143 1.9421225227
-1.0799738804 3.6504553334 1.9660570840
-1.2352211751 3.2693351108 1.9876260712
-1.3904108397 2.8882230151 2.0068537132
-1.5455434154 2.5071201871 2.0237642515
-1.7006194460 2.1260277389 2.0383819402
-1.8556394771 1.7449467544 2.0507310441
-2.0106040557 1.3638782891 2.0608358382
-2.1655137303 0.9828233700 2.0687206067
-2.3203690510 0.6017829957 2.0744096420
-2.4751705680 0.2207581366 2.0779272439
-2.6299188326 -0.1602502651 2.0792977184
-2.7846143965 -0.5412412953 2.0785453770
-2.9392578116 -0.9222140676 2.0756945361
-3.0938496296 -1.3031677231 2.0707695156
-3.2483904021 -1.6841014300 2.0637946384
-3.4028806803 -2.0650143838 2.0547942295
-3.5573210147 -2.4459058064 2.0437926153
-3.7117119549 -2.8267749458 2.0308141228
-3.8660540498 -3.2076210761 2.0158830788
-4.0203478468 -3.5884434966 1.9990238093
-4.1746816712 -3.9691564251 1.9802625192
-4.3292291479 -4.3497143426 1.9596242732
-4.4839699638 -4.7302821641 1.9371280129
-4.6389131384 -5.1107437310 1.9128049246
-4.7940258558 -5.4908325557 1.8866986743
-4.9492673108 -5.8714374281 1.8587785933
-5.1045652079 -6.2511640334 1.8291649211
-5.2599464894 -6.6311285085 1.7978063207
-5.4154342822 -7.0113636823 1.7647203967
1.1759962100 8.0525818131 1.5665878996
1.0189066392 7.6727896195 1.6162224156
0.8620063213 7.2932311929 1.6632182858
0.7052708492 6.9138749038 1.7076063688
0.5486567000 6.5335647715 1.7495547698
0.3922636846 6.1537604128 1.7889048541
0.2361028744 5.7735140967 1.8257958344
0.0802109128 5.3931045712 1.8602161604
-0.0754198258 5.0126520519 1.8921742651
-0.2308056695 4.6319129954 1.9217149019
-0.3861957124 4.2507428188 1.9488577466
-0.5415270468 3.8695782940 1.9735864452
-0.6968002053 3.4884206361 1.9959252249
-0.8520157229 3.1072710319 2.0158983269
-1.0071741374 2.7261306394 2.0335300063
-1.1622759886 2.3450005876 2.0488445309
-1.3173218182 1.9638819763 2.0618661796
-1.4723121695 1.5827758760 2.0726192420
-1.6272475871 1.2016833284 2.0811280171
-1.7821286170 0.8206053455 2.0874168125
-1.9369558059 0.4395429110 2.0915099435
-2.0917297011 0.0584969790 2.0934317318
-2.2464508504 -0.3225315247 2.0932065051
-2.4011198019 -0.7035417029 2.0908585957
-2.5557371034 -1.0845326869 2.0864123399
-2.7103033027 -1.4655036358 2.0798920771
-2.8648189474 -1.8464537362 2.0713221488
-3.0192845839 -2.2273822023 2.0607268983
-3.1737007583 -2.6082882754 2.0481306691
-3.3280680155 -2.9891712226 2.0335578047
-3.4823868993 -3.3700303380 2.0170326479
-3.6366579523 -3.7508649406 1.9985795397
-3.7909678920 -4.1315857174 1.9782265122
-3.9454912526 -4.5121499121 1.9560006851
-4.1002079212 -4.8927227749 1.9319194050
-4.2551269636 -5.2731888013 1.9060148841
-4.4102157424 -5.6532829513 1.8783325576
-4.5654329871 -6.0338900718 1.8488342315
-4.7207073227 -6.4136227370 1.8176504474
-4.8760649164 -6.7935916046 1.7847212907
-5.0315288810 -7.1738292453 1.7500643770
1.5588267800 7.8907966603 1.6101818572
1.4017722137 7.5109801201 1.6582431094
1.2449059863 7.1313972221 1.7036664381
1.0882038089 6.7520163523 1.7464826663
0.9316251010 6.3716817560 1.7868506600
0.7752660563 5.9918529557 1.8246229520
0.6191399670 5.6115819110 1.8599307552
0.4632827497 5.2311473088 1.8927644599
0.3076864081 4.8506693622 1.9231335580
0.1523345380 4.4699034893 1.9510809963
-0.0030234421 4.0887024628 1.9766279203
-0.1583232504 3.7075082047 1.9997605848
-0.3135654177 3.3263219197 2.0205032436
-0.4687504778 2.9451447837 2.0388801651
-0.6238789659 2.5639779422 2.0549156304
-0.7789514199 2.1828225112 2.0686339325
-0.9339683785 1.8016795770 2.0800593753
-1.0889303824 1.4205501953 2.0892162727
-1.2438379732 1.0394353926 2.0961289474
-1.3986916933 0.6583361654 2.1008217300
-1.5534920856 0.2772534804 2.1033189579
-1.7082396941 -0.1038117250 2.1036449745
-1.8629350623 -0.4848585428 2.1018241282
-2.0175787342 -0.8658860939 2.0978807718
-2.1721712530 -1.2468935281 2.0918392609
-2.3267131620 -1.6278800233 2.0837239536
-2.4812050038 -2.0088447859 2.0735592096
-2.6356473202 -2.3897870495 2.0613693893
-2.7900406520 -2.7707060751 2.0471788526
-2.9443855386 -3.1516011505 2.0310119591
-3.0986825189 -3.5324715900 2.0128930666
-3.2529321295 -3.9133167335 1.9928465304
-3.4072194283 -4.2940437833 1.9709022257
-3.5617197872 -4.6746127844 1.9470892848
-3.7164133294 -5.0551892687 1.9214234649
-3.8713091448 -5.4356584207 1.8939379868
-4.0263747442 -5.8157567176 1.8646800228
-4.1815685518 -6.1963647991 1.8336039542
-4.3368199153 -6.5761025171 1.8008504651
-4.4921543973 -6.9560747313 1.7663511910
-4.6475950921 -7.3363137504 1.7301237629
1.9417254450 7.7289328397 1.6485122577
1.7847052779 7.3490932300 1.6949998433
1.6278725263 6.9694870790 1.7388502593
1.4712030222 6.5900827946 1.7800942886
1.3146589448 6.2097252098 1.8188814840
1.1583330835 5.8298733051 1.8550756433
1.0022407836 5.4495790333 1.8887999176
0.8464172680 5.0691209381 1.9200466578
0.6908541921 4.6886191912 1.9488264250
0.5355350399 4.3078282445 1.9751803426
0.3802078150 3.9265982236 1.9991310071
0.2249382207 3.5453760877 2.0206673425
0.0697257281 3.1641630302 2.0398136300
-0.0854301939 2.7829602138 2.0565941641
-0.2405300780 2.4017687708 2.0710332517
-0.3955744588 2.0205898029 2.0831552110
-0.5505638721 1.6394243810 2.0929843703
-0.7054988548 1.2582735456 2.1005450673
-0.8603799447 0.8771383065 2.1058616479
-1.0152076806 0.4960196430 2.1089584651
-1.1699826012 0.1149185044 2.1098598780
-1.3247052458 -0.2661641902 2.1085902510
-1.4793761533 -0.6472275515 2.1051739527
-1.6339958628 -1.0282707193 2.0996353555
-1.7885649130 -1.4092928630 2.0919988336
-1.9430838416 -1.7902931806 2.0822887633
-2.0975531861 -2.1712708984 2.0705295213
-2.2519734827 -2.5522252708 2.0567454846
-2.4063452666 -2.9331555793 2.0409610290
-2.5606690717 -3.3140611329 2.0232005289
-2.7149454307 -3.6949412670 2.0034883564
-2.8691748745 -4.0757953427 1.9818488803
-3.0234407493 -4.4565271259 1.9583138319
-3.1779191951 -4.8370994987 1.9329143110
-3.3325906071 -5.2176782214 1.9056644933
-3.4874640775 -5.5981492008 1.8765985898
-3.6425072360 -5.9782504994 1.8457654749
-3.7976783574 -6.3588582931 1.8131122173
-3.9529073203 -6.7386000867 1.7787894682
-4.1082192485 -7.1185746343 1.7427205542
-4.2636372126 -7.4988139787 1.7049231257
2.3246875812 7.5669941134 1.6816009752
2.1677011977 7.1871327183 1.7265145431
2.0109012977 6.8075045394 1.7687917256
1.8542638375 6.4280780129 1.8084632611
1.6977535711 6.0476989208 1.8456693304
1.5414600993 5.6678252535 1.8802850755
1.3854006508 5.2875092605 1.9124255367
1.2296097886 4.9070292601 1.9420850425
1.0740788438 4.5265053428 1.9692752310
0.9187911520 4.1456910677 1.9940353896
0.7634933736 3.7644339122 2.0163895432
0.6082526816 3.3831857563 2.0363293429
0.4530685496 3.0019477801 2.0538790964
0.2979404500 2.6207211324 2.0690631242
0.1428678533 2.2395069307 2.0819057586
-0.0121497716 1.8583062610 2.0924313423
-0.1671129564 1.4771201780 2.1006642278
-0.3220222340 1.0959497052 2.1066287760
-0.4768781379 0.7147958345 2.1103493553
-0.6316812022 0.3336595277 2.1118503405
-0.7864319607 -0.0474582852 2.1111561117
-0.9411309478 -0.4285567041 2.1082910538
-1.0957786974 -0.8096348593 2.1032795551
-1.2503757431 -1.1906919109 2.0961460060
-1.4049226180 -1.5717270484 2.0869147994
-1.5594198545 -1.9527394908 2.0756103285
-1.7138679838 -2.3337284855 2.0622569866
-1.8682675364 -2.7146933079 2.0468791661
-2.0226190414 -3.0956332613 2.0295012580
-2.1769230267 -3.4765476764 2.0101476507
-2.3311800184 -3.8574359100 1.9888427296
-2.4853905413 -4.2382973454 1.9656108762
-2.6396361790 -4.6190323610 1.9404856876
-2.7940937725 -4.9996067096 1.9135001842
-2.9487440230 -5.3801863269 1.8846669697
-3.1035960049 -5.7606578743 1.8540212260
-3.2586174388 -6.1407610644 1.8216134924
-3.4137666008 -6.5213673618 1.7873836461
-3.5689737151 -6.9011122856 1.7514921188
-3.7242636273 -7.2810881875 1.7138540783
-3.8796593799 -7.6613268409 1.6744871994
2.7077086105 7.4049842452 1.7094701009
2.5507553864 7.0251023530 1.7528093523
2.3939877068 6.6454533750 1.7935130312
2.2373816549 6.2660057825 1.8316118279
2.0809043745 5.8856066665 1.8672365071
1.9246424935 5.5057125805 1.9002736155
1.7686149552 5.1253763730 1.9308300471
1.6128556967 4.7448760548 1.9589021216
1.4573557479 4.3643315963 1.9845025602
1.3020982605 3.9834957369 2.0076688046
1.1468286229 3.6022133064 2.0284262839
0.9916155259 3.2209409856 2.0467694287
0.8364584468 2.8396799400 2.0627225730
0.6813568616 2.4584313030 2.0763100627
0.5263102446 2.0771961762 2.0875562551
0.3713180694 1.6959756287 2.0964855172
0.2163798085 1.3147706974 2.1031222245
0.0614949338 0.9335823879 2.1074907608
-0.0933370832 0.5524116737 2.1096155164
-0.2481167713 0.1712594966 2.1095208871
-0.4028446593 -0.2098732327 2.1072312736
-0.5575212758 -0.5909856342 2.1027710800
-0.7121471490 -0.9720768591 2.0961647134
-0.8667228068 -1.3531460884 2.0874365825
-1.0212487760 -1.7341925329 2.0766110970
-1.1757255830 -2.1152154331 2.0637126665
-1.3301537528 -2.4962140581 2.0487657000
-1.4845338094 -2.8771877055 2.0317946046
-1.6388662755 -3.2581357008 2.0128237853
-1.7931516722 -3.6390573969 1.9918776437
-1.9473905192 -4.0199521731 1.9689805777
-2.1015833345 -4.4008194349 1.9441569805
-2.2558098894 -4.7815562238 1.9174423226
-2.4102476605 -5.1621311933 1.8888714940
-2.5648776889 -5.5427104031 1.8584555397
-2.7197090114 -5.9231812998 1.8262305909
-2.8747094124 -6.3032853083 1.7922488134
-3.0298373165 -6.6838889427 1.7564430236
-3.1850231135 -7.0636360845 1.7189832335
-3.3402915266 -7.4436123973 1.6797766141
-3.4956655653 -7.8238493818 1.6388408681
3.0907840111 7.2429069911 1.7321419395
2.9338633162 6.8630058914 1.7739066284
2.7771272208 6.4833373441 1.8130365851
2.6205519374 6.1038698623 1.8495624478
2.4641068144 5.7234522045 1.8836055365
2.3078757242 5.3435390423 1.9150638449
2.1518791543 4.9631841246 1.9440360976
1.9961504511 4.5826650726 1.9705206169
1.8406803666 4.2021016974 1.9945312112
1.6854518327 3.8212459919 2.0161034688
1.5302090372 3.4399401414 2.0352641972
1.3750222365 3.0586455037 2.0520106546
1.2198909123 2.6773632289 2.0663672009
1.0648145448 2.2960944336 2.0783582069
0.9097926132 1.9148402018 2.0880080542
0.7548245958 1.5336015847 2.0953411331
0.5999099704 1.1523796007 2.1003818423
0.4450482139 0.7711752359 2.1031545873
0.2902388037 0.3899894438 2.1036837796
0.1354812166 0.0088231463 2.1019938355
-0.0192250705 -0.3723227667 2.0981091749
-0.1738805798 -0.7534474366 2.0920542209
-0.3284858336 -1.1345500358 2.0838533985
-0.4830413532 -1.5156297674 2.0735311333
-0.6375476591 -1.8966858641 2.0611118515
-0.7920052710 -2.2777175888 2.0466199781
-0.9464147072 -2.6587242332 2.0300799365
-1.1007764849 -3.0397051175 2.0115161480
-1.2550911197 -3.4206595900 1.9909530304
-1.4093591261 -3.8015870263 1.9684149979
-1.5635810165 -4.1824868286 1.9439264594
-1.7177573017 -4.5633584258 1.9175118192
-1.8719658932 -4.9440955729 1.8892084257
-2.0263848385 -5.3246698525 1.8590529864
-2.1809955529 -5.7052473965 1.8270550016
-2.3358070159 -6.0857164664 1.7932515302
-2.4907870504 -6.4658202587 1.7576963236
-2.6458943705 -6.8464201072 1.7203152766
-2.8010593600 -7.2261685896 1.6812877707
-2.9563067688 -7.6061444067 1.6405131510
-3.1116595686 -7.9863787841 1.5980091521
3.4739093280 7.0807660898 1.7496390066
3.3170205282 6.7008470706 1.7898289397
3.1603153776 6.3211601822 1.8273850070
3.0037702211 5.9416739861 1.8623377903
2.8473564265 5.5612392640 1.8947991516
2.6911553273 5.1813083637 1.9246785552
2.5351887869 4.8009362339 1.9520665477
2.3794895950 4.4204000245 1.9769634598
2.2240482495 4.0398193487 1.9993841907
2.0688474276 3.6589455259 2.0193624708
1.9136301856 3.2776181011 2.0369264577
1.7584683946 2.8963029838 2.0520762808
1.6033615409 2.5150013064 2.0648363251
1.4483091098 2.1337141680 2.0752309861
1.2933105857 1.7524426338 2.0832846689
1.1383654525 1.3711877358 2.0890217867
0.9834731936 0.9899504727 2.0924667601
0.8286332921 0.6087318102 2.0936440159
0.6738452310 0.2275326810 2.0925779858
0.5191084934 -0.1536460144 2.0892931057
0.3644225630 -0.5348034077 2.0838138143
0.2097869238 -0.9159386624 2.0761645527
0.0552010603 -1.2970509733 2.0663697624
-0.0993355419 -1.6781395657 2.0544538856
-0.2538233967 -2.0592036958 2.0404413636
-0.4082630162 -2.4402426489 2.0243566360
-0.5626549119 -2.8212557402 2.0062241401
-0.7169995940 -3.2022423130 1.9860683098
-0.8712975705 -3.5832017390 1.9639135752
-1.0255493487 -3.9641334171 1.9397843614
-1.1797554336 -4.3450367732 1.9137050883
-1.3339163287 -4.7259112590 1.8857001697
-1.4881080381 -5.1066473964 1.8558088337
-1.6425091196 -5.4872197204 1.8240695509
-1.7971013945 -5.8677943861 1.7904902941
-1.9518937672 -6.2482604973 1.7551090265
-2.1068540744 -6.6283630789 1.7179810424
-2.2619414564 -7.0089580642 1.6790254626
-2.4170861253 -7.3887070452 1.6384308168
-2.5723130015 -7.7686814982 1.5960888041
-2.7276450144 -8.1489123708 1.5520171947
3.8570801832 6.9185652546 1.7619840236
3.7002226418 6.5386295991 1.8005990604
3.5435477961 6.1589255930 1.8365811218
3.3870321252 5.7794218530 1.8699607303
3.2306488321 5.3989715364 1.9008402902
3.0744769272 5.0190242288 1.9291407431
2.9185394823 4.6386363755 1.9549444597
2.7628687653 4.2580845741 1.9782537844
2.6074550434 3.8774882015 1.9990847071
2.4522807041 3.4965979767 2.0174690998
2.2970877415 3.1152508103 2.0334364389
2.1419496891 2.7339170347 2.0469897647
1.9868660389 2.3525977640 2.0581534867
1.8318362816 1.9712940781 2.0669520240
1.6768599074 1.5900070225 2.0734098048
1.5219364065 1.2087376088 2.0775512642
1.3670652682 0.8274868147 2.0794008440
1.2122459823 0.4462555847 2.0789829915
1.0574780383 0.0650448297 2.0763221579
0.9027609262 -0.3161445720 2.0714427977
0.7480941363 -0.6973117749 2.0643693674
0.5934771598 -1.0784559651 2.0551263247
0.4389094883 -1.4595763605 2.0437381278
0.2843906146 -1.8406722100 2.0302292337
0.1299200323 -2.2217427929 2.0146240982
-0.0245027635 -2.6027874186 1.9969471743
-0.1788782768 -2.9838054257 1.9772229120
-0.3332070099 -3.3647961814 1.9554757572
-0.4874894638 -3.7457590812 1.9317301508
-0.6417261376 -4.1266935479 1.9060105286
-0.7959175289 -4.5075990310 1.8783413197
-0.9500641334 -4.8884750059 1.8487469468
-1.1042400026 -5.2692088142 1.8172685171
-1.2586241451 -5.6497779647 1.7839462079
-1.4131988200 -6.0303485870 1.7487864826
-1.5679728395 -6.4108106536 1.7118281852
-1.7229140307 -6.7909110711 1.6731281094
-1.8779820907 -7.1715001623 1.6325987565
-2.0331069025 -7.5512488365 1.5904375732
-2.1883136941 -7.9312210959 1.5465288007
-2.3436253481 -8.3114476076 1.5008902483
4.2402922842 6.7563081632 1.7691999125
4.0834653654 6.3763571474 1.8062399648
3.9268201857 5.9966372401 1.8406479549
3.7703333610 5.6171171195 1.8724543423
3.6139797468 5.2366526670 1.9017520892
3.4578362454 4.8566902724 1.9284736027
3.3019269703 4.4762881712 1.9526930936
3.1462837022 4.0957223291 1.9744149205
2.9908965013 3.7151118476 1.9936561637
2.8357474311 3.3342069184 2.0104468377
2.6805774913 2.9528418257 2.0248177056
2.5254619259 2.5714911939 2.0367747531
2.3704002325 2.1901561176 2.0463424136
2.2153919083 1.8088376564 2.0535451290
2.0604364501 1.4275368348 2.0584073495
1.9055333541 1.0462546430 2.0609535317
1.7506821169 0.6649920372 2.0612081377
1.5958822349 0.2837499389 2.0591956342
1.4411332048 -0.0974707631 2.0549404908
1.2864345238 -0.4786692141 2.0484671800
1.1317856896 -0.8598445916 2.0398001750
0.9771862008 -1.2409961055 2.0289639495
0.8226355566 -1.6221229974 2.0159829767
0.6681332573 -2.0032245402 2.0008817278
0.5136788043 -2.3843000374 1.9836846719
0.3592717004 -2.7653488227 1.9644162747
0.2049114495 -3.1463702587 1.9431009977
0.0505975571 -3.5273637369 1.9197632977
-0.1036704698 -3.9083286771 1.8944276258
-0.2578931225 -4.2892645263 1.8671184267
-0.4120708907 -4.6701707580 1.8378601384
-0.5662042621 -5.0510468716 1.8066771909
-0.7203652913 -5.4317770819 1.7736125675
-0.8747333815 -5.8123418903 1.7387080942
-1.0292912595 -6.1929073526 1.7019687460
-1.1840476293 -6.5733643357 1.6634342225
-1.3389702869 -6.9534616783 1.6231627717
-1.4940196104 -7.3340438918 1.5810604369
-1.6491250046 -7.7137914914 1.5373333422
-1.8043121353 -8.0937607670 1.4918584668
-1.9596038340 -8.4739821043 1.4446536618
4.6235414346 6.5939984505 1.7713097900
4.4667445043 6.2140333402 1.8067748214
4.3101283550 5.8342987382 1.8396087251
4.1536697412 5.4547633907 1.8698418934
3.9973449909 5.0742862464 1.8975578769
3.8412291096 4.6943100720 1.9227005193
3.6853470890 4.3138951827 1.9453358987
3.5297302574 3.9333168329 1.9654703859
3.3743684907 3.5526938113 1.9831221497
3.2192434950 3.1717758544 1.9983193508
3.0640953427 2.7903946293 2.0110940050
2.9090010348 2.4090289200 2.0214550732
2.7539600758 2.0276798005 2.0294270118
2.5989719693 1.6463483086 2.0350342850
2.4440362192 1.2650354474 2.0383013640
2.2891523289 0.8837421845 2.0392527258
2.1343198022 0.5024694531 2.0379128519
1.9795381427 0.1212181517 2.0343062277
1.8248068550 -0.2600108550 2.0284573403
1.6701254436 -0.6412167355 2.0203906789
1.5154934142 -1.0223986916 2.0101307325
1.3609102731 -1.4035559578 1.9977019899
1.2063755275 -1.7846877999 1.9831289379
1.0518886856 -2.1657935155 1.9664360614
0.8974492569 -2.5468724327 1.9476478415
0.7430567521 -2.9279239098 1.9267887554
0.5887106835 -3.3089473342 1.9038832752
0.4344105646 -3.6899421222 1.8789558676
0.2801559105 -4.0709077179 1.8520309926
0.1259462381 -4.4518435927 1.8231331031
-0.0282189341 -4.8327492448 1.7922866445
-0.1823400860 -5.2136241975 1.7595160537
-0.3364872323 -5.5943495933 1.7248661841
-0.4908401169 -5.9749089411 1.6883804510
-0.6453819637 -6.3554681773 1.6500623631
-0.8001213531 -6.7359190859 1.6099524509
-0.9550260296 -7.1160124856 1.5681103697
-1.1100571711 -7.4965868865 1.5244358725
-1.2651435623 -7.8763326813 1.4791435143
-1.4203114310 -8.2562982236 1.4321032131
-1.5755835528 -8.6365136152 1.3833328660
5.0068235411 6.4316396997 1.7683369606
4.8500559696 6.0516617481 1.8022269858
4.6934682203 5.6719136451 1.8334868367
4.5370371883 5.2923642124 1.8621468363
4.3807404956 4.9118758032 1.8882811661
4.2246514610 4.5318871403 1.9118450607
4.0687957932 4.1514609034 1.9328965055
3.9132044016 3.7708715580 1.9514438787
3.7578670010 3.3902375424 1.9675064324
3.6027649078 3.0093082096 1.9811104812
3.4476373315 2.6279126207 1.9922892574
3.2925630774 2.2465335856 2.0010547226
3.1375416568 1.8651721562 2.0074313553
2.9825725809 1.4838293479 2.0114436408
2.8276553608 1.1025061409 2.0131160710
2.6727895075 0.7212034793 2.0124731419
2.5179745326 0.3399222727 2.0095393536
2.3632099475 -0.0413366045 2.0043392090
2.2084952648 -0.4225723119 1.9968972118
2.0538299970 -0.8037840428 1.9872378668
1.8992136578 -1.1849710237 1.9753856778
1.7446457618 -1.5661325138 1.9613651475
1.5901258244 -1.9472678042 1.9452007758
1.4356533621 -2.3283762175 1.9269170595
1.2812278929 -2.7094571071 1.9065384910
1.1268489357 -3.0905098561 1.8840895579
0.9725160110 -3.4715338771 1.8595947419
0.8182286410 -3.8525286114 1.8330785182
0.6639863490 -4.2334935280 1.8045653550
0.5097886602 -4.6144281229 1.7740797123
0.3556351015 -4.9953319188 1.7416460418
0.2015252014 -5.3762044635 1.7072887862
0.0473910252 -5.7569238816 1.6710546606
-0.1069474597 -6.1374767021 1.6329886099
-0.2614740026 -6.5180286966 1.5930927001
-0.4161970456 -6.8984725887 1.5514082663
-0.5710842632 -7.2785612215 1.5079963245
-0.7260977453 -7.6591269235 1.4627505097
-0.8811655233 -8.0388702220 1.4158935541
-1.0363145038 -8.4188313218 1.3672885229
-1.1915674018 -8.7990400398 1.3169533613
5.3901346222 6.2692354348 1.7603049087
5.2333957857 5.8892458794 1.7926199923
5.0768358130 5.5094854547 1.8223058730
4.9204317411 5.1299230639 1.8493928005
4.7641623122 4.7494247963 1.8739456450
4.6080993633 4.3694249174 1.8959309693
4.4522691617 3.9889887514 1.9153987176
4.2967022324 3.6083898982 1.9323592667
4.1413881513 3.2277464091 1.9468329475
3.9863078131 2.8468073240 1.9588442367
3.8311996287 2.4653991114 1.9684275464
3.6761442530 2.0840084716 1.9755978595
3.5211412048 1.7026364332 1.9803796756
3.3661900033 1.3212839884 1.9827975005
3.2112901670 0.9399520935 1.9828758451
3.0564412156 0.5586416683 1.9806392239
2.9016426683 0.1773535978 1.9761121547
2.7468940450 -0.2039112681 1.9693191563
2.5921948664 -0.5851521144 1.9602847484
2.4375446535 -0.9663681596 1.9490334502
2.2829429286 -1.3475586555 1.9355897794
2.1283892145 -1.7287228869 1.9199782512
1.9738830353 -2.1098601705 1.9022233774
1.8194239164 -2.4909698543 1.8823496660
1.6650113838 -2.8720513172 1.8603816194
1.5106449653 -3.2531039678 1.8363437346
1.3563241900 -3.6341272441 1.8102605018
1.2020485885 -4.0151206127 1.7821564037
1.0478176928 -4.3960835675 1.7520559154
0.8936310365 -4.7770156297 1.7199835029
0.7394881551 -5.1579163461 1.6859636235
0.5853885853 -5.5387852894 1.6500207245
0.4312665118 -5.9194976211 1.6122033725
0.2769416626 -6.3000428999 1.5725579802
0.1224297359 -6.6805866889 1.5310851967
-0.0322775593 -7.0610226718 1.4878271353
-0.1871478093 -7.4411057578 1.4428461243
-0.3424097166 -7.8207302864 1.3962123018
-0.4971936515 -8.2014020730 1.3476089888
-0.6523240922 -8.5813580620 1.2974399384
-0.8075580947 -8.9615594214 1.2455407047
5.7734708149 6.1067891128 1.7472372912
5.6167600977 5.7267891737 1.7779775470
5.4602272871 5.3470175891 1.8060895868
5.3038495634 4.9674433505 1.8316035845
5.1476066178 4.5869366082 1.8545751690
4.9915690074 4.2069267646 1.8749821528
4.8357634038 3.8264820630 1.8928665014
4.6802199801 3.4458751627 1.9082405796
4.5249281958 3.0652236916 1.9211257890
4.3698684930 2.6842764467 1.9315447813
4.2147785463 2.3028573184 1.9395331088
4.0597409047 1.9214567607 1.9451087923
3.9047550952 1.5400757786 1.9482963515
3.7498206452 1.1587153400 1.9491203114
3.5949370817 0.7773763763 1.9476052012
3.4401039323 0.3960597824 1.9437755529
3.2853207252 0.0147664179 1.9376559002
3.1305869887 -0.3665028930 1.9292707778
2.9759022520 -0.7477473607 1.9186447195
2.8212660452 -1.1289662298 1.9058022581
2.6666778990 -1.5101587779 1.8907679239
2.5121373453 -1.8913243157 1.8735662437
2.3576439166 -2.2724621861 1.8542217402
2.2031971472 -2.6535717628 1.8327589313
2.0487965722 -3.0346524506 1.8092023283
1.8944417279 -3.4157036840 1.7835764364
1.7401321523 -3.7967249266 1.7559057531
1.5858673846 -4.1777156701 1.7262147679
1.4316469655 -4.5586754338 1.6945279614
1.2774704374 -4.9396037640 1.6608698052
1.1233373440 -5.3205002321 1.6252647604
0.9692472309 -5.7013644353 1.5877372779
0.8151364393 -6.0820686273 1.5483377635
0.6608245041 -6.4626054028 1.5071140359
0.5063265452 -6.8431400745 1.4640653539
0.3513265018 -7.2230307934 1.4193575408
0.1964854930 -7.6029403089 1.3728377351
0.0415396384 -7.9832662601 1.3244900915
-0.1132305284 -8.3639263373 1.2743153936
-0.2683427522 -8.7438765876 1.2225830484
-0.4235581617 -9.1240699470 1.1691204971
6.1568283816 5.9443041178 1.7291579283
6.0001451776 5.5642949943 1.7583235176
5.8436389250 5.1845133922 1.7848618917
5.6872869489 4.8049283974 1.8088031462
5.5310697222 4.4244145379 1.8301937510
5.3750567194 4.0443959575 1.8490226746
5.2192748653 3.6639440864 1.8653239775
5.0637540137 3.2833305696 1.8791119979
4.9084835298 2.9026725766 1.8904092003
4.7534433730 2.5217187300 1.8992364246
4.5983705421 2.1402903583 1.9056303241
4.4433495241 1.7588815330 1.9096119689
4.2883798544 1.3774932340 1.9112058976
4.1334610689 0.9961264041 1.9104366538
3.9785927035 0.6147819491 1.9073287834
3.8237742946 0.2334607382 1.9019068350
3.6690053789 -0.1478363950 1.8941953574
3.5142854940 -0.5291086524 1.8842188994
3.3596141778 -0.9103552707 1.8720020085
3.2049909695 -1.2915755209 1.8575692295
3.0504154088 -1.6727687071 1.8409451044
2.8958870364 -2.0539341664 1.8221541705
2.7414053943 -2.4350712676 1.8012209601
2.5869700253 -2.8161794113 1.7781699995
2.4325804737 -3.1972580278 1.7530258086
2.2782362848 -3.5783065780 1.7258128993
2.1239370052 -3.9593245509 1.6965557754
1.9696821833 -4.3403114641 1.6652789320
1.8154713684 -4.7212668620 1.6320068544
1.6613041115 -5.1021903158 1.5967640179
1.5071799653 -5.4830814220 1.5595748872
1.3530984836 -5.8639398018 1.5204639158
1.1986690809 -6.2443227658 1.4795714588
1.0443760415 -6.6248031251 1.4367793500
0.8898996158 -7.0052592093 1.3921685044
0.7350445627 -7.3848981149 1.3459239543
0.5804075958 -7.7654771298 1.2976987099
0.4251785284 -8.1450393733 1.2479568067
0.2701512048 -8.5246065049 1.1964492741
0.1150333156 -8.9043386039 1.1432053104
-0.0402049269 -9.2842414702 1.0882491880
6.5402037157 5.7817837532 1.7060907951
6.3835474303 5.4017666225 1.7336819250
6.2270671438 5.0219761235 1.7586468529
6.0707403272 4.6423814432 1.7810155931
5.9145480727 4.2618617962 1.8008255517
5.7585589642 3.8818356806 1.8180767443
5.6028000333 3.5013779761 1.8327954096
5.4473008460 3.1207592410 1.8449978434
5.2920506943 2.7400961521 1.8547075622
5.1370290266 2.3591372247 1.8619436113
4.9819722246 1.9777012437 1.8667437034
4.8269667554 1.5962857609 1.8691319652
4.6720121635 1.2148917302 1.8691329535
4.5171079935 0.8335200689 1.8667712288
4.3622537905 0.4521716560 1.8620713532
4.2074490999 0.0708473346 1.8550578903
4.0526934677 -0.3104520883 1.8457554031
3.8979864405 -0.6917258415 1.8341884535
3.7433275656 -1.0729731886 1.8203816010
3.5887163913 -1.4541934270 1.8043594019
3.4341524664 -1.8353858878 1.7861464082
3.2796353411 -2.2165499348 1.7657671666
3.1251645664 -2.5976849634 1.7432462183
2.9707396942 -2.9787904007 1.7186080970
2.8163602780 -3.3598657033 1.6918773293
2.6620258720 -3.7409103581 1.6630784331
2.5077360322 -4.1219238802 1.6322359175
2.3534903154 -4.5029058127 1.5993742820
2.1992882802 -4.8838557252 1.5645180155
2.0451294860 -5.2647732142 1.5276915964
1.8906804860 -5.6453726488 1.4890050020
1.7366073289 -6.0262250087 1.4483136706
1.5825238087 -6.4068858428 1.4057583453
1.4280139829 -6.7869090114 1.3614957613
1.2735689931 -7.1672660368 1.3153270319
1.1184029761 -7.5464237576 1.2676482221
0.9632592630 -7.9256438989 1.2181709690
0.8079973768 -8.3050177451 1.1669197294
0.6529035903 -8.6843521215 1.1139158157
0.4976726296 -9.0637845836 1.0591966225
0.3422408923 -9.4432880437 1.0027983020
