-5.4349603109 6.4415830126 1.6875907019
-5.5913349976 6.0594614859 1.7330810802
-5.7473892744 5.6767083916 1.7763352309
-5.9033776485 5.2942852662 1.8171694299
-6.0582632669 4.9097761277 1.8561567430
-6.2130679039 4.5252839987 1.8928031452
-6.3677922019 4.1408107213 1.9271328975
-6.5224368112 3.7563581038 1.9591702856
-6.6770023899 3.3719279205 1.9889396195
-6.8314896034 2.9875219105 2.0164652321
-6.9858991236 2.6031417775 2.0417714782
-7.1402316286 2.2187891899 2.0648827328
-7.2944878021 1.8344657795 2.0858233905
-7.4486683330 1.4501731418 2.1046178638
-7.6027739151 1.0659128358 2.1212905829
-7.7568052459 0.6816863836 2.1358659930
-7.9107630272 0.2974952703 2.1483685545
-8.0646479638 -0.0866590560 2.1588227410
-8.2184607632 -0.4707751840 2.1672530387
-8.3722021355 -0.8548517397 2.1736839447
-8.5258727924 -1.2388873857 2.1781399666
-8.6794734476 -1.6228808214 2.1806456206
-8.8325460363 -2.0061695428 2.1812528851
-8.9855431363 -2.3888493661 2.1799417593
-9.1388004885 -2.7712880490 2.1767174627
-9.2924303997 -3.1532988399 2.1715894395
-9.4466076503 -3.5345070545 2.1645575213
-9.6008865934 -3.9161792707 2.1557414121
-9.7560763991 -4.2964275229 2.1450247696
-9.9114665832 -4.6767500396 2.1325580820
-10.0671476310 -5.0571605972 2.1183543435
-3.4879593871 10.0860928637 1.2131571591
-3.6445167878 9.7058010399 1.2818357460
-3.8009903330 9.3255795864 1.3478939832
-3.9573883872 8.9454084550 1.4113595163
-4.1142240869 8.5650719635 1.4722208265
-4.2708688216 8.1848835806 1.5305361733
-4.4276153192 7.8046578657 1.5863216993
-4.5843049906 7.4244647356 1.6396123992
-4.7408660103 7.0443204666 1.6904407227
-4.8973172049 6.6641584177 1.7388403634
-5.0536905565 6.2816065322 1.7852484124
-5.2099817235 5.8994225412 1.8291845874
-5.3659531452 5.5166117106 1.8708790986
-5.5214868288 5.1331426928 1.9103682410
-5.6763393682 4.7485904884 1.9477647548
-5.8311113492 4.3640563194 1.9828199681
-5.9858034172 3.9795420271 2.0155581667
-6.1404162254 3.5950494183 2.0460036620
-6.2949504346 3.2105802645 2.0741807888
-6.4494067123 2.8261363015 2.1001139051
-6.6037857326 2.4417192290 2.1238273898
-6.7580881754 2.0573307099 2.1453456427
-6.9123147262 1.6729723703 2.1646930824
-7.0664660753 1.2886457990 2.1818941452
-7.2205429174 0.9043525476 2.1969732846
-7.3745459513 0.5200941300 2.2099549689
-7.5284758792 0.1358720225 2.2208636813
-7.6823334065 -0.2483123362 2.2297239176
-7.8361192410 -0.6324575451 2.2365601861
-7.9898340927 -1.0165622410 2.2413970052
-8.1434786733 -1.4006250976 2.2442589036
-8.2970536960 -1.7846448264 2.2451704181
-8.4503574034 -2.1680807394 2.2441583174
-8.6034824592 -2.5508592322 2.2412409894
-8.7568754166 -2.9334208321 2.2364132237
-8.9106419429 -3.3155778687 2.2296864096
-9.0649412738 -3.6969535345 2.2210646533
-9.2193636897 -4.0788384120 2.2106547001
-9.3746502426 -4.4593158773 2.1983612489
-9.5301546692 -4.8399190397 2.1843161085
-9.6859707468 -5.2206770689 2.1685318207
-3.1058094096 9.9272651016 1.3209236950
-3.2625991625 9.5467430105 1.3880454931
-3.4192301677 9.1663324508 1.4525484589
-3.5757355366 8.7860048093 1.5144586949
-3.7326581859 8.4055133246 1.5737688543
-3.8893621423 8.0251976338 1.6305307397
-4.0461533707 7.6448591628 1.6847622929
-4.2028710909 7.2645732703 1.7364973436
-4.3594400610 6.8843599210 1.7857680614
-4.5158487298 6.5041895586 1.8326061521
-4.6721714484 6.1215947459 1.8774498886
-4.8281731711 5.7385003703 1.9200018573
-4.9841037276 5.3557149015 1.9601117464
-5.1390040492 4.9711007383 1.9982772653
-5.2938236393 4.5865038907 2.0340768032
-5.4485631383 4.2019262331 2.0675346488
-5.6032231944 3.8173696049 2.0986751165
-5.7578044640 3.4328358097 2.1275225457
-5.9123076103 3.0483266151 2.1541012994
-6.0667333033 2.6638437518 2.1784357632
-6.2210822191 2.2793889135 2.2005503439
-6.3753550396 1.8949637562 2.2204694682
-6.5295524517 1.5105698984 2.2382175813
-6.6836751469 1.1262089202 2.2538191465
-6.8377238211 0.7418823639 2.2672986428
-6.9916991740 0.3575917332 2.2786805645
-7.1456019080 -0.0266615067 2.2879894196
-7.2994327291 -0.4108759287 2.2952497291
-7.4531923449 -0.7950501441 2.3004860248
-7.6068814652 -1.1791828028 2.3037228494
-7.7605008014 -1.5632725921 2.3049847543
-7.9140510659 -1.9473182379 2.3042962990
-8.0674839029 -2.3308939214 2.3016725752
-8.2210020515 -2.7139292991 2.2971198674
-8.3745251030 -3.0966787705 2.2906864445
-8.5284214265 -3.4790568362 2.2823585016
-8.6828362091 -3.8606849441 2.2721444095
-8.8373926539 -4.2428837584 2.2601371645
-8.9927688018 -4.6237038781 2.2462633533
-9.1483767887 -5.0047250051 2.2306353818
-9.3043116243 -5.3859977968 2.2132650382
-2.7227829954 9.7685050905 1.4233169947
-2.8799801718 9.3877505305 1.4888598353
-3.0368950464 9.0071376992 1.5517936245
-3.1936021412 8.6266375323 1.6121392186
-3.3506880396 8.2459734202 1.6698915107
-3.5075111199 7.8655146074 1.7250948711
-3.6643979698 7.4850478744 1.7777684423
-3.8211882699 7.1046541207 1.8279444965
-3.9778056292 6.7243563467 1.8756547234
-4.1340716359 6.3433608668 1.9210860569
-4.2903866510 5.9608134962 1.9643396836
-4.4463620941 5.5777314052 2.0053068177
-4.6013090543 5.1930536114 2.0442622406
-4.7561751367 4.8083924700 2.0808269733
-4.9109609767 4.4237498890 2.1150253079
-5.0656672181 4.0391277405 2.1468815634
-5.2202945126 3.6545278607 2.1764200849
-5.3748435196 3.2699520493 2.2036652423
-5.5293149049 2.8854020685 2.2286414283
-5.6837093409 2.5008796427 2.2513730584
-5.8380275060 2.1163864583 2.2718845686
-5.9922700837 1.7319241630 2.2902004146
-6.1464377626 1.3474943662 2.3063450705
-6.3005312355 0.9630986380 2.3203430273
-6.4545511993 0.5787385094 2.3322187919
-6.6084983542 0.1944154727 2.3419968855
-6.7623734035 -0.1898690195 2.3497018433
-6.9161770528 -0.5741135535 2.3553582119
-7.0699100100 -0.9583167547 2.3589905490
-7.2235729845 -1.3424772873 2.3606234220
-7.3771666870 -1.7265938546 2.3602814068
-7.5306918290 -2.1106651978 2.3579890869
-7.6842010849 -2.4943792288 2.3537562601
-7.8379490722 -2.8776569725 2.3475839639
-7.9918905558 -3.2607749147 2.3395143884
-8.1458992546 -3.6434331201 2.3295835721
-8.3004110951 -4.0253778119 2.3177748701
-8.4550780538 -4.4079647493 2.3041670029
-8.6105204939 -4.7892061488 2.2887089431
-8.7662004929 -5.1707357441 2.2714932946
-8.9222098202 -5.5526255484 2.2525309057
-2.3388142608 9.6096406227 1.5203881008
-2.4966262479 9.2287081492 1.5843176935
-2.6539716067 8.8479124855 1.6456615761
-2.8109885791 8.4672435383 1.7044290737
-2.9683232239 8.0864022476 1.7606142094
-3.1253325906 7.7057928860 1.8142522694
-3.2823714288 7.3251881908 1.8653626936
-3.4392831092 6.9446757090 1.9139755868
-3.5959926066 6.5642817669 1.9601217912
-3.7522567969 6.1826309118 2.0040904142
-3.9083189915 5.7993144102 2.0459209930
-4.0633109523 5.4145714020 2.0856881156
-4.2182219093 5.0298444212 2.1230398075
-4.3730524933 4.6451354099 2.1580003650
-4.5278033438 4.2604462741 2.1905941126
-4.6824751083 3.8757788833 2.2208454020
-4.8370684419 3.4911350695 2.2487786101
-4.9915840068 3.1065166269 2.2744181385
-5.1460224717 2.7219253115 2.2977884120
-5.3003845116 2.3373628403 2.3189138768
-5.4546708068 1.9528308911 2.3378189999
-5.6088820429 1.5683311024 2.3545282672
-5.7630189098 1.1838650730 2.3690661826
-5.9170821017 0.7994343615 2.3814572666
-6.0710723163 0.4150404870 2.3917260549
-6.2249902547 0.0306849283 2.3998970973
-6.3788366203 -0.3536308757 2.4059949562
-6.5326121191 -0.7379055260 2.4100442056
-6.6863174585 -1.1221376635 2.4120694299
-6.8399533476 -1.5063259686 2.4120952224
-6.9935204963 -1.8904691612 2.4101461841
-7.1470196152 -2.2745660000 2.4062469232
-7.3005748589 -2.6584168916 2.4004049264
-7.4544658864 -3.0419278911 2.3926191716
-7.6086560823 -3.4253813283 2.3829278993
-7.7631166021 -3.8085350505 2.3713581597
-7.9176979200 -4.1908464027 2.3579521141
-8.0724403583 -4.5738762818 2.3427397646
-8.2279108898 -4.9555930682 2.3256930464
-8.3836112942 -5.3376867422 2.3068844677
-8.5396226794 -5.7202443480 2.2863241066
-1.9537456073 9.4504277432 1.6122081831
-2.1110880054 9.0688196757 1.6747678556
-2.2692829551 8.6881926067 1.7344043170
-2.4269236744 8.3075475117 1.7915195727
-2.5847465744 7.9266428598 1.8460879339
-2.7421356325 7.5459429165 1.8981264399
-2.8994827657 7.1652331247 1.9476489980
-3.0566452161 6.7846173331 1.9946803337
-3.2133964554 6.4033027495 2.0394078535
-3.3688576931 6.0198699430 2.0821895772
-3.5238898533 5.6350570703 2.1227854726
-3.6788409592 5.2502597386 2.1609411015
-3.8337116377 4.8654799250 2.1966807679
-3.9885025244 4.4807195705 2.2300288050
-4.1432142632 4.0959805785 2.2610095742
-4.2978475055 3.7112648145 2.2896474633
-4.4524029102 3.3265741053 2.3159668856
-4.6068811431 2.9419102388 2.3399922785
-4.7612828757 2.5572749630 2.3617481018
-4.9156087859 2.1726699860 2.3812588373
-5.0698595559 1.7880969757 2.3985489860
-5.2240358735 1.4035575591 2.4136430680
-5.3781384303 1.0190533228 2.4265656206
-5.5321679217 0.6345858122 2.4373411972
-5.6861250464 0.2501565319 2.4459943659
-5.8400105058 -0.1342330545 2.4525497078
-5.9938250039 -0.5185815245 2.4570318166
-6.1475692463 -0.9028874959 2.4594652966
-6.3012439405 -1.2871496276 2.4598747617
-6.4548497945 -1.6713666187 2.4582848338
-6.6083875174 -2.0555372082 2.4547201425
-6.7618578185 -2.4396601753 2.4492053228
-6.9154320318 -2.8236308564 2.4417473260
-7.0693988935 -3.2073382627 2.4323455493
-7.2237219107 -3.5910644028 2.4210348635
-7.3784148542 -3.9746000548 2.4078389548
-7.5334162189 -4.3574651142 2.3927936459
-7.6886682526 -4.7412495326 2.3759229817
-7.8440226198 -5.1234497133 2.3572879167
-7.9995444998 -5.5060693538 2.3368903143
-8.1552740285 -5.8891690202 2.3147433590
-1.5679537395 9.2908558272 1.6987289783
-1.7261423081 8.9094145673 1.7595880500
-1.8838238524 8.5280692559 1.8178635769
-2.0411241704 8.1468762754 1.8735564485
-2.1987109391 7.7655362252 1.9266666190
-2.3559281569 7.3844818502 1.9772195303
-2.5131385156 7.0034843568 2.0252384441
-2.6699363033 6.6216476923 2.0709453944
-2.8252964586 6.2379059850 2.1146453768
-2.9802581900 5.8537066690 2.1559809310
-3.1352353868 5.4688285514 2.1949501926
-3.2901323066 5.0839677896 2.2314784143
-3.4449495824 4.6991263621 2.2655899450
-3.5996878556 4.3143062090 2.2973091627
-3.7543477755 3.9295092313 2.3266604730
-3.9089299987 3.5447372908 2.3536683082
-4.0634351883 3.1599922086 2.3783571255
-4.2178640139 2.7752757654 2.4007514056
-4.3722171508 2.3905897003 2.4208756517
-4.5264952794 2.0059357117 2.4387543877
-4.6806990853 1.6213154557 2.4544121567
-4.8348292577 1.2367305462 2.4678735202
-4.9888864900 0.8521825555 2.4791630563
-5.1428714789 0.4676730136 2.4883053583
-5.2967849238 0.0832034082 2.4953250336
-5.4506275264 -0.3012248153 2.5002467020
-5.6043999905 -0.6856102531 2.5030949948
-5.7581030216 -1.0699515436 2.5038945531
-5.9117373256 -1.4542473667 2.5026700270
-6.0653036097 -1.8384964435 2.4994460738
-6.2188025812 -2.2226975363 2.4942473571
-6.3722349471 -2.6068494479 2.4870985455
-6.5257698920 -2.9908408628 2.4780094552
-6.6796986754 -3.3745650218 2.4669834279
-6.8339847066 -3.7583051932 2.4540525987
-6.9886421331 -4.1418528231 2.4392425792
-7.1436101708 -4.5247293728 2.4225925520
-7.2988281710 -4.9085214461 2.4041127335
-7.4541520065 -5.2907322284 2.3838832836
-7.6096432694 -5.6733601360 2.3618901432
-7.7653421259 -6.0564653508 2.3381464575
-1.1827283543 9.1317559225 1.7796522437
-1.3404439456 8.7494912431 1.8391602023
-1.4978154767 8.3675198542 1.8960198454
-1.6549008853 7.9858319847 1.9502554000
-1.8123332320 7.6040875389 2.0018840796
-1.9694348080 7.2226964901 2.0509351302
-2.1256045663 6.8392103748 2.0979048610
-2.2813379391 6.4554669747 2.1424379918
-2.4366432865 6.0716750772 2.1845209584
-2.5915494065 5.6874217576 2.2242324679
-2.7464736665 5.3024813043 2.2615733384
-2.9013184553 4.9175600518 2.2964724605
-3.0560844115 4.5326599773 2.3289542286
-3.2107721815 4.1477830180 2.3590430661
-3.3653824187 3.7629310707 2.3867634241
-3.5199157836 3.3781059904 2.4121397794
-3.6743729428 2.9933095906 2.4351966337
-3.8287545687 2.6085436425 2.4559585115
-3.9830613392 2.2238098746 2.4744499593
-4.1372939366 1.8391099724 2.4906955438
-4.2914530477 1.4544455785 2.5047198503
-4.4455393630 1.0698182916 2.5165474816
-4.5995535765 0.6852296677 2.5262030566
-4.7534963848 0.3006812189 2.5337112084
-4.9073684870 -0.0838255860 2.5390965834
-5.0611705844 -0.4682893215 2.5423838401
-5.2149033794 -0.8527086050 2.5435976467
-5.3685675757 -1.2370820969 2.5427626815
-5.5221638776 -1.6214085003 2.5399036297
-5.6756929898 -2.0056865605 2.5350451834
-5.8291556167 -2.3899150642 2.5282120400
-5.9825524624 -2.7740928403 2.5194289011
-6.1360504664 -3.1581019767 2.5087085092
-6.2899432748 -3.5418400424 2.4960581213
-6.4441942624 -3.9255914701 2.4815071151
-6.5988179097 -4.3091484461 2.4650830183
-6.7537540922 -4.6920341453 2.4468283519
-6.9089395694 -5.0758312904 2.4267395310
-7.0642340405 -5.4580506467 2.4049158446
-7.2196958370 -5.8406846992 2.3813273648
-7.3753651486 -6.2237932339 2.3559872064
-0.7956232883 8.9702952235 1.8558032179
-0.9532078198 8.5874381692 1.9138573518
-1.1104846325 8.2050124790 1.9692281348
-1.2674970899 7.8229626225 2.0219520503
-1.4243514624 7.4392728488 2.0723835574
-1.5808357603 7.0564864781 2.1201332538
-1.7369540496 6.6729553454 2.1654946350
-1.8926347302 6.2891654548 2.2084135062
-2.0478870368 5.9053259877 2.2488779942
-2.2027395313 5.5210214751 2.2869639160
-2.3576129365 5.1360216634 2.3226747710
-2.5124077034 4.7510429240 2.3559432362
-2.6671244747 4.3660872309 2.3867937525
-2.8217639004 3.9811565159 2.4152507894
-2.9763266376 3.5962526688 2.4413388435
-3.1308133493 3.2113775362 2.4650824372
-3.2852247046 2.8265329214 2.4865061165
-3.4395613777 2.4417205839 2.5056344502
-3.5938240476 2.0569422390 2.5224920283
-3.7480133977 1.6721995576 2.5371034603
-3.9021301151 1.2874941663 2.5494933736
-4.0561748904 0.9028276465 2.5596864123
-4.2101484167 0.5182015355 2.5677072357
-4.3640513901 0.1336173256 2.5735805169
-4.5178845079 -0.2509235354 2.5773309410
-4.6716484698 -0.6354196437 2.5789832042
-4.8253439757 -1.0198696402 2.5785620121
-4.9789717270 -1.4042722093 2.5760920785
-5.1325324249 -1.7886260788 2.5715981240
-5.2860267705 -2.1729300199 2.5651048746
-5.4394554647 -2.5571828462 2.5566370608
-5.5928192073 -2.9413834136 2.5462194161
-5.7462825973 -3.3254072740 2.5338676675
-5.9001415309 -3.7091564196 2.5195929495
-6.0543594127 -4.0929163506 2.5034218659
-6.2089510120 -4.4764800656 2.4853838480
-6.3638568041 -4.8593725980 2.4655247279
-6.5190112601 -5.2431722622 2.4438271696
-6.6742775250 -5.6253981900 2.4204094832
-6.8297109964 -6.0080362935 2.3952259524
-6.9853518790 -6.3911459525 2.3682896699
-0.4071605366 8.8041669967 1.9274858369
-0.5646974760 8.4212700392 1.9839476954
-0.7219281778 8.0388047220 2.0377271646
-0.8788958321 7.6567154879 2.0888607037
-1.0357000331 7.2729838641 2.1376876373
-1.1921368897 6.8901568597 2.1838367896
-1.3482051680 6.5065831626 2.2275885325
-1.5038348103 6.1227493762 2.2688918105
-1.6590358911 5.7388650121 2.3077364758
-1.8138367951 5.3545121725 2.3441953977
-1.9686614777 4.9694560407 2.3782747506
-2.1234083788 4.5844228761 2.4099111417
-2.2780781445 4.1994146466 2.4391290592
-2.4326714276 3.8144332768 2.4659530192
-2.5871888873 3.4294806469 2.4904075643
-2.7416311882 3.0445585926 2.5125172622
-2.8959990008 2.6596689049 2.5323067040
-3.0502929999 2.2748133292 2.5498005028
-3.2045138647 1.8899935653 2.5650232919
-3.3586622784 1.5052112673 2.5779997235
-3.5127389274 1.1204680433 2.5887544673
-3.6667445011 0.7357654557 2.5973122082
-3.8206796910 0.3511050207 2.6036976457
-3.9745451910 -0.0335117911 2.6079354924
-4.1283416961 -0.4180835549 2.6100504716
-4.2820699028 -0.8026088912 2.6100673170
-4.4357305082 -1.1870864656 2.6080107705
-4.5893242095 -1.5715149885 2.6039055813
-4.7428517039 -1.9558932146 2.5977765043
-4.8963136885 -2.3402199426 2.5896482990
-5.0497108588 -2.7244940145 2.5795457279
-5.2030439101 -3.1087143150 2.5674935555
-5.3564750049 -3.4927499246 2.5535105459
-5.5103021542 -3.8765073490 2.5376116673
-5.6644888570 -4.2602730600 2.5198207375
-5.8190501279 -4.6438409379 2.5001690754
-5.9739269824 -5.0267380168 2.4787057913
-6.1290519054 -5.4105376841 2.4553998715
-6.2842911098 -5.7927682103 2.4303885079
-6.4396973832 -6.1754083044 2.4036103017
-6.5953109382 -6.5585169294 2.3750783321
-0.0186007019 8.6379147223 1.9936994095
-0.1760909628 8.2549799598 2.0485678648
-0.3332764953 7.8724770184 2.1007549561
-0.4902003089 7.4903503239 2.1502971100
-0.6469556135 7.1065792939 2.1975182603
-0.8033462801 6.7237138711 2.2420657815
-0.9593660461 6.3401001064 2.2842067026
-1.1149463463 5.9562250644 2.3238931694
-1.2700980583 5.5722985213 2.3611167905
-1.4248494502 5.1879002691 2.3959474352
-1.5796275852 4.8027909096 2.4283939409
-1.7343288174 4.4177064316 2.4583969849
-1.8889537951 4.0326487950 2.4859811027
-2.0435031727 3.6476199140 2.5111708571
-2.1979776103 3.2626216572 2.5339908371
-2.3523777733 2.8776558474 2.5544656560
-2.5067043320 2.4927242603 2.5726199499
-2.6609579610 2.1078286252 2.5884783760
-2.8151393385 1.7229706242 2.6020656110
-2.9692491464 1.3381518924 2.6134063497
-3.1232880692 0.9533740173 2.6225253032
-3.2772567938 0.5686385396 2.6294471973
-3.4311560094 0.1839469528 2.6341967716
-3.5849864062 -0.2006992965 2.6367987768
-3.7387486763 -0.5852988084 2.6372779744
-3.8924435116 -0.9698502295 2.6356591348
-4.0460716051 -1.3543522523 2.6319670355
-4.1996336493 -1.7388036149 2.6262264603
-4.3531303363 -2.1232031007 2.6184621975
-4.5065623575 -2.5075495376 2.6086990392
-4.6599304031 -2.8918417975 2.5969617789
-4.8132351619 -3.2760787959 2.5832752115
-4.9666362652 -3.6601232096 2.5676611852
-5.1204337047 -4.0438861445 2.5501384522
-5.2745911380 -4.4276549476 2.5307280363
-5.4291237830 -4.8112244494 2.5094631249
-5.5839731365 -5.1941238237 2.4863960686
-5.7390699960 -5.5779210207 2.4614822716
-5.8942832694 -5.9601542062 2.4348776372
-6.0496634549 -6.3427942683 2.4065052161
-6.2052507649 -6.7258997435 2.3763780822
0.3700482829 8.4715445325 2.0544639403
0.2126037512 8.0885741005 2.1077379439
0.0554624129 7.7060355724 2.1583316710
-0.1014185541 7.3238733683 2.2062815082
-0.2581262751 6.9400654157 2.2518957654
-0.4144720366 6.5571638250 2.2948406619
-0.5704448257 6.1735125277 2.3353696864
-0.7259775167 5.7895989093 2.3734382427
-0.8810817533 5.4056329446 2.4090397245
-1.0357857484 5.0211922359 2.4422409525
-1.1905195474 4.6360327874 2.4730534121
-1.3451773416 4.2509001507 2.5014219834
-1.4997597802 3.8657962746 2.5273712494
-1.6542675179 3.4807230613 2.5509258202
-1.8087012148 3.0956823652 2.5721103309
-1.9630615358 2.7106759932 2.5909494406
-2.1173491500 2.3257057041 2.6074678301
-2.2715647306 1.9407732084 2.6216902005
-2.4257089537 1.5558801684 2.6336412719
-2.5797824985 1.1710281976 2.6433457809
-2.7337860467 0.7862188611 2.6508284801
-2.8877202818 0.4014536759 2.6561141354
-3.0415858891 0.0167341105 2.6592275254
-3.1953835547 -0.3679384146 2.6601934391
-3.3491139656 -0.7525625263 2.6590366752
-3.5027778093 -1.1371368992 2.6557820396
-3.6563757729 -1.5216602544 2.6504543449
-3.8099085434 -1.9061313596 2.6430784087
-3.9633768066 -2.2905490285 2.6336790515
-4.1167812476 -2.6749121199 2.6222810968
-4.2701225499 -3.0592195374 2.6089093686
-4.4234013951 -3.4434702285 2.5935886906
-4.5767747884 -3.8275205381 2.5763440383
-4.7305445703 -4.2112862549 2.5571978909
-4.8846746211 -4.5950555045 2.5361684744
-5.0391803203 -4.9786241345 2.5132908239
-5.1940035881 -5.3615235929 2.4886204866
-5.3490738310 -5.7453158939 2.4620994013
-5.5042622831 -6.1275498382 2.4339019837
-5.6596174701 -6.5101878879 2.4039358899
-5.8151795959 -6.8932881443 2.3722141974
0.7587784661 8.3050626442 2.1097998121
0.6013786814 7.9220587103 2.1614783978
0.4442805315 7.5394866640 2.2104778552
0.2874413885 7.1572909302 2.2568345232
0.1307799052 6.7734485719 2.3008408806
-0.0255222659 6.3905130940 2.3421822551
-0.1814496447 6.0068268314 2.3810984202
-0.3369364909 5.6228773487 2.4175480883
-0.4919951760 5.2388747526 2.4515264643
-0.6466539202 4.8543945776 2.4830972779
-0.8013456245 4.4691882178 2.5122746410
-0.9559622384 4.0840106120 2.5390077640
-1.1105044107 3.6988636958 2.5633212778
-1.2649727957 3.3137493563 2.5852398394
-1.4193680522 2.9286694314 2.6047881304
-1.5736908433 2.5436257104 2.6219908550
-1.7279418357 2.1586199321 2.6368727387
-1.8821217000 1.7736537865 2.6494585265
-2.0362311092 1.3887289133 2.6597729806
-2.1902707387 1.0038469028 2.6678408798
-2.3442412662 0.6190092951 2.6736870168
-2.4981433708 0.2342175814 2.6773361975
-2.6519777325 -0.1505267966 2.6788132387
-2.8057450325 -0.5352224463 2.6781429668
-2.9594459520 -0.9198680238 2.6753502166
-3.1130811722 -1.3044622331 2.6704598290
-3.2666513739 -1.6890038259 2.6634966506
-3.4201572372 -2.0734916012 2.6544855312
-3.5735994412 -2.4579244046 2.6434513233
-3.7269786632 -2.8423011276 2.6304188804
-3.8802955792 -3.2266207065 2.6154130555
-4.0335508628 -3.6108821225 2.5984587002
-4.1868987991 -3.9949354638 2.5795839546
-4.3406429469 -4.3787012796 2.5588149630
-4.4947474739 -4.7624683780 2.5361671543
-4.6492278799 -5.1460336887 2.5116773860
-4.8040264525 -5.5289310656 2.4854043546
-4.9590714984 -5.9127160982 2.4572766713
-5.1142362159 -6.2949489428 2.4274870361
-5.2695674696 -6.6775830461 2.3959278908
-5.4251054471 -7.0606760657 2.3626123246
1.1475818963 8.1384753427 2.1597277890
0.9902258475 7.7554401018 2.2098100755
0.8331698534 7.3728366316 2.2572144409
0.6763714865 6.9906093734 2.3019771689
0.5197548660 6.6067351537 2.3443747250
0.3634949454 6.2237680948 2.3841117796
0.2076113840 5.8400494603 2.4214142360
0.0521685923 5.4560668520 2.4562441627
-0.1028464901 5.0720304402 2.4885985982
-0.2574621527 4.6875138164 2.5185381425
-0.4121140263 4.3022637540 2.5460795097
-0.5666917375 3.9170443959 2.5711763611
-0.7211959341 3.5318576619 2.5938533754
-0.8756272680 3.1467054216 2.6141352564
-1.0299863958 2.7615894943 2.6320467316
-1.1842739777 2.3765116486 2.6476125507
-1.3384906772 1.9914736019 2.6608574831
-1.4926371607 1.6064770207 2.6718063167
-1.6467140971 1.2215235204 2.6804838561
-1.8007221569 0.8366146652 2.6869149209
-1.9546620128 0.4517519691 2.6911243439
-2.1085343380 0.0669368949 2.6931369694
-2.2623398068 -0.3178291445 2.6929776520
-2.4160790937 -0.7025447863 2.6906712546
-2.5697528733 -1.0872087173 2.6862426468
-2.7233618197 -1.4718196730 2.6797167038
-2.8769066064 -1.8563764375 2.6711183046
-3.0303879057 -2.2408778425 2.6604723309
-3.1838063884 -2.6253227672 2.6478036652
-3.3371627239 -3.0097101368 2.6331371900
-3.4904575793 -3.3940389226 2.6164977861
-3.6436916198 -3.7783081403 2.5979103317
-3.7970163165 -4.1623616993 2.5774061643
-3.9507368200 -4.5461249831 2.5550150244
-4.1048176482 -4.9298873868 2.5307495496
-4.2592743817 -5.3134469847 2.5046483927
-4.4140496206 -5.6963401639 2.4767733465
-4.5690708573 -6.0801156136 2.4470398526
-4.7242129008 -6.4623455461 2.4156586404
-4.8795212596 -6.8449738192 2.3825071401
-5.0350360966 -7.2280576389 2.3475984603
1.5364506432 7.9717889656 2.2042690183
1.3791372933 7.5887246351 2.2527542117
1.2221223990 7.2060918570 2.2985627481
1.0653637390 6.8238350995 2.3417308488
0.9087905819 6.4399315848 2.3825188106
0.7525715511 6.0569352702 2.4206508471
0.5967301926 5.6731868776 2.4563388622
0.4413296447 5.2891739021 2.4895483199
0.2863561983 4.9051065094 2.5202781127
0.1317814304 4.5205564740 2.5485856782
-0.0228328921 4.1352659411 2.5744903026
-0.1773739913 3.7500080668 2.5979502127
-0.3318425123 3.3647847524 2.6189901343
-0.4862391042 2.9795978483 2.6376348180
-0.6405644197 2.5944491523 2.6539090369
-0.7948191152 2.2093404101 2.6678375851
-0.9490038494 1.8242733152 2.6794452757
-1.1031192838 1.4392495085 2.6887569392
-1.2571660819 1.0542705788 2.6957974215
-1.4111449084 0.6693380631 2.7005915822
-1.5650564293 0.2844534457 2.7031642933
-1.7189013115 -0.1003818400 2.7035404369
-1.8726802222 -0.4851664121 2.7017449039
-2.0263938286 -0.8698989395 2.6978025927
-2.1800427973 -1.2545781413 2.6917384070
-2.3336277944 -1.6392027863 2.6835772548
-2.4871494850 -2.0237716924 2.6733440466
-2.6406085328 -2.4082837259 2.6610636942
-2.7940055997 -2.7927378007 2.6467611091
-2.9473413456 -3.1771328777 2.6304612014
-3.1006164286 -3.5614679637 2.6121888786
-3.2538315039 -3.9457421110 2.5919690438
-3.4071351378 -4.3297931308 2.5698362597
-3.5608339470 -4.7135513088 2.5458237891
-3.7148928628 -5.0973065331 2.5199414882
-3.8693275078 -5.4808580837 2.4922297748
-4.0240807417 -5.8637450030 2.4627534815
-4.1790795222 -6.2475086176 2.4314150570
-4.3341999234 -6.6297338754 2.3984429793
-4.4894863956 -7.0123544882 2.3636998921
-4.6449790691 -7.3954272031 2.3271989308
1.9253768176 7.8050098861 2.2434450315
1.7681051075 7.4219187010 2.2903324269
1.6111302369 7.0392587471 2.3345444846
1.4544101964 6.6569745311 2.3761173558
1.2978790839 6.2730443035 2.4152950390
1.1416995654 5.8900210731 2.4518214620
0.9858987793 5.5062455502 2.4858944200
0.8305386505 5.1222049789 2.5174828085
0.6756048602 4.7381094526 2.5465873905
0.5210687900 4.3535290552 2.5732624135
0.3664897304 3.9682012990 2.5975297022
0.2119829466 3.5829081556 2.6193521551
0.0575477976 3.1976515062 2.6387545452
-0.0968163614 2.8124331785 2.6557616695
-0.2511101787 2.4272549468 2.6703983460
-0.4053343049 2.0421185319 2.6826894129
-0.5594893935 1.6570256008 2.6926597259
-0.7135760997 1.2719777670 2.7003341573
-0.8675950802 0.8869765905 2.7057375934
-1.0215469932 0.5020235782 2.7088949333
-1.1754324972 0.1171201839 2.7098310866
-1.3292522514 -0.2677321909 2.7085709724
-1.4830069147 -0.6525321970 2.7051395170
-1.6366971459 -1.0372785367 2.6995616529
-1.7903236032 -1.4219699632 2.6918623165
-1.9438869435 -1.8066052803 2.6820664474
-2.0973878225 -2.1911833411 2.6701989863
-2.2508268944 -2.5757030479 2.6562848738
-2.4042048114 -2.9601633509 2.6403490492
-2.5575222235 -3.3445632476 2.6224164486
-2.7107797781 -3.7289017822 2.6025120043
-2.8639781203 -4.1131780438 2.5806606432
-3.0172628210 -4.4972238299 2.5569001761
-3.1709418412 -4.8809743915 2.5312673091
-3.3249805878 -5.2647200161 2.5037691306
-3.4793946879 -5.6482612477 2.4744477913
-3.6341272091 -6.0311399030 2.4433711025
-3.7891048475 -6.4148894970 2.4104287155
-3.9442046065 -6.7971083701 2.3758665516
-4.0994701683 -7.1797195492 2.3395327131
-4.2549416221 -7.5627793165 2.3014403696
2.3143525905 7.6381444968 2.2772777424
2.1571214428 7.2550287042 2.3225667253
2.0001855038 6.8723437185 2.3651817428
1.8435029812 6.4900340958 2.4051588684
1.6870124793 6.1060797474 2.4427256996
1.5308710834 5.7230319495 2.4776460162
1.3751092286 5.3392319314 2.5101034198
1.2197876844 4.9551665429 2.5400702666
1.0648915647 4.5710457355 2.5675492044
0.9103919913 4.1864380303 2.5925912676
0.7558459042 3.8010763056 2.6152207809
0.6013711407 3.4157511442 2.6354054148
0.4469670641 3.0304644041 2.6531699891
0.2926330353 2.6452178886 2.6685393459
0.1383684122 2.2600133461 2.6815383477
-0.0158274500 1.8748524701 2.6921918759
-0.1699551976 1.4897368989 2.7005248283
-0.3240154787 1.1046682166 2.7065621178
-0.4780089424 0.7196479521 2.7103286701
-0.6319362388 0.3346775808 2.7118494226
-0.7857980180 -0.0502414764 2.7111493216
-0.9395949305 -0.4351078517 2.7082533219
-1.0933276262 -0.8199202303 2.7031863840
-1.2469967546 -1.2046773495 2.6959734728
-1.4006029641 -1.5893779983 2.6866395567
-1.5541469017 -1.9740210168 2.6752096052
-1.7076292131 -2.3586052951 2.6617085877
-1.8610505420 -2.7431297725 2.6461614723
-2.0144115298 -3.1275934371 2.6285932242
-2.1677128158 -3.5119953244 2.6090288045
-2.3209550366 -3.8963345161 2.5874931686
-2.4741388259 -4.2806101403 2.5640112658
-2.6274066706 -4.6646480661 2.5386241721
-2.7810677581 -5.0483885683 2.5113719541
-2.9350880310 -5.4321222415 2.4822589498
-3.0894830849 -5.8156509501 2.4513290085
-3.2441961467 -6.1985193986 2.4186528556
-3.3991539151 -6.5822528569 2.3841075570
-3.5542339978 -6.9644636909 2.3479561497
-3.7094795905 -7.3470637231 2.3100324585
-3.8649307329 -7.7301087641 2.2703496953
2.7033702130 7.4711991928 2.3057894441
2.5461785354 7.0880610473 2.3494794917
2.3892804233 6.7053531801 2.3904969966
2.2326343064 6.3230202088 2.4288779477
2.0761829709 5.9390443356 2.4648334649
1.9200783004 5.5559743219 2.4981472857
1.7643537295 5.1721524455 2.5289887559
1.6090689331 4.7880650179 2.5573337166
1.4542084976 4.4039217805 2.5831867108
1.2997432230 4.0192898196 2.6065955425
1.1452278236 3.6338973806 2.6275869943
0.9907827925 3.2485434476 2.6461336007
0.8364074996 2.8632298530 2.6622602273
0.6821013121 2.4779583734 2.6759917610
0.5278635948 2.0927307289 2.6873531080
0.3736937106 1.7075485836 2.6963691917
0.2195910211 1.3224135451 2.7030649509
0.0655548863 0.9373271656 2.7074653381
-0.0884153342 0.5522909418 2.7095953176
-0.2423202812 0.1673063145 2.7094798633
-0.3961605957 -0.2176253293 2.7071439575
-0.5499369184 -0.6025026573 2.7026125889
-0.7036498893 -0.9873243909 2.6959107508
-0.8573001475 -1.3720893041 2.6870634399
-1.0108883309 -1.7567962230 2.6760956542
-1.1644150759 -2.1414440256 2.6630323920
-1.3178810169 -2.5260316401 2.6478986500
-1.4712867866 -2.9105580444 2.6307194220
-1.6246330150 -3.2950222653 2.6115196979
-1.7779203299 -3.6794233772 2.5903244616
-1.9311493563 -4.0637605015 2.5671586908
-2.0843207159 -4.4480328050 2.5420473548
-2.2375737247 -4.8320603170 2.5150348082
-2.3912186816 -5.2157883889 2.4861643897
-2.5452221248 -5.5995078320 2.4554377093
-2.6995995837 -5.9830218848 2.4229002778
-2.8542943967 -6.3658782485 2.3886256665
-3.0092335225 -6.7495935296 2.3524785854
-3.1642948588 -7.1317947281 2.3147388367
-3.3195213869 -7.5143819624 2.2752262509
-3.4749530887 -7.8974105658 2.2339540889
3.0924220345 7.3041803557 2.3290028041
2.9352687244 6.9210221141 2.3710934859
2.7784073257 6.5382935177 2.4105130954
2.6217964949 6.1559392572 2.4472975306
2.4653828761 5.7719444527 2.4816413829
2.3093135305 5.3888545726 2.5133484221
2.1536245956 5.0050134704 2.5425736982
1.9983747121 4.6209067756 2.5692965557
1.8435479803 4.2367439509 2.5935234408
1.6891148157 3.8520907764 2.6152989142
1.5346278310 3.4666708693 2.6346521704
1.3802102597 3.0812913989 2.6515606924
1.2258614790 2.6959541702 2.6660493911
1.0715808637 2.3106609304 2.6781431968
0.9173677869 1.9254133692 2.6878670583
0.7632216202 1.5402131191 2.6952459402
0.6091417338 1.1550617552 2.7003048212
0.4551274972 0.7699607959 2.7030686922
0.3011782798 0.3849117029 2.7035625544
0.1472934507 -0.0000841179 2.7018114176
-0.0065276210 -0.3850253164 2.6978402980
-0.1602855650 -0.7699105970 2.6916742172
-0.3139810107 -1.1547387188 2.6833381999
-0.4676145860 -1.5395084939 2.6728572726
-0.6211869174 -1.9242187873 2.6602564620
-0.7746986297 -2.3088685159 2.6455607931
-0.9281503457 -2.6934566472 2.6287952884
-1.0815426861 -3.0779821991 2.6099849659
-1.2348762688 -3.4624442379 2.5891548384
-1.3881517093 -3.8468418783 2.5663299114
-1.5413696203 -4.2311742815 2.5415351824
-1.6945306113 -4.6154406548 2.5147956398
-1.8477707428 -4.9994552769 2.4861589244
-2.0014013135 -5.3831686242 2.4556715556
-2.1553895159 -5.7668716352 2.4233324404
-2.3097507795 -6.1503689741 2.3891887130
-2.4644285099 -6.5332114424 2.3533167193
-2.6193501727 -6.9169065813 2.3155690565
-2.7743936546 -7.2990966088 2.2762419236
-2.9296019839 -7.6816694587 2.2351414559
-3.0850150766 -8.0646799827 2.1922809698
3.4815005218 7.1370943373 2.3469408586
3.3243844691 6.7539182533 2.3874318363
3.1675586650 6.3711710770 2.4252532576
3.0109819976 5.9887975833 2.4604409226
2.8546046447 5.6047864335 2.4931728704
2.6985692246 5.2216790288 2.5232729451
2.5429142823 4.8378213222 2.5508818840
2.3876974848 4.4536981190 2.5759825475
2.2329024875 4.0695185352 2.5985832901
2.0784992600 3.6848471725 2.6187254217
1.9240384352 3.2994030275 2.6364404986
1.7696460720 2.9140012345 2.6517110292
1.6153215558 2.5286435683 2.6645619680
1.4610642704 2.1433317450 2.6750182885
1.3068735980 1.7580674216 2.6831049807
1.1527489199 1.3728521970 2.6888470491
0.9986896161 0.9876876117 2.6922695109
0.8446950667 0.6025751484 2.6933973943
0.6907646514 0.2175162324 2.6922557359
0.5368977503 -0.1674877679 2.6888695797
0.3830937439 -0.5524355399 2.6832639748
0.2293520138 -0.9373258269 2.6754639740
0.0756719423 -1.3221574269 2.6654946316
-0.0779470864 -1.7069291917 2.6533810025
-0.2315056869 -2.0916400263 2.6391481402
-0.3850044715 -2.4762888877 2.6228210951
-0.5384440506 -2.8608747841 2.6044249138
-0.6918250323 -3.2453967738 2.5839846367
-0.8451480218 -3.6298539644 2.5615252978
-0.9984136219 -4.0142455111 2.5370719223
-1.1516224322 -4.3985706162 2.5106495261
-1.3047750492 -4.7828285276 2.4822831148
-1.4580041959 -5.1668278657 2.4520236186
-1.6116220638 -5.5505242738 2.4199206425
-1.7655965557 -5.9342087307 2.3859704196
-1.9199429702 -6.3176873751 2.3502216673
-2.0746047366 -6.7005142075 2.3127534315
-2.2295100664 -7.0841873189 2.2734064551
-2.3845365462 -7.4663647020 2.2324929459
-2.5397275022 -7.8489216476 2.1898056589
-2.6951227767 -8.2319125212 2.1453579729
3.8705982756 6.9699474438 2.3596270038
3.7135183665 6.5867557634 2.3985180315
3.5567270371 6.2039921482 2.4347410613
3.4001834107 5.8216014697 2.4683317888
3.2438408765 5.4375765464 2.4994517027
3.0878379877 5.0544539459 2.5279447321
2.9322154039 4.6705822402 2.5539373068
2.7770298785 4.2864452681 2.5774158108
2.6222646638 3.9022517318 2.5983905078
2.4678892219 3.5175651825 2.6168994547
2.3134523273 3.1321000067 2.6329765167
2.1590829479 2.7466790787 2.6466092955
2.0047804789 2.3613041413 2.6578227887
1.8505443139 1.9759768768 2.6666420114
1.6963738451 1.5906989079 2.6730919936
1.5422684645 1.2054717978 2.6771977783
1.3882275631 0.8202970503 2.6789844200
1.2342505322 0.4351761109 2.6784769823
1.0803367630 0.0501103667 2.6757005363
0.9264856476 -0.3348988526 2.6706801585
0.7726965784 -0.7198502743 2.6634409290
0.6189689491 -1.1047426815 2.6540079301
0.4653021548 -1.4895749125 2.6424062445
0.3116955922 -1.8743458601 2.6286609537
0.1581486597 -2.2590544704 2.6127971361
0.0046607577 -2.6436997416 2.5948398660
-0.1487687109 -3.0282807237 2.5748142120
-0.3021403409 -3.4127965166 2.5527452356
-0.4554547244 -3.7972462694 2.5286579898
-0.6087124506 -4.1816291790 2.5025775180
-0.7619141059 -4.5659444894 2.4745288529
-0.9150602733 -4.9501914898 2.4445370151
-1.0682802583 -5.3341732349 2.4126562234
-1.2218870419 -5.7178505725 2.3789390694
-1.3758492926 -6.1015144363 2.3433791454
-1.5301821477 -6.4849724857 2.3060267095
-1.6848290201 -6.8677820141 2.2669634317
-1.8397190952 -7.2514312937 2.2260184709
-1.9947293839 -7.6335946230 2.1835196396
-2.1499037507 -8.0161342127 2.1392466415
-2.3052819559 -8.3991039379 2.0932129239
4.2597080474 6.8027459206 2.3670849875
4.1026631690 6.4195408765 2.4043759108
3.9459051964 6.0367629511 2.4390004344
3.7893934918 5.6543571236 2.4709941434
3.6330843371 5.2703209794 2.5005020030
3.4771125955 4.8871854937 2.5273880072
3.3215207499 4.5033023711 2.5517643054
3.1663647014 4.1191543448 2.5736208067
3.0116273395 3.7349496348 2.5929696831
2.8572775597 3.3502508699 2.6098457409
2.7028623963 2.9647678401 2.6242850969
2.5485138103 2.5793309308 2.6362805072
2.3942312070 2.1939418505 2.6458570113
2.2400139912 1.8086022462 2.6530396641
2.0858615663 1.4233137038 2.6578535345
1.9317733355 1.0380777492 2.6603237026
1.7777487021 0.6528958479 2.6604752586
1.6237870693 0.2677694062 2.6583333002
1.4698878407 -0.1173002285 2.6539229307
1.3160504209 -0.5023117670 2.6472692577
1.1622742153 -0.8872639773 2.6383973911
1.0085586307 -1.2721556839 2.6273324408
0.8549030753 -1.6569857668 2.6140995159
0.7013069591 -2.0417531608 2.5987237228
0.5477696940 -2.4264568540 2.5812301631
0.3942906941 -2.8110958875 2.5616439333
0.2408693759 -3.1956693532 2.5399901221
0.0875051584 -3.5801763935 2.5162938102
-0.0658025367 -3.9646162000 2.4905800681
-0.2190542849 -4.3489880120 2.4628739554
-0.3722506585 -4.7332911154 2.4332005196
-0.5253922268 -5.1175248415 2.4015847949
-0.6786048007 -5.5014867732 2.3680842829
-0.8322020515 -5.8851429950 2.3327544603
-0.9861534665 -6.2687843121 2.2955863146
-1.1404739935 -6.6522199483 2.2566316017
-1.2951069908 -7.0350105785 2.2159745362
-1.4499828359 -7.4186343053 2.1734329754
-1.6049777025 -7.8007822369 2.1293499179
-1.7601362217 -8.1833030882 2.0834923581
-1.9154980637 -8.5662502410 2.0358738171
4.6488227558 6.6354959368 2.3693388975
4.4918117984 6.2522797446 2.4050296528
4.3350860702 5.8694896202 2.4380556436
4.1786051760 5.4870706626 2.4684523379
4.0223279741 5.1030258248 2.4963482302
3.8663860088 4.7198797415 2.5216273282
3.7108232999 4.3359877567 2.5443875499
3.5556949564 3.9518313589 2.5646223255
3.4009835455 3.5676182208 2.5823457314
3.2466573375 3.1829101743 2.5975893301
3.0922617432 2.7974124296 2.6103914306
2.9379317991 2.4119626519 2.6207499957
2.7836669221 2.0265625128 2.6286901050
2.6294665284 1.6412136221 2.6342368524
2.4753300340 1.2559175274 2.6374153437
2.3212568543 0.8706757151 2.6382506948
2.1672464055 0.4854896111 2.6367680296
2.0132981033 0.1003605807 2.6329924784
1.8594113650 -0.2847100699 2.6269491754
1.7055856083 -0.6697210931 2.6186632575
1.5518202523 -1.0546712991 2.6081598620
1.3981147174 -1.4395595552 2.5954641251
1.2444684256 -1.8243847839 2.5806011804
1.0908808011 -2.2091459633 2.5635961573
0.9373512696 -2.5938421246 2.5444741792
0.7838792595 -2.9784723517 2.5232603624
0.6304642015 -3.3630357802 2.4999798142
0.4771055287 -3.7475315955 2.4746576324
0.3238026771 -4.1319590321 2.4473189034
0.1705550857 -4.5163173721 2.4179887011
0.0173621961 -4.9006059442 2.3866920860
-0.1357765466 -5.2848241217 2.3534541040
-0.2889833843 -5.6687641110 2.3183355295
-0.4425725841 -6.0523972599 2.2813946209
-0.5965145034 -6.4360141641 2.2426197995
-0.7508238734 -6.8194256530 2.2020642746
-0.9054439626 -7.2021958663 2.1598147245
-1.0603065481 -7.5857924039 2.1156779982
-1.2152867184 -7.9679236602 2.0700118479
-1.3704300878 -8.3504244613 2.0225709116
-1.5257762290 -8.7333476921 1.9733687904
5.0379355004 6.4682035720 2.3664131508
4.8809573620 6.0849784244 2.4005037637
4.7242627749 5.7021781904 2.4319312809
4.5678115899 5.3197481007 2.4607310483
4.4115649303 4.9356970663 2.4870151652
4.2556513879 4.5525426450 2.5106875731
4.1001162376 4.1686443190 2.5318320279
3.9450138552 3.7844821958 2.5504454723
3.7903265263 3.4002633352 2.5665438792
3.6360218387 3.0155488979 2.5801555800
3.4816436937 2.6300395337 2.5913210125
3.3273302847 2.2445799527 2.6000433908
3.1730810412 1.8591717883 2.6063478334
3.0188953922 1.4738166108 2.6102594710
2.8647727665 1.0885159279 2.6118034452
2.7107125929 0.7032711850 2.6110049058
2.5567143008 0.3180837663 2.6078890089
2.4027773201 -0.0670450047 2.6024809156
2.2489010817 -0.4521138646 2.5948057890
2.0950850173 -0.8371216090 2.5848887933
1.9413285604 -1.2220670913 2.5727550918
1.7876311456 -1.6069492223 2.5584298451
1.6339922095 -1.9917669686 2.5419382094
1.4804111904 -2.3765193520 2.5233053352
1.3268875292 -2.7612054478 2.5025563656
1.1734206685 -3.1458243839 2.4797164349
1.0200100536 -3.5303753395 2.4548106676
0.8666551326 -3.9148575438 2.4278641763
0.7133553559 -4.2992702750 2.3989020615
0.5601101769 -4.6836128581 2.3679494096
0.4069190523 -5.0678846650 2.3350312922
0.2537814412 -5.4520851116 2.3001727653
0.1005787423 -5.8360011228 2.2634378614
-0.0530038168 -6.2196093319 2.2248875156
-0.2069375130 -6.6032000462 2.1845076242
-0.3612368357 -6.9865857392 2.1423528052
-0.5158449306 -7.3693340935 2.0985121175
-0.6706951709 -7.7529018910 2.0527817040
-0.8256613268 -8.1350152618 2.0055336270
-0.9807902007 -8.5174947714 1.9565105315
-1.1361212593 -8.9003928064 1.9057261035
5.4270395760 6.3008748018 2.3583324790
5.2700931651 5.9176428646 2.3908230629
5.1134286284 5.5348345845 2.4206522505
4.9570060649 5.1523953351 2.4478552603
4.8007885578 4.7683405656 2.4725278965
4.6449021065 4.3851800333 2.4945939249
4.4893929635 4.0012778482 2.5141230293
4.3343148312 3.6171126034 2.5311156502
4.1796497526 3.2328906812 2.5455896479
4.0253645775 2.8481726944 2.5575701380
3.8710018095 2.4626547557 2.5670996227
3.7167028789 2.0771883832 2.5741866033
3.5624672284 1.6917751702 2.5788562355
3.4082943006 1.3064166458 2.5811336855
3.2541835379 0.9211142760 2.5810441286
3.1001343837 0.5358694639 2.5786127466
2.9461462811 0.1506835506 2.5738647264
2.7922186746 -0.2344421838 2.5668252576
2.6383510096 -0.6195065198 2.5575195308
2.4845427326 -1.0045082972 2.5459727356
2.3307932917 -1.3894464139 2.5322100593
2.1771021366 -1.7743198252 2.5162566848
2.0234687186 -2.1591275425 2.4981377891
1.8698924914 -2.5438686323 2.4778785420
1.7163729105 -2.9285422144 2.4555041044
1.5629094337 -3.3131474614 2.4310396268
1.4095015214 -3.6976835968 2.4045102485
1.2561486365 -4.0821498942 2.3759410955
1.1028502445 -4.4665456752 2.3453572803
0.9496058137 -4.8508703089 2.3127838999
0.7964148153 -5.2351232099 2.2782460355
0.6432767235 -5.6193038368 2.2417687510
0.4900766457 -6.0031939300 2.2034193195
0.3364993903 -6.3867754241 2.1632612443
0.1825727134 -6.7703382618 2.1212779427
0.0282823907 -7.1536965968 2.0775253938
-0.1263145698 -7.5364217270 2.0320949537
-0.2816181129 -7.9183289541 1.9850916451
-0.4361061024 -8.3020536621 1.9359435611
-0.5912210904 -8.6845107108 1.8853395507
-0.7465376405 -9.0673823514 1.8329741151
5.8161284855 6.1335154846 2.3451219156
5.6592127246 5.7502788927 2.3760126693
5.5025771626 5.3674645999 2.4042437540
5.3461821496 4.9850181339 2.4298502554
5.1899924296 4.6009620505 2.4529118050
5.0341317620 4.2177975969 2.4733718560
4.8786471065 3.8338939918 2.4912861296
4.7235915502 3.4497281814 2.5066585448
4.5689469321 3.0655058077 2.5195088363
4.4146793102 2.6807870582 2.5298589253
4.2603298992 2.2952635339 2.5377533097
4.1060434446 1.9097933223 2.5432058070
3.9518194031 1.5243779749 2.5462416081
3.7976572316 1.1390189782 2.5468859129
3.6435563873 0.7537177551 2.5451639286
3.4895163279 0.3684756646 2.5411008676
3.3355365119 -0.0167059963 2.5347219451
3.1816163984 -0.4018259923 2.5260523777
3.0277554481 -0.7868831489 2.5151173812
2.8739531228 -1.1718763511 2.5019421690
2.7202088859 -1.5568045420 2.4865519503
2.5665222024 -1.9416667227 2.4689719284
2.4128925391 -2.3264619498 2.4492272992
2.2593193649 -2.7111893351 2.4273432499
2.1058021509 -3.0958480440 2.4033449571
1.9523403702 -3.4804372938 2.3772575857
1.7989334984 -3.8649563531 2.3491062876
1.6455810139 -4.2494045396 2.3189162007
1.4922823972 -4.6337812193 2.2867124474
1.3390371318 -5.0180858050 2.2525201339
1.1858447038 -5.4023177544 2.2163643485
1.0327046023 -5.7864765693 2.1782701615
0.8795057090 -6.1703389010 2.1383080643
0.7259324943 -6.5538919973 2.0965440209
0.5720117023 -6.9374253628 2.0529590154
0.4171905114 -7.3198159687 2.0078255196
0.2626261641 -7.7022238337 1.9608583073
0.1078571543 -8.0853450333 1.9120119303
-0.0466252997 -8.4690357328 1.8612700413
-0.2017269669 -8.8514692220 1.8090863836
-0.3570295381 -9.2343133455 1.7551412607
6.2051959505 5.9661313510 2.3268067802
6.0483097789 5.5828922036 2.3560979859
5.8917021347 5.2000738970 2.3827312742
5.7353336211 4.8176221248 2.4067415933
5.5791703503 4.4335671034 2.4281925471
5.4233341871 4.0504008772 2.4470471114
5.2678725345 3.6664982424 2.4633471734
5.1128379208 3.2823343702 2.4771001062
4.9582120194 2.8981141003 2.4883275037
4.8039600441 2.5133973148 2.4970481174
4.6496220271 2.1278711316 2.5033083713
4.4953461049 1.7423999685 2.5071274194
4.3411317492 1.3569853334 2.5085304858
4.1869784319 0.9716286689 2.5075428025
4.0328856255 0.5863313531 2.5041896066
3.8788528030 0.2010946999 2.4984961388
3.7248794382 -0.1840800392 2.4904876412
3.5709650061 -0.5691916746 2.4801893553
3.4171089829 -0.9542390779 2.4676265201
3.2633108462 -1.3392211800 2.4528243708
3.1095700751 -1.7241369707 2.4358081365
2.9558861502 -2.1089854968 2.4166030391
2.8022585545 -2.4937658611 2.3952342912
2.6486867722 -2.8784772215 2.3717270954
2.4951702903 -3.2631187886 2.3461066421
2.3417085977 -3.6476898258 2.3183981088
2.1883011853 -4.0321896462 2.2886266582
2.0349475471 -4.4166176126 2.2568174379
1.8816471788 -4.8009731352 2.2229955786
1.7283995793 -5.1852556704 2.1871861932
1.5752042500 -5.5694647193 2.1494143761
1.4220606946 -5.9535998262 2.1097052021
1.2682856730 -6.3368864920 2.0682865738
1.1147269672 -6.7203273430 2.0249339820
0.9608252996 -7.1037096634 1.9797713086
0.8062392827 -7.4856460790 1.9331046416
0.6520134500 -7.8692120508 1.8843090301
0.4967302590 -8.2509832451 1.8341788174
0.3417792218 -8.6327477729 1.7822605862
0.1866490814 -9.0147859801 1.7285877147
0.0312879934 -9.3971082237 1.6731849608
6.5942359224 5.7987279910 2.3034126626
6.4373782994 5.4154883480 2.3311046830
6.2807975370 5.0326679889 2.3561405591
6.1244544939 4.6502127839 2.3785550968
5.9683163657 4.2661611513 2.3983960381
5.8125034588 3.8829952557 2.4156456917
5.6570633627 3.4990959293 2.4303322565
5.5020481027 3.1149364421 2.4424665312
5.3474392239 2.7307207712 2.4520719510
5.1932010458 2.3460086114 2.4591641265
5.0388725205 1.9604826290 2.4637913360
4.8846052499 1.5750133322 2.4659780825
4.7303987215 1.1896021838 2.4657496216
4.5762524226 0.8042505811 2.4631312153
4.4221658416 0.4189598560 2.4581481289
4.2681384673 0.0337312764 2.4508256294
4.1141697897 -0.3514339527 2.4411889835
3.9602593000 -0.7365346889 2.4292634557
3.8064064901 -1.1215698503 2.4150743063
3.6526108541 -1.5065384148 2.3986467902
3.4988718869 -1.8914394191 2.3800061544
3.3451890855 -2.2762719566 2.3591776373
3.1915619488 -2.6610351769 2.3361864666
3.0379899772 -3.0457282841 2.3110578579
2.8844726735 -3.4303505350 2.2838170138
2.7310095422 -3.8149012383 2.2544891219
2.5776000905 -4.1993797529 2.2230993545
2.4242438274 -4.5837854860 2.1896728666
2.2709402647 -4.9681178922 2.1542347953
2.1176889161 -5.3523764718 2.1168102587
1.9639065340 -5.7360615786 2.0775739987
1.8107589879 -6.1201726337 2.0362553133
1.6575707018 -6.5039320551 1.9930827842
1.5036140609 -6.8865593054 1.9483129791
1.3497488472 -7.2697547557 1.9015801277
1.1946000849 -7.6508355810 1.8535596247
1.0394688874 -8.0320100073 1.8037291165
0.8841097049 -8.4134379892 1.7521136838
0.7290237987 -8.7947816784 1.6987329041
0.5736772243 -9.1762820040 1.6436344995
0.4179589617 -9.5578917699 1.5868640174
6.9832425910 5.6313108441 2.2749654062
6.8264124986 5.2480727227 2.3010586816
6.6698576060 4.8652522305 2.3244976041
6.5135390292 4.4827954264 2.3453168332
6.3574247712 4.0987494558 2.3635484344
6.2016339064 3.7155859455 2.3791938345
6.0462139622 3.3316922087 2.3922677076
5.8912165149 2.9475394921 2.4027842448
5.7366230179 2.5633308514 2.4107687020
5.5823968478 2.1786259099 2.4162335819
5.4280759765 1.7931029163 2.4192289434
5.2738155432 1.4076382291 2.4197846432
5.1196150512 1.0222332651 2.4179259672
4.9654740044 0.6368893745 2.4136782048
4.8113919073 0.2516078425 2.4070666477
4.6573682653 -0.1336101103 2.3981165870
4.5034025848 -0.5187633267 2.3868533122
4.3494943732 -0.9038507117 2.3733021087
4.1956431394 -1.2888712311 2.3574882562
4.0418483935 -1.6738239102 2.3394370268
3.8881096472 -2.0587078332 2.3191736838
3.7344264137 -2.4435221409 2.2967234799
3.5807982080 -2.8282660295 2.2721116558
3.4272245471 -3.2129387499 2.2453634386
3.2737049496 -3.5975396054 2.2165040405
3.1202389361 -3.9820679502 2.1855586580
2.9668260297 -4.3665231886 2.1525524704
2.8128868024 -4.7504070321 2.1176574745
2.6595794964 -5.1347158762 2.0806086915
2.5063239045 -5.5189501510 2.0415744838
2.3531195576 -5.9031094420 2.0005799516
2.1995279663 -6.2865817743 1.9578119622
2.0463559409 -6.6702521194 1.9130440232
1.8915695099 -7.0515750821 1.8670268762
1.7364506030 -7.4322883520 1.8193253516
1.5811913740 -7.8131173561 1.7698103261
1.4258951358 -8.1939840481 1.7185047065
1.2702889230 -8.5750308615 1.6654423511
1.1148025020 -8.9559145719 1.6106521495
0.9600843482 -9.3374235162 1.5539162996
0.8051807944 -9.7191987601 1.4954540582
7.3722103928 5.4638851902 2.2414910908
7.2154068376 5.0806505608 2.2659861362
7.0588768292 4.6978318107 2.2878286354
6.9025817418 4.3153751982 2.3070530972
6.7464901187 3.9313371056 2.3236761154
6.5907201183 3.5481779825 2.3377179967
6.4353189658 3.1642920565 2.3491800704
6.2803378414 2.7801484313 2.3580798816
6.1257581412 2.3959491840 2.3644444848
5.9715422538 2.0112539797 2.3682833110
5.8172272667 1.6257366864 2.3696481245
5.6629719256 1.2402792738 2.3685741339
5.5087757504 0.8548831108 2.3650866527
5.3546382617 0.4695495002 2.3592109963
5.2005589808 0.0842796790 2.3509724800
5.0465374300 -0.3009251807 2.3403964177
4.8925731325 -0.6860639697 2.3275081191
