-7.4921917908 0.9924419858 1.3323839801
-7.6474419171 0.6129830423 1.3463601265
-7.8026419993 0.2335257534 1.3582940364
-7.9577925563 -0.1459291026 1.3682096982
-8.1128941081 -0.5253807629 1.3761311062
-8.2679471756 -0.9048284809 1.3820822591
-8.4229522806 -1.2842715256 1.3860871602
-8.5779099456 -1.6637091816 1.3881698165
-8.7326240740 -2.0428573609 1.3883660045
-8.8872888442 -2.4217569699 1.3866806524
-9.0420483620 -2.8005654609 1.3831294971
-9.1969509756 -3.1792026398 1.3777300862
-9.3520718077 -3.5575077698 1.3704958476
-9.5072200832 -3.9360235122 1.3614915830
-9.6627428062 -4.3139405809 1.3506809314
-9.8183357002 -4.6919009162 1.3381418878
-9.9740377612 -5.0699102642 1.3238935212
-3.3673687130 9.9204912168 0.4398305892
-3.5241968604 9.5430793730 0.5078559180
-3.6809653460 9.1656804092 0.5732803662
-3.8376779712 8.7882858909 0.6361292820
-3.9945548683 8.4108035408 0.6964112288
-4.1513268495 8.0333678605 0.7541646750
-4.3081195864 7.6558995333 0.8094100387
-4.4648653289 7.2784286813 0.8621758178
-4.6215335114 6.9009624380 0.9124894194
-4.7781324192 6.5234724008 0.9603787835
-4.9346759755 6.1449421317 1.0060447349
-5.0911625363 5.7665536734 1.0492949383
-5.2474905068 5.3878808691 1.0902415555
-5.4036095352 5.0089104419 1.1289136413
-5.5594155213 4.6294604071 1.1653730129
-5.7151660758 4.2500028748 1.1995265969
-5.8708616920 3.8705387920 1.2313983012
-6.0265028666 3.4910690907 1.2610120454
-6.1820900994 3.1115946883 1.2883917583
-6.3376238932 2.7321164863 1.3135613794
-6.4931047537 2.3526353710 1.3365448566
-6.6485331889 1.9731522129 1.3573661471
-6.8039097094 1.5936678669 1.3760492160
-6.9592348277 1.2141831716 1.3926180360
-7.1145090581 0.8346989498 1.4070965873
-7.2697329171 0.4552160083 1.4195088562
-7.4249069221 0.0757351374 1.4298788356
-7.5800315922 -0.3037428882 1.4382305237
-7.7351074476 -0.6832173105 1.4445879240
-7.8901350091 -1.0626873872 1.4489750446
-8.0451147985 -1.4421523922 1.4514158978
-8.2000473381 -1.8216116153 1.4519344992
-8.3548463773 -2.2008331755 1.4505558213
-8.5095518457 -2.5797853700 1.4473012446
-8.6643553400 -2.9586568384 1.4421820361
-8.8193023629 -3.3373669927 1.4352165769
-8.9744613749 -3.7157541861 1.4264201269
-9.1296569987 -4.0943713677 1.4158519340
-9.2852070448 -4.4723969693 1.4034846550
-9.4408347598 -4.8504878799 1.3893882795
-9.5965805507 -5.2286564430 1.3735816824
-2.9900104232 9.7641302758 0.5463414700
-3.1469240102 9.3866094475 0.6128187514
-3.3037458385 9.0091191394 0.6766958025
-3.4604903157 8.6316472467 0.7379973102
-3.6173903368 8.2540881723 0.7967336258
-3.7741735587 7.8765876329 0.8529404505
-3.9309713259 7.4990606830 0.9066389737
-4.0877149493 7.1215397770 0.9578571938
-4.2443723991 6.7440336292 1.0066223978
-4.4009389414 6.3665297304 1.0529616740
-4.5574466578 5.9879707652 1.0970763536
-4.7137950310 5.6091818435 1.1388524735
-4.8700913478 5.2305096099 1.1782391147
-5.0259247953 4.8510381074 1.2154630811
-5.1817025202 4.4715586411 1.2503571823
-5.3374250139 4.0920721722 1.2829453279
-5.4930927706 3.7125796467 1.3132514382
-5.6487062886 3.3330819956 1.3412994446
-5.8042660687 2.9535801341 1.3671132883
-5.9597726147 2.5740749619 1.3907169203
-6.1152264332 2.1945673627 1.4121343008
-6.2706280332 1.8150582038 1.4313893982
-6.4259779255 1.4355483371 1.4485061892
-6.5812766235 1.0560385973 1.4635086580
-6.7365246420 0.6765298033 1.4764207957
-6.8917224976 0.2970227575 1.4872665999
-7.0468707081 -0.0824817544 1.4960700739
-7.2019697926 -0.4619829630 1.5028552269
-7.3570202713 -0.8414801153 1.5076460724
-7.5120226650 -1.2209724748 1.5104666289
-7.6669774953 -1.6004593209 1.5113409183
-7.8218852843 -1.9799399501 1.5102929662
-7.9767255246 -2.3592317106 1.5073427404
-8.1315853213 -2.7383042972 1.5025064344
-8.2864304302 -3.1172665806 1.4958182349
-8.4414189404 -3.4960817604 1.4872857254
-8.5966132917 -3.8745874420 1.4769259935
-8.7518522165 -4.2533494665 1.4647923949
-8.9074265203 -4.6315322187 1.4508669666
-9.0630844783 -5.0098125556 1.4352113826
-9.2188670254 -5.3882120299 1.4178441950
-2.6122270766 9.6077623615 0.6474696103
-2.7693011336 9.2301316049 0.7123893434
-2.9262304803 8.8525443104 0.7747130380
-3.0830472713 8.4749881796 0.8344631327
-3.2400031162 8.0973448234 0.8916509387
-3.3968232512 7.7197726473 0.9463089719
-3.5536478590 7.3421804293 0.9984589364
-3.7104084480 6.9646029985 1.0481281628
-3.8670724960 6.5870503700 1.0953437328
-4.0235637574 6.2091825507 1.1401992608
-4.1800540322 5.8306336193 1.1827516125
-4.3363770027 5.4518396636 1.2229676655
-4.4922376382 5.0723461349 1.2609786832
-4.6480422717 4.6928442003 1.2966357461
-4.8037913922 4.3133348354 1.3299627651
-4.9594854925 3.9338190003 1.3609836627
-5.1151250685 3.5542976398 1.3897223724
-5.2707106197 3.1747716830 1.4162028387
-5.4262426479 2.7952420431 1.4404490155
-5.5817216580 2.4157096168 1.4624848665
-5.7371481575 2.0361752849 1.4823343645
-5.8925226562 1.6566399111 1.5000214905
-6.0478456658 1.2771043433 1.5155702333
-6.2031176998 0.8975694120 1.5290045892
-6.3583392739 0.5180359312 1.5403485611
-6.5135109045 0.1385046985 1.5496261581
-6.6686331100 -0.2410235060 1.5568613954
-6.8237064095 -0.6205479184 1.5620782929
-6.9787313231 -1.0000677918 1.5653008754
-7.1337083714 -1.3795823958 1.5665531718
-7.2886380758 -1.7590910171 1.5658592146
-7.4435209579 -2.1385929580 1.5632430397
-7.5983798091 -2.5179543089 1.5587223462
-7.7533239680 -2.8971410653 1.5523110787
-7.9083342649 -3.2762715634 1.5440408187
-8.0633567959 -3.6552171017 1.5339405112
-8.2185786035 -4.0338687608 1.5220165230
-8.3738507512 -4.4128074225 1.5083160911
-8.5294393260 -4.7911810218 1.4928308468
-8.6851140062 -5.1696895724 1.4756139776
-8.8409143383 -5.5483637793 1.4566836327
-2.2339906375 9.4513138163 0.7432493549
-2.3913140447 9.0735965124 0.8065968438
-2.5484137446 8.6959205625 0.8673582977
-2.7053492002 8.3182817986 0.9255512131
-2.8623975108 7.9405522101 0.9811865284
-3.0192833427 7.5629052144 1.0342928664
-3.1761589483 7.1852435710 1.0848920584
-3.3329574174 6.8076049581 1.1330105066
-3.4896468130 6.4300008161 1.1786749290
-3.6461231559 6.0518418230 1.2220227288
-3.8024909391 5.6729529654 1.2630843506
-3.9583782772 5.2934368895 1.3019052608
-4.1142093426 4.9139119819 1.3383481130
-4.2699846224 4.5343792330 1.3724368200
-4.4257046074 4.1548396173 1.4041953066
-4.5813697919 3.7752940940 1.4336475094
-4.7369806732 3.3957436060 1.4608173755
-4.8925377519 3.0161890801 1.4857288628
-5.0480415313 2.6366314266 1.5084059391
-5.2034925174 2.2570715394 1.5288725814
-5.3588912183 1.8775102953 1.5471527755
-5.5142381449 1.4979485543 1.5632705156
-5.6695338092 1.1183871595 1.5772498031
-5.8247787257 0.7388269368 1.5891146470
-5.9799734100 0.3592686948 1.5988890625
-6.1351183793 -0.0202867746 1.6065970711
-6.2902141517 -0.3998386971 1.6122626995
-6.4452612467 -0.7793863151 1.6159099794
-6.6002601839 -1.1589288884 1.6175629471
-6.7552114841 -1.5384656937 1.6172456425
-6.9101156683 -1.9179960243 1.6149821089
-7.0649732576 -2.2975191906 1.6107963928
-7.2198376778 -2.6769494947 1.6047052027
-7.3748289997 -3.0562465166 1.5967216008
-7.5299317475 -3.4355310969 1.5868754756
-7.6851337760 -3.8146992982 1.5751919203
-7.8403712195 -4.1935183961 1.5617025039
-7.9956615756 -4.5726571886 1.5464335846
-8.1512480495 -4.9512448238 1.5293866345
-8.3069173349 -5.3300054210 1.5106062287
-8.4627044088 -5.7089761273 1.4901101863
-1.8552337638 9.2946802338 0.8337236746
-2.0123417785 8.9166630910 0.8956032026
-2.1697914488 8.5390490973 0.9547520524
-2.3269800844 8.1614102571 1.0113560118
-2.4842235072 7.7836432151 1.0654175716
-2.6412579240 7.4059471000 1.1169575342
-2.7982515159 7.0282301166 1.1659953600
-2.9551433178 6.6505369294 1.2125551455
-3.1118364628 6.2725279280 1.2567307081
-3.2679545431 5.8935949429 1.2986889845
-3.4238667429 5.5140544847 1.3383406041
-3.5797224317 5.1345048286 1.3755900219
-3.7355220948 4.7549469798 1.4104611537
-3.8912662215 4.3753819279 1.4429779284
-4.0469553044 3.9958106467 1.4731642864
-4.2025898392 3.6162340934 1.5010441796
-4.3581703252 3.2366532087 1.5266415710
-4.5136972645 2.8570689167 1.5499804337
-4.6691711614 2.4774821244 1.5710847506
-4.8245925232 2.0978937218 1.5899785139
-4.9799618591 1.7183045814 1.6066857239
-5.1352796805 1.3387155584 1.6212303894
-5.2905465005 0.9591274905 1.6336365264
-5.4457628338 0.5795411980 1.6439281577
-5.6009291966 0.1999574835 1.6521293127
-5.7560461063 -0.1796228678 1.6582640259
-5.9111140812 -0.5591990887 1.6623563378
-6.0661336405 -0.9387704287 1.6644302929
-6.2211053041 -1.3183361553 1.6645099401
-6.3760295921 -1.6978955532 1.6626193317
-6.5309070251 -2.0774479240 1.6587825232
-6.6857381239 -2.4569925868 1.6530235725
-6.8405965339 -2.8364845279 1.6453589588
-6.9956062161 -3.2158760228 1.6358019238
-7.1507517472 -3.5952877745 1.6243809120
-7.3060392459 -3.9746299586 1.6111195748
-7.4614425694 -4.3536966583 1.5960467648
-7.6169371835 -4.7331691235 1.5791862869
-7.7724597326 -5.1119742263 1.5605777646
-7.9280383674 -5.4909705365 1.5402354965
-8.0836905057 -5.8701838529 1.5181786330
-1.4761181006 9.1378572063 0.9188843544
-1.6335746198 8.7599012538 0.9791542013
-1.7907901190 8.3819691433 1.0368389412
-1.9478187284 8.0040851964 1.0919524553
-2.1049468119 7.6261212564 1.1445082239
-2.2618934428 7.2482629434 1.1945306509
-2.4188142771 6.8704123607 1.2420432054
-2.5755356550 6.4921856435 1.2871545451
-2.7316184811 6.1131261477 1.3300088822
-2.8875083472 5.7338543599 1.3704665195
-3.0433828511 5.3542756409 1.4085401581
-3.1992011773 4.9746885018 1.4442112633
-3.3549638135 4.5950939483 1.4775037706
-3.5106712515 4.2154929699 1.5084416276
-3.6663239862 3.8358865389 1.5370487938
-3.8219225157 3.4562756113 1.5633492403
-3.9774673409 3.0766611252 1.5873669487
-4.1329589655 2.6970440017 1.6091259109
-4.2883978957 2.3174251440 1.6286501282
-4.4437846396 1.9378054377 1.6459636108
-4.5991197080 1.5581857505 1.6610903774
-4.7544036128 1.1785669319 1.6740544542
-4.9096368679 0.7989498135 1.6848798747
-5.0648199887 0.4193352089 1.6935906790
-5.2199534916 0.0397239136 1.7002109132
-5.3750378940 -0.3398832952 1.7047646284
-5.5300737143 -0.7194856581 1.7072758811
-5.6850614716 -1.0990824335 1.7077687319
-5.8400016850 -1.4786728980 1.7062672449
-5.9948948744 -1.8582563455 1.7027954877
-6.1497415596 -2.2378320879 1.6973775304
-6.3045422604 -2.6173994541 1.6900374453
-6.4593697011 -2.9969105798 1.6807929393
-6.6143489239 -3.3763195530 1.6696589446
-6.7694644639 -3.7557476168 1.6566627335
-6.9247226009 -4.1351052330 1.6418287824
-7.0800975014 -4.5141871556 1.6251873837
-7.2355633897 -4.8936732002 1.6067564161
-7.3910587138 -5.2724931452 1.5865837337
-7.5466100869 -5.6515032970 1.5646768113
-7.7022349399 -6.0307292901 1.5410547826
-1.0971965752 8.9812010430 0.9986160454
-1.2544362498 8.6028818978 1.0574259917
-1.4115047461 8.2246711696 1.1136230719
-1.5684271115 7.8465648288 1.1672311694
-1.7254748741 7.4684172778 1.2182711611
-1.8823578041 7.0904043773 1.2667690813
-2.0388185268 6.7114769437 1.3129511338
-2.1950695868 6.3324227556 1.3566785557
-2.3511147837 5.9533314509 1.3979590338
-2.5069666763 5.5740262200 1.4368397998
-2.6628043530 5.1944104870 1.4733347042
-2.8185861973 4.8147871248 1.5074267717
-2.9743126994 4.4351571382 1.5391399571
-3.1299843530 4.0555215156 1.5684982275
-3.2856016551 3.6758812277 1.5955255619
-3.4411651053 3.2962372271 1.6202459505
-3.5966752060 2.9165904491 1.6426833940
-3.7521324621 2.5369418106 1.6628619030
-3.9075373809 2.1572922101 1.6808054973
-4.0628904714 1.7776425279 1.6965382057
-4.2181922449 1.3979936258 1.7100840647
-4.3734432137 1.0183463468 1.7214671183
-4.5286438922 0.6387015155 1.7307114176
-4.6837947955 0.2590599379 1.7378410196
-4.8388964400 -0.1205775987 1.7428799870
-4.9939493431 -0.5002103256 1.7458523879
-5.1489540223 -0.8798374924 1.7467822944
-5.3039109959 -1.2594583671 1.7456937828
-5.4588207827 -1.6390722360 1.7426109326
-5.6136839013 -2.0186784037 1.7375578262
-5.7685008702 -2.3982761923 1.7305585480
-5.9232722079 -2.7778649419 1.7216371847
-6.0780696768 -3.1573939612 1.7108126972
-6.2330193417 -3.5368191931 1.6981016958
-6.3881057230 -3.9162623797 1.6835302709
-6.5433352432 -4.2956343000 1.6671237201
-6.6986823513 -4.6747304426 1.6489137667
-6.8541201611 -5.0542289594 1.6289123744
-7.0095887604 -5.4330628776 1.6071755956
-7.1651133650 -5.8120859616 1.5837041041
-7.3207114160 -6.1913236762 1.5585170206
-0.7174210320 8.8234978301 1.0732848907
-0.8745903981 8.4449145113 1.1305909170
-1.0316041608 8.0664987839 1.1852690622
-1.1884811213 7.6882270072 1.2373484621
-1.3452670407 7.3092354455 1.2869945277
-1.5018712829 6.9306142513 1.3340538724
-1.6582958073 6.5516572258 1.3786657800
-1.8145101449 6.1725728145 1.4208205241
-1.9705184700 5.7934508243 1.4605265163
-2.1263332402 5.4141133548 1.4978297496
-2.2821349820 5.0344618839 1.5327452238
-2.4378812482 4.6548035857 1.5652575861
-2.5935725310 4.2751394640 1.5953908114
-2.7492093257 3.8954705045 1.6231688863
-2.9047921306 3.5157976751 1.6486158097
-3.0603214464 3.1361219250 1.6717555912
-3.2157977768 2.7564441847 1.6926122503
-3.3712216274 2.3767653664 1.7112098168
-3.5265935059 1.9970863628 1.7275723290
-3.6819139218 1.6174080480 1.7417238341
-3.8371833865 1.2377312770 1.7536883866
-3.9924024124 0.8580568852 1.7634900484
-4.1475715134 0.4783856894 1.7711528876
-4.3026912047 0.0987184869 1.7767009785
-4.4577620015 -0.2809439439 1.7801584005
-4.6127844207 -0.6606008435 1.7815492377
-4.7677589788 -1.0402514716 1.7808975782
-4.9226861932 -1.4198951066 1.7782275137
-5.0775665810 -1.7995310454 1.7735631387
-5.2324006596 -2.1791586036 1.7669285501
-5.3871889459 -2.5587771148 1.7583478468
-5.5419319565 -2.9383859308 1.7478451287
-5.6967004508 -3.3179315590 1.7354406361
-5.8516214579 -3.6973718381 1.7211526410
-6.0066795109 -4.0768289676 1.7050060450
-6.1618811561 -4.4562140747 1.6870269615
-6.3172010998 -4.8353234445 1.6672485329
-6.4726114748 -5.2148333395 1.6456768295
-6.6280538457 -5.5936803728 1.6223760556
-6.7835521709 -5.9727154916 1.5973401186
-6.9391238979 -6.3519639866 1.5705881296
-0.3370153835 8.6637591133 1.1430336180
-0.4941502129 8.2851483944 1.1987763883
-0.6511300738 7.9067053854 1.2518916897
-0.8079736929 7.5284064339 1.3024086474
-0.9647239701 7.1493866379 1.3504861865
-1.1212937403 6.7707377305 1.3959787315
-1.2776826914 6.3917521645 1.4390199419
-1.4338610154 6.0126386420 1.4796014367
-1.5898332465 5.6334871116 1.5177323669
-1.7456117665 5.2541186320 1.5534574623
-1.9013784871 4.8744327251 1.5867928691
-2.0570900994 4.4947408032 1.6177249189
-2.2127470968 4.1150438672 1.6462776067
-2.3683499760 3.7353428999 1.6724749393
-2.5238992362 3.3556388649 1.6963409352
-2.6793953788 2.9759327068 1.7178996234
-2.8348389081 2.5962253510 1.7371750428
-2.9902303297 2.2165177033 1.7541912421
-3.1455701517 1.8368106501 1.7689722783
-3.3008588834 1.4571050582 1.7815422167
-3.4560970358 1.0774017744 1.7919251301
-3.6112851211 0.6977016263 1.8001450977
-3.7664236522 0.3180054216 1.8062262050
-3.9215131433 -0.0616860518 1.8101925432
-4.0765541090 -0.4413720253 1.8120682081
-4.2315470644 -0.8210517499 1.8118772997
-4.3864925251 -1.2007244958 1.8096439217
-4.5413910066 -1.5803895525 1.8053921812
-4.6962430243 -1.9600462285 1.7991461872
-4.8510490938 -2.3396938511 1.7909300510
-5.0058097298 -2.7193317662 1.7807678851
-5.1605254470 -3.0989593379 1.7686838030
-5.3152659604 -3.4785203002 1.7546993464
-5.4701592056 -3.8579744260 1.7388344302
-5.6251897561 -4.2374443313 1.7211127622
-5.7803642634 -4.6168415212 1.7015612646
-5.9356576652 -4.9959631381 1.6802144850
-6.0910412431 -5.3754833330 1.6570726315
-6.2464578766 -5.7543426357 1.6322080009
-6.4019304055 -6.1333889063 1.6056077794
-6.5574762806 -6.5126472569 1.5772910723
0.0434799120 8.5039322442 1.2074458289
-0.1136207724 8.1252950246 1.2616248599
-0.2705671349 7.7468255922 1.3131768614
-0.4273778251 7.3685002875 1.3621309447
-0.5840930067 6.9894533045 1.4086394387
-0.7406288412 6.6107776335 1.4525647181
-0.8969828612 6.2317645971 1.4940347241
-1.0531258985 5.8526230949 1.5330424476
-1.2090628315 5.4734431891 1.5695977924
-1.3648059919 5.0940449482 1.6037442025
-1.5205386236 4.7143259309 1.6354989654
-1.6762165234 4.3346017188 1.6648501571
-1.8318401859 3.9548733097 1.6918217928
-1.9874101085 3.5751416819 1.7164378994
-2.1429267905 3.1954077938 1.7387225152
-2.2983907340 2.8156725847 1.7586996887
-2.4538024429 2.4359369733 1.7763934783
-2.6091624231 2.0562018587 1.7918279513
-2.7644711819 1.6764681195 1.8050271835
-2.9197292282 1.2967366144 1.8160152584
-3.0749370722 0.9170081815 1.8248162666
-3.2300952249 0.5372836390 1.8314543047
-3.3852041984 0.1575637848 1.8359534756
-3.5402645052 -0.2221506033 1.8383378867
-3.6952766587 -0.6018587675 1.8386316501
-3.8502411721 -0.9815599699 1.8368588816
-4.0051585590 -1.3612534924 1.8330437002
-4.1600293332 -1.7409386361 1.8272102278
-4.3148540077 -2.1206147222 1.8193825876
-4.4696330956 -2.5002810901 1.8095849051
-4.6243671096 -2.8799370987 1.7978413059
-4.7790565614 -3.2595821253 1.7841759166
-4.9337700812 -3.6391571594 1.7686116006
-5.0886364536 -4.0186239455 1.7511698946
-5.2436403200 -4.3981054746 1.7318733089
-5.3987884191 -4.7775136591 1.7107495666
-5.5540558946 -5.1566465584 1.6878346037
-5.7094133053 -5.5361759934 1.6631228079
-5.8648046855 -5.9150467345 1.6366944947
-6.0202518938 -6.2941032900 1.6085301859
-6.1757723809 -6.6733705893 1.5786489848
0.4240612544 8.3440199968 1.2665425663
0.2669943083 7.9653571915 1.3191574086
0.1100810262 7.5868622091 1.3691456875
-0.0466971611 7.2085113873 1.4165364971
-0.2033778097 6.8294382817 1.4614754704
-0.3598802591 6.4507368115 1.5038330585
-0.5162000061 6.0716973910 1.5437313994
-0.6723084994 5.6925290574 1.5811648805
-0.8282109458 5.3133219579 1.6161441706
-0.9839196533 4.9338952228 1.6487114070
-1.1396191437 4.5541444401 1.6788850122
-1.2952642872 4.1743892899 1.7066548633
-1.4508555786 3.7946307653 1.7320449960
-1.6063935154 3.4148698391 1.7550794575
-1.7618785971 3.0351074642 1.7757823057
-1.9173113255 2.6553445726 1.7941776087
-2.0726922038 2.2755820760 1.8102894441
-2.2280217375 1.8958208653 1.8241418982
-2.3833004329 1.5160618107 1.8357590652
-2.5385287978 1.1363057617 1.8451650466
-2.6937073412 0.7565535466 1.8523839507
-2.8488365726 0.3768059737 1.8574398915
-3.0039170026 -0.0029361700 1.8603569883
-3.1589491417 -0.3826721177 1.8611593651
-3.3139335012 -0.7624011233 1.8598711498
-3.4688705924 -1.1421224609 1.8565164737
-3.6237609266 -1.5218354245 1.8511194707
-3.7786050147 -1.9015393281 1.8437042770
-3.9334033675 -2.2812335054 1.8342950299
-4.0881564953 -2.6609173097 1.8229158681
-4.2428649079 -3.0405901131 1.8095909305
-4.3975291138 -3.4202513067 1.7943443558
-4.5522166178 -3.7998391662 1.7772003479
-4.7070569970 -4.1793174432 1.7581820406
-4.8620349879 -4.5588094624 1.7373107453
-5.0171573987 -4.9382275719 1.7146149769
-5.1723995547 -5.3173708059 1.6901320414
-5.3277314181 -5.6969084413 1.6638505554
-5.4830980206 -6.0757898061 1.6358587687
-5.6385203752 -6.4548557979 1.6061306052
-5.7940159291 -6.8341311593 1.5746851695
0.8047250356 8.1840251810 1.3203450349
0.6476914069 7.8053377191 1.3713952745
0.4908107741 7.4268180731 1.4198194427
0.3340646515 7.0484425829 1.4656466134
0.1774179591 6.6693444332 1.5090156345
0.0209483314 6.2906181413 1.5498051466
-0.1353378141 5.9115534370 1.5881314099
-0.2914125195 5.5323594344 1.6239902295
-0.4472813038 5.1531263371 1.6573930506
-0.6029564780 4.7736723892 1.6883806858
-0.7586237878 4.3938912030 1.7169726831
-0.9142371425 4.0141064817 1.7431607756
-1.0697970369 3.6343192126 1.7669690194
-1.2253039683 3.2545303623 1.7884214819
-1.3807584355 2.8747408763 1.8075422408
-1.5361609395 2.4949516794 1.8243553837
-1.6915119827 2.1151636745 1.8388850073
-1.8468120694 1.7353777437 1.8511552166
-2.0020617045 1.3555947477 1.8611901240
-2.1572613942 0.9758155258 1.8690138490
-2.3124116459 0.5960408959 1.8746505171
-2.4675129670 0.2162716550 1.8781242593
-2.6225658659 -0.1634914213 1.8794592116
-2.7775708512 -0.5432475783 1.8786795138
-2.9325284314 -0.9229960822 1.8758093093
-3.0874391154 -1.3027362198 1.8708727445
-3.2423034115 -1.6824672981 1.8638939676
-3.3971218280 -2.0621886447 1.8548971289
-3.5518948725 -2.4418996069 1.8439063793
-3.7066230522 -2.8215995519 1.8309458703
-3.8613068734 -3.2012878660 1.8160397533
-4.0159468414 -3.5809639547 1.7992121790
-4.1706092952 -3.9605634122 1.7804887074
-4.3254245482 -4.3400520303 1.7598940433
-4.4803774604 -4.7195534262 1.7374482991
-4.6354748912 -5.0989804117 1.7131807708
-4.7906923235 -5.4781330523 1.6871301142
-4.9459992482 -5.8576778713 1.6592792340
-5.1013415386 -6.2365690636 1.6297242161
-5.2567394960 -6.6156436627 1.5984324640
-5.4122105606 -6.9949262212 1.5654230874
1.1854676478 8.0239506365 1.3688746032
1.0284669032 7.6452394587 1.4183598623
0.8716184772 7.2666960466 1.4652195675
0.7149039701 6.8882967473 1.5094827687
0.5582906447 6.5091746441 1.5512814514
0.4018532643 6.1304245188 1.5905025456
0.2456000378 5.7513356421 1.6272563672
0.0895583529 5.3721171442 1.6615401597
-0.0662776044 4.9928592558 1.6933661541
-0.2219201750 4.6133793883 1.7227738216
-0.3775562744 4.2335691738 1.7497838256
-0.5331388165 3.8537562600 1.7743898066
-0.6886682957 3.4739416274 1.7966158413
-0.8441452078 3.0941262353 1.8164860170
-0.9995700513 2.7143110211 1.8340244312
-1.1549433256 2.3344969006 1.8492551910
-1.3102655318 1.9546847677 1.8622024118
-1.4655371724 1.5748754945 1.8728902171
-1.6207587505 1.1950699310 1.8813427374
-1.7759307704 0.8152689056 1.8875841097
-1.9310537370 0.4354732249 1.8916384767
-2.0861281554 0.0556836736 1.8935299859
-2.2411545316 -0.3240989848 1.8932827895
-2.3961333712 -0.7038740085 1.8909210427
-2.5510651801 -1.0836406768 1.8864689043
-2.7059504638 -1.4633982900 1.8799505348
-2.8607897277 -1.8431461691 1.8713900969
-3.0155834767 -2.2228836556 1.8608117541
-3.1703322149 -2.6026101114 1.8482396703
-3.3250364460 -2.9823249179 1.8336980096
-3.4796966726 -3.3620274765 1.8172109351
-3.6343133964 -3.7417172074 1.7988026090
-3.7889517504 -4.1213270568 1.7784999615
-3.9437427301 -4.5008248885 1.7563292387
-4.0986713456 -4.8803345710 1.7323093569
-4.2537444910 -5.2597694068 1.7064703813
-4.4089377830 -5.6389305471 1.6788522947
-4.5642203637 -6.0184815578 1.6494323577
-4.7195387966 -6.3973818007 1.6183143831
-4.8749128019 -6.7764641997 1.5854593409
-5.0303598091 -7.1557531141 1.5508863492
1.5662854922 7.8637992252 1.4121528035
1.4093171871 7.4850652818 1.4600727419
1.2525005155 7.1064990105 1.5053676681
1.0958171655 6.7280767699 1.5480666055
0.9392366074 6.3489318131 1.5882946098
0.7828308913 5.9701588509 1.6259469869
0.6266098918 5.5910469222 1.6611280528
0.4706004514 5.2118051110 1.6938365065
0.3147964781 4.8325236465 1.7240853731
0.1591855739 4.4530191611 1.7519127690
0.0035797079 4.0731813034 1.7773404596
-0.1519730034 3.6933415840 1.8003640421
-0.3074730528 3.3135009755 1.8210076134
-0.4629209356 2.9336604288 1.8392952809
-0.6183171480 2.5538208722 1.8552511616
-0.7736621881 2.1739832116 1.8688993816
-0.9289565549 1.7941483309 1.8802640752
-1.0842007486 1.4143170909 1.8893693839
-1.2393952703 1.0344903305 1.8962394561
-1.3945406216 0.6546688662 1.9008984459
-1.5496373044 0.2748534920 1.9033705127
-1.7046858217 -0.1049550200 1.9036798203
-1.8596866757 -0.4847559196 1.9018505363
-2.0146403694 -0.8645484787 1.8979068315
-2.1695474049 -1.2443319903 1.8918728789
-2.3244082845 -1.6241057690 1.8837728533
-2.4792235101 -2.0038691504 1.8736309307
-2.6339935827 -2.3836214907 1.8614712876
-2.7887190027 -2.7633621665 1.8473181005
-2.9434002697 -3.1430905748 1.8311955450
-3.0980378823 -3.5228061321 1.8131277959
-3.2526323381 -3.9025082744 1.7931390259
-3.4072475251 -4.2821273342 1.7712575477
-3.5620150672 -4.6616332763 1.7475111167
-3.7169201516 -5.0411501806 1.7219174572
-3.8719696905 -5.4205918663 1.6945073908
-4.0271394117 -5.7997606224 1.6653222032
-4.1823982284 -6.1793168596 1.6343335867
-4.3376932459 -6.5582253976 1.6016529604
-4.4930437312 -6.9373148124 1.5672349573
-4.6484670997 -7.3166092662 1.5310987070
1.9471749875 7.7035738242 1.4502013331
1.7902386680 7.3248180730 1.4965556487
1.6334532894 6.9462298563 1.5402855176
1.4768006308 6.5677855491 1.5814199329
1.3202522318 6.1886188453 1.6200769656
1.1638775896 5.8098240491 1.6561603704
1.0076881183 5.4306901944 1.6897684168
0.8517101405 5.0514262578 1.7209012742
0.6959373027 4.6721224374 1.7495727698
0.5403571232 4.2925946410 1.7758196523
0.3847805099 3.9127305318 1.7996647754
0.2292566454 3.5328653984 1.8211057384
0.0737850382 3.1530002048 1.8401666582
-0.0816348047 2.7731358922 1.8568716623
-0.2370033778 2.3932733788 1.8712448869
-0.3923211767 2.0134135599 1.8833104770
-0.5475886982 1.6335573078 1.8930925851
-0.7028064398 1.2537054718 1.9006153707
-0.8579748996 0.8738588785 1.9059029994
-1.0130945764 0.4940183313 1.9089796423
-1.1681659692 0.1141846112 1.9098694751
-1.3231895772 -0.2656415234 1.9085966772
-1.4781658995 -0.6454593363 1.9051854313
-1.6330954352 -1.0252681135 1.8996599230
-1.7879786829 -1.4050671630 1.8920443393
-1.9428161410 -1.7848558141 1.8823628685
-2.0976083073 -2.1646334175 1.8706396996
-2.2523556787 -2.5443993451 1.8568990215
-2.4070587516 -2.9241529888 1.8411650223
-2.5617180211 -3.3038937614 1.8234618890
-2.7163339815 -3.6836210953 1.8038138071
-2.8709071259 -4.0633344423 1.7822449593
-3.0255000587 -4.4429615578 1.7587850505
-3.1802449797 -4.8224745344 1.7334633117
-3.3351272801 -5.2019976232 1.7062962809
-3.4901538740 -5.5814451851 1.6773155227
-3.6453005783 -5.9606206982 1.6465635991
-3.8005361940 -6.3401812252 1.6140067178
-3.9558082249 -6.7190973256 1.5797637737
-4.1111356085 -7.0981929960 1.5437831679
-4.2665357428 -7.4774921995 1.5060840444
2.3281325781 7.5432773189 1.4830420529
2.1712277826 7.1645007230 1.5278304824
2.0144732290 6.7858914797 1.5699950532
1.8578507896 6.4074259853 1.6095647254
1.7013339351 6.0282386453 1.6466505407
1.5449897713 5.6494230216 1.6811647620
1.3888311249 5.2702683702 1.7131995757
1.2328838233 4.8909834991 1.7427566345
1.0771412701 4.5116585453 1.7698505731
0.9215908722 4.1321087468 1.7945167636
0.7660425300 3.7522197811 1.8167791306
0.6105465285 3.3723306270 1.8366373189
0.4551023781 2.9924422388 1.8541154655
0.2997095882 2.6125555470 1.8692377170
0.1443676670 2.2326714589 1.8820282289
-0.0109238788 1.8527908580 1.8925111644
-0.1661655426 1.4729146043 1.9007106943
-0.3213578191 1.0930435347 1.9066509954
-0.4765012031 0.7131784620 1.9103562503
-0.6315961900 0.3333201766 1.9118506465
-0.7866432749 -0.0465305549 1.9111583751
-0.9416429535 -0.4263729883 1.9083036312
-1.0965957211 -0.8062064023 1.9033106121
-1.2515020726 -1.1860300980 1.8962035171
-1.4063625027 -1.5658433985 1.8870065469
-1.5611775054 -1.9456456488 1.8757439029
-1.7159475740 -2.3254362156 1.8624397862
-1.8706732012 -2.7052144863 1.8471183974
-2.0253548786 -3.0849798694 1.8298039360
-2.1799930970 -3.4647317937 1.8105205995
-2.3345883457 -3.8444697079 1.7892925832
-2.4891411131 -4.2241930805 1.7661440796
-2.6437126818 -4.6038271259 1.7411061928
-2.7984357773 -4.9833460900 1.7142095943
-2.9532960204 -5.3628743554 1.6854696430
-3.1083003116 -5.7423268490 1.6549186318
-3.2634245362 -6.1215082864 1.6226003713
-3.4186374960 -6.5010721967 1.5884756757
-3.5738869542 -6.8799951505 1.5526707751
-3.7291916395 -7.2590963423 1.5151279516
-3.8845689289 -7.6383995332 1.4758663675
2.7091547431 7.3829125960 1.5106969865
2.5522810034 7.0041161216 1.5539193059
2.3955568013 6.6254867733 1.5945183761
2.2389641044 6.2470009737 1.6325231213
2.0824781756 5.8677941102 1.6680375212
1.9261638912 5.4889586667 1.7009823921
1.7700353637 5.1097843489 1.7314438108
1.6141179512 4.7304797338 1.7594249233
1.4584048314 4.3511348683 1.7849411767
1.3028832730 3.9715643760 1.8080265586
1.1473622227 3.5916519484 1.8287060471
0.9918931037 3.2117401649 1.8469813714
0.8364754292 2.8318299689 1.8628766882
0.6811087114 2.4519222796 1.8764161633
0.5257924612 2.0720179919 1.8876239708
0.3705261889 1.6921179770 1.8965242923
0.2153094044 1.3122230816 1.9031413157
0.0601416163 0.9323341287 1.9074992350
-0.0949776662 0.5524519177 1.9096222493
-0.2500489347 0.1725772239 1.9095345618
-0.4050726805 -0.2072892004 1.9072603789
-0.5600493949 -0.5871466265 1.9028239104
-0.7149795689 -0.9669943485 1.8962493676
-0.8698636932 -1.3468316831 1.8875609634
-1.0247022577 -1.7266579695 1.8767829113
-1.1794957520 -2.1064725689 1.8639394247
-1.3342446648 -2.4862748640 1.8490547166
-1.4889494837 -2.8660642592 1.8321529988
-1.6436106957 -3.2458401794 1.8132584812
-1.7982287863 -3.6256020701 1.7923953711
-1.9528042402 -4.0053493970 1.7695878733
-2.1073375406 -4.3850816449 1.7448601890
-2.2618886110 -4.7647215260 1.7182448274
-2.4165906534 -5.1442454614 1.6897738620
-2.5714295437 -5.5237779268 1.6594614831
-2.7264121540 -5.9032344381 1.6273406953
-2.8815144176 -6.2824209949 1.5934565290
-3.0367052478 -6.6619874137 1.5577645030
-3.1919325317 -7.0409165366 1.5203980324
-3.3472149065 -7.4200225423 1.4812934019
-3.5025697242 -7.7993289871 1.4404697945
3.0902380033 7.2224825362 1.5331883180
2.9333948469 6.8436671505 1.5748443426
2.7767005192 6.4650186196 1.6138777484
2.6201370849 6.0865133974 1.6503174202
2.4636814605 5.7072881218 1.6842602544
2.3073964554 5.3284338655 1.7156356524
2.1512973405 4.9492410094 1.7445235641
1.9954090307 4.5699178382 1.7709286373
1.8397244954 4.1905542796 1.7948671347
1.6842308384 3.8109643971 1.8163716536
1.5287361060 3.4310298987 1.8354682061
1.3732928954 3.0510968720 1.8521606420
1.2179007234 2.6711662484 1.8664731375
1.0625591051 2.2912389347 1.8784298769
0.9072675553 1.9113158127 1.8880550528
0.7520255877 1.5313977399 1.8953728641
0.5968327159 1.1514855492 1.9004075160
0.4416884528 0.7715800492 1.9031832191
0.2865923117 0.3916820241 1.9037241880
0.1315438052 0.0117922344 1.9020546415
-0.0234575536 -0.3680885834 1.8981988005
-0.1784122514 -0.7479597164 1.8921808888
-0.3333207746 -1.1278204749 1.8840251313
-0.4881836089 -1.5076701919 1.8737557535
-0.6430012397 -1.8875082231 1.8613969813
-0.7977741514 -2.2673339465 1.8469730397
-0.9525028276 -2.6471467619 1.8305081526
-1.1071877512 -3.0269460904 1.8120265420
-1.2618294034 -3.4067313740 1.7915524278
-1.4164282650 -3.7865020756 1.7691100267
-1.5709848152 -4.1662576777 1.7447235518
-1.7254995318 -4.5459976829 1.7184172124
-1.8800309433 -4.9256423383 1.6902249262
-2.0347126801 -5.3051702619 1.6601801299
-2.1895308986 -5.6847059837 1.6282958553
-2.3444924281 -6.0641656305 1.5946058026
-2.4995732305 -6.4433565308 1.5591561917
-2.6547424365 -6.8229246158 1.5218973499
-2.8099479284 -7.2018592498 1.4829697197
-2.9652083637 -7.5809693894 1.4423037160
-3.1205410659 -7.9602783846 1.3999185462
3.4713789301 7.0619900074 1.5505383893
3.3145658813 6.6831566763 1.5906279742
3.1579009485 6.3044898840 1.6280955901
3.0013662956 5.9259661203 1.6629700795
2.8449403538 5.5467235408 1.6953412453
2.6886840283 5.1678514754 1.7251470920
2.5326136217 4.7886412045 1.7524614356
2.3767536317 4.4093006597 1.7772904306
2.2210968369 4.0299196198 1.7996511575
2.0656301501 3.6503116438 1.8195748206
1.9101607691 3.2703564590 1.8370884440
1.7547425022 2.8904035669 1.8521980314
1.5993748692 2.5104538858 1.8649277775
1.4440573896 2.1305083090 1.8753018853
1.2887895815 1.7505677045 1.8833445650
1.1335709634 1.3706329154 1.8890800325
0.9784010528 0.9907047597 1.8925325098
0.8232793672 0.6107840308 1.8937262231
0.6682054241 0.2308714972 1.8926854025
0.5131787412 -0.1490320966 1.8894342810
0.3581988360 -0.5289260303 1.8839970942
0.2032652271 -0.9088096076 1.8763980789
0.0483774330 -1.2886821554 1.8666614726
-0.1064650271 -1.6685430237 1.8548115133
-0.2612626332 -2.0483915856 1.8408724381
-0.4160158644 -2.4282272360 1.8248684830
-0.5707251990 -2.8080493922 1.8068238823
-0.7253911145 -3.1878574927 1.7867628675
-0.8800140868 -3.5676509972 1.7647096677
-1.0345945910 -3.9474293858 1.7406885078
-1.1891331008 -4.3271921589 1.7147236090
-1.3436300885 -4.7069388361 1.6868391880
-1.4981426522 -5.0865872400 1.6570705720
-1.6528048049 -5.4661182026 1.6254525204
-1.8076030074 -5.8456562713 1.5919969189
-1.9625440329 -6.2251182047 1.5567381462
-2.1176038536 -6.6043127026 1.5197235793
-2.2727519197 -6.9838816460 1.4808984651
-2.4279359850 -7.3628211596 1.4404101071
-2.5831748345 -7.7419347817 1.3981831858
-2.7384857603 -8.1212456540 1.3542369353
3.8525741524 6.9014378582 1.5627696969
3.6957907336 6.5225875443 1.6012927367
3.5391547157 6.1439034080 1.6371944753
3.3826483634 5.7653619808 1.6705037108
3.2262514839 5.3861031997 1.7013031527
3.0700232404 5.0072143231 1.7295394135
2.9139808418 4.6279877540 1.7552801773
2.7581483942 4.2486310095 1.7785331089
2.6025185033 3.8692336914 1.7993161069
2.4470778648 3.4896089081 1.8176589815
2.2916328796 3.1096344116 1.8335897463
2.1362386029 2.7296630200 1.8471165878
1.9808945588 2.3496956382 1.8582637193
1.8256002708 1.9697331452 1.8670553616
1.6703552615 1.5897763940 1.8735157419
1.5151590538 1.2098262124 1.8776690928
1.3600111699 0.8298834029 1.8795396521
1.2049111323 0.4499487426 1.8791516612
1.0498584633 0.0700229841 1.8765293651
0.8948526857 -0.3098931451 1.8716970108
0.7398933223 -0.6897989417 1.8646788469
0.5849798967 -1.0696937263 1.8554991230
0.4301119328 -1.4495768431 1.8441820889
0.2752889554 -1.8294476599 1.8307519937
0.1205104899 -2.2093055671 1.8152330855
-0.0342239372 -2.5891499776 1.7976496103
-0.1889147988 -2.9689803263 1.7780258119
-0.3435625663 -3.3487960696 1.7563859310
-0.4981677103 -3.7285966852 1.7327542045
-0.6527306999 -4.1083816709 1.7071548654
-0.8072520032 -4.4881505449 1.6796121420
-0.9617320868 -4.8679028446 1.6501502574
-1.1162265840 -5.2475540073 1.6188059483
-1.2708698462 -5.6270870955 1.5856152540
-1.4256486624 -6.0066266372 1.5505889283
-1.5805697367 -6.3860900429 1.5137620105
-1.7356090342 -6.7652874234 1.4751830019
-1.8907364225 -7.1448564518 1.4347921850
-2.0458994087 -7.5238002410 1.3927435510
-2.2011170085 -7.9029167236 1.3489561871
-2.3564064789 -8.2822288308 1.3034493564
4.2338203631 6.7408289108 1.5699048876
4.0770660976 6.3619625710 1.6068613161
3.9204585155 5.9832620031 1.6411971285
3.7639799840 5.6047037848 1.6729410752
3.6076115501 5.2254298962 1.7021687845
3.4514107954 4.8465251987 1.7288354679
3.2953957104 4.4672834379 1.7530026897
3.1395900358 4.0879116572 1.7746796250
2.9839862219 3.7084992518 1.7938849906
2.8285707215 3.3288589345 1.8106472033
2.6731491897 2.9488664876 1.8249952419
2.5177779645 2.5688779483 1.8369395018
2.3624565744 2.1888942067 1.8465042143
2.2071845474 1.8089161264 1.8537136173
2.0519614114 1.4289445451 1.8585919545
1.8967866936 1.0489802743 1.8611634747
1.7416599218 0.6690241003 1.8614524308
1.5865806234 0.2890767832 1.8594830789
1.4315483261 -0.0908609413 1.8552796776
1.2765625581 -0.4707883632 1.8488664874
1.1216228478 -0.8507047964 1.8402677696
0.9667287242 -1.2306095793 1.8295077858
0.8118797170 -1.6105020743 1.8166107969
0.6570753567 -1.9903816667 1.8016010628
0.5023151744 -2.3702477652 1.7845028415
0.3475987025 -2.7500998011 1.7653403886
0.1929254740 -3.1299372271 1.7441379562
0.0382950234 -3.5097595181 1.7209197936
-0.1162931141 -3.8895661695 1.6957101450
-0.2708394017 -4.2693566978 1.6685332505
-0.4253443014 -4.6491306388 1.6394133446
-0.5798082739 -5.0288875483 1.6083746562
-0.7342854548 -5.4085405182 1.5754553291
-0.8889104915 -5.7880748553 1.5406926388
-1.0436705238 -6.1676150328 1.5040962231
-1.1985721746 -6.5470791315 1.4657017628
-1.3535913856 -6.9262787115 1.4255588502
-1.5086985353 -7.3058470873 1.3836029240
-1.6638407719 -7.6847945762 1.3399944836
-1.8190374399 -8.0639133266 1.2946471696
-1.9743057574 -8.4432260587 1.2475802767
4.6151143275 6.5801659551 1.5719667542
4.4583887396 6.2012845388 1.6073565443
4.3018091166 5.8225684442 1.6401264189
4.1453579297 5.4439943000 1.6703050786
3.9890173298 5.0647063869 1.6979610925
3.8328434765 4.6857868489 1.7230582496
3.6768550187 4.3065309913 1.7456520149
3.5210753577 3.9271453243 1.7657530727
3.3654968057 3.5477190081 1.7833809558
3.2101055475 3.1680644144 1.7985626910
3.0547065425 2.7880553625 1.8113281965
2.8993574468 2.4080510094 1.8216900991
2.7440577937 2.0280522297 1.8296726474
2.5888071162 1.6480598708 1.8353000958
2.4336049476 1.2680747541 1.8385967041
2.2784508204 0.8880976743 1.8395867361
2.1233442677 0.5081294004 1.8382944594
1.9682848225 0.1281706753 1.8347441441
1.8132720183 -0.2517777833 1.8289600620
1.6583053887 -0.6317152830 1.8209664860
1.5033844682 -1.0116411558 1.8107876894
1.3485087917 -1.3915547587 1.7984479448
1.1936778948 -1.7714554719 1.7839715237
1.0388913138 -2.1513426996 1.7673826961
0.8841485860 -2.5312158688 1.7487057289
0.7294492497 -2.9110744291 1.7279648864
0.5747928442 -3.2909178522 1.7051844289
0.4201789099 -3.6707456311 1.6803886127
0.2656069883 -4.0505572798 1.6536016890
0.1110766222 -4.4303523330 1.6248479037
-0.0434126442 -4.8101303450 1.5941514973
-0.1978612657 -5.1898908894 1.5615367036
-0.3523218483 -5.5695447541 1.5270430689
-0.5069292945 -5.9490795015 1.4907090610
-0.6616711172 -6.3286195150 1.4525432177
-0.8165538463 -6.7080835635 1.4125818430
-0.9715533852 -7.0872846921 1.3708755847
-1.1266407121 -7.4668517141 1.3273551639
-1.2817625103 -7.8458023550 1.2821874031
-1.4369385455 -8.2249228111 1.2352806469
-1.5921859940 -8.6042355896 1.1866542246
4.9964528881 6.4194517423 1.5689782305
4.8397555055 6.0405561893 1.6028013931
4.6832033687 5.6618254634 1.6340053554
4.5267790544 5.2832362496 1.6626187656
4.3704656841 4.9039353821 1.6887031664
4.2143181521 4.5250019721 1.7122308899
4.0583556451 4.1457330982 1.7332513314
3.9026012504 3.7663346788 1.7517766808
3.7470471593 3.3868956115 1.7678272835
3.5916792642 3.0072279801 1.7814287816
3.4363018775 2.6272036497 1.7926120057
3.2809740083 2.2471847966 1.8013918332
3.1256951953 1.8671722788 1.8077925292
2.9704649771 1.4871669270 1.8118383641
2.8152828922 1.1071695453 1.8135536129
2.6601484791 0.7271809108 1.8129625539
2.5050612765 0.3472017748 1.8100894685
2.3500208233 -0.0327671378 1.8049586401
2.1950266591 -0.4127251276 1.7975943528
2.0400783235 -0.7926715207 1.7880208913
1.8851753570 -1.1726056678 1.7762625398
1.7303173005 -1.5525269443 1.7623435817
1.5755036961 -1.9324347494 1.7462882979
1.4207340860 -2.3123285060 1.7281209676
1.2660080141 -2.6922076602 1.7078658661
1.1113250248 -3.0720716801 1.6855472655
0.9566846635 -3.4519200563 1.6611894333
0.8020864771 -3.8317523005 1.6348166322
0.6475300134 -4.2115679456 1.6064531195
0.4930148213 -4.5913665445 1.5761231466
0.3385404513 -4.9711476701 1.5438509583
0.1841064549 -5.3509109142 1.5096607932
0.0296617861 -5.7305648012 1.4735935936
-0.1249286740 -6.1100991588 1.4356889747
-0.2796528325 -6.4896382467 1.3959543920
-0.4345171156 -6.8691015385 1.3544267534
-0.5894973740 -7.2483035975 1.3111577268
-0.7445652701 -7.6278686010 1.2660734449
-0.8996669221 -8.0068218754 1.2193468632
-1.0548226048 -8.3859435053 1.1708811867
-1.2100494493 -8.7652557842 1.1206957806
5.3778329709 6.2586889792 1.5609623852
5.2211633259 5.8797802177 1.5932189688
5.0646382079 5.5010357448 1.6228570805
4.9082402999 5.1224323069 1.6499053138
4.7519535637 4.7431195399 1.6744182279
4.5958317822 4.3641732122 1.6963766508
4.4398945612 3.9848923858 1.7158239470
4.2841646994 3.6054823298 1.7327738055
4.1286342842 3.2260316518 1.7472473807
3.9732888917 2.8463522005 1.7592689362
3.8179322352 2.4663138967 1.7688701876
3.6626247110 2.0862818343 1.7760682782
3.5073658636 1.7062568542 1.7808874890
3.3521552375 1.3262397693 1.7833521055
3.1969923767 0.9462313659 1.7834864173
3.0418768263 0.5662324031 1.7813147164
2.8868081307 0.1862436136 1.7768612975
2.7317858351 -0.1937342962 1.7701504559
2.5768094853 -0.5737006459 1.7612064876
2.4218786271 -0.9536547803 1.7500536884
2.2669928076 -1.3335960694 1.7367163527
2.1121515739 -1.7135239075 1.7212187733
1.9573544743 -2.0934377131 1.7035852402
1.8026010580 -2.4733369283 1.6838400406
1.6478908749 -2.8532210181 1.6620074578
1.4932234758 -3.2330894699 1.6381117706
1.3385984128 -3.6129417933 1.6121772529
1.1840152392 -3.9927775189 1.5842281731
1.0294735089 -4.3725961983 1.5542887937
0.8749727775 -4.7523974032 1.5223833706
0.7205126016 -5.1321807249 1.4885361529
0.5660925392 -5.5119457736 1.4527713823
0.4116631339 -5.8915988515 1.4151313901
0.2570890867 -6.2711320585 1.3756568921
0.1023820767 -6.6506694979 1.3343542814
-0.0524642093 -7.0301313635 1.2912610491
-0.2074255558 -7.4093337680 1.2464298478
-0.3626735845 -7.7881973971 1.1999191873
-0.5175561679 -8.1678515433 1.1514974647
-0.6726917595 -8.5469738457 1.1014734009
-0.8278982461 -8.9262851114 1.0497295679
5.7592515913 6.0978803222 1.5479424163
5.6026092221 5.7189592673 1.5786325062
5.4461106620 5.3402019188 1.6067048644
5.2897387013 4.9615850894 1.6321880276
5.1334780138 4.5822614607 1.6551296237
4.9773814226 4.2033031538 1.6755189184
4.8214688363 3.8240114201 1.6933932920
4.6657627900 3.4445908231 1.7087679245
4.5102552837 3.0651296529 1.7216647733
4.3549315540 2.6854395762 1.7321067334
4.1995947619 2.3053885799 1.7401263752
4.0443067247 1.9253445735 1.7457431208
3.8890669926 1.5453083799 1.7489812660
3.7338751164 1.1652807940 1.7498651109
3.5787306464 0.7852625834 1.7484189587
3.4236331338 0.4052544884 1.7446671147
3.2685821296 0.0252572226 1.7386338853
3.1135771854 -0.3547285265 1.7303435778
2.9586178534 -0.7347020980 1.7198204989
2.8037036860 -1.1146628560 1.7070889545
2.6488342367 -1.4946101898 1.6921732484
2.4940090595 -1.8745435134 1.6750976821
2.3392277092 -2.2544622648 1.6558865539
2.1844897413 -2.6343659053 1.6345641584
2.0297947126 -3.0142539195 1.6111547854
1.8751421805 -3.3941258140 1.5856827200
1.7205317035 -3.7739811177 1.5581722416
1.5659628415 -4.1538193802 1.5286476236
1.4114351550 -4.5336401720 1.4971331328
1.2569482059 -4.9134430836 1.4636530290
1.1025015574 -5.2932277247 1.4282315644
0.9480947737 -5.6729937240 1.3908929833
0.7936800161 -6.0526452028 1.3516809965
0.6391218408 -6.4321765379 1.3106373742
0.4844314928 -6.8117116451 1.2677674667
0.3293718320 -7.1907690683 1.2232015479
0.1744386026 -7.5698458007 1.1768308777
0.0194337998 -7.9492400023 1.1286494785
-0.1354322713 -8.3288898721 1.0786638443
-0.2905480140 -8.7080123762 1.0270819366
-0.4457343695 -9.0873221475 0.9737802426
6.1407058586 5.9370283734 1.5299416444
5.9840903105 5.5580959245 1.5590653615
5.8276178551 5.1793265572 1.5855720975
5.6712713915 4.8006971550 1.6094903305
5.5150361794 4.4213636828 1.6308608190
5.3589642301 4.0423943175 1.6496811957
5.2030756423 3.6630927011 1.6659829122
5.0473927114 3.2836626361 1.6797826285
4.8919073665 2.9041920688 1.6911030991
4.7366044826 2.5244925351 1.6999658604
4.5812867138 2.1444301006 1.7064043084
4.4260173305 1.7643753878 1.7104401520
4.2707958895 1.3843292008 1.7120977015
4.1156219479 1.0042923158 1.7114012709
3.9604950629 0.6242654811 1.7083751757
3.8054147918 0.2442494177 1.7030437337
3.6503806925 -0.1357551802 1.6954312628
3.4953923232 -0.5157476449 1.6855620808
3.3404492428 -0.8957273350 1.6734605046
3.1855510106 -1.2756936346 1.6591508491
3.0306971867 -1.6556459526 1.6426574270
2.8758873318 -2.0355837229 1.6240045476
2.7211210076 -2.4155064032 1.6032165164
2.5663977763 -2.7954134745 1.5803176343
2.4117172014 -3.1753044409 1.5553321975
2.2570788472 -3.5551788287 1.5282844962
2.1024822785 -3.9350361858 1.4991988145
1.9479270621 -4.3148760812 1.4680994300
1.7934127649 -4.6946981043 1.4350106130
1.6389389556 -5.0745018643 1.3999566261
1.4845052038 -5.4542869896 1.3629617243
1.3301110800 -5.8340531270 1.3240501537
1.1754635502 -6.2134681905 1.2833330871
1.0209257330 -6.5929617191 1.2407278061
0.8662577212 -6.9724423913 1.1963009030
0.7113129894 -7.3513154603 1.1501970585
0.5565389777 -7.7308988227 1.1021619365
0.4013279515 -8.1097247494 1.0525494698
0.2462751991 -8.4885594156 1.0011788367
0.0911613937 -8.8675228119 0.9480778423
-0.0640359004 -9.2466192190 0.8932705971
6.5221929801 5.7761356739 1.5069835059
6.3656038072 5.3971927140 1.5345410056
6.2091570127 5.0184121684 1.5594822842
6.0528356050 4.6397709963 1.5818357586
5.8966253084 4.2604286778 1.6016353895
5.7405774661 3.8814491556 1.6188870952
5.5847122568 3.5021386584 1.6336164607
5.4290517604 3.1227001740 1.6458416141
5.2735878510 2.7432212790 1.6555860992
5.1183050202 2.3635134292 1.6628701062
4.9630054593 1.9834407820 1.6677278259
4.8077539239 1.6033765704 1.6701832594
4.6525499775 1.2233215791 1.6702607308
4.4973931838 0.8432765648 1.6679845666
4.3422831069 0.4632422560 1.6633790947
4.1872193108 0.0832193540 1.6564686440
4.0322013603 -0.2967914668 1.6472775430
3.8772288207 -0.6767895591 1.6358301195
3.7223012574 -1.0567743014 1.6221506992
3.5674182371 -1.4367450977 1.6062636058
3.4125793263 -1.8167013774 1.5881931594
3.2577840930 -2.1966425942 1.5679636764
3.1030321056 -2.5765682256 1.5455994689
2.9483229332 -2.9564777728 1.5211248434
2.7936561461 -3.3363707594 1.4945641011
2.6390313153 -3.7162467314 1.4659415368
2.4844480128 -4.0961052560 1.4352814385
2.3299058114 -4.4759459215 1.4026080871
2.1754042853 -4.8557683363 1.3679457556
2.0209430093 -5.2355721283 1.3313187089
1.8662718034 -5.6151430056 1.2928153364
1.7118901093 -5.9949091337 1.2523331231
1.5575081777 -6.3745371054 1.2099835324
1.4028139569 -6.7536922467 1.1658900220
1.2481757084 -7.1331031304 1.1199093333
1.0930039399 -7.5116198164 1.0723444212
0.9378560548 -7.8901885295 1.0229849198
0.7826266008 -8.2688776637 0.9718550780
0.6275301875 -8.6475422693 0.9189767863
0.4723377647 -9.0262854435 0.8643839969
0.3170015358 -9.4050868017 0.8081097302
6.9037102657 5.6152047010 1.4790915460
6.7471470317 5.2362520945 1.5050830171
6.5907254643 4.8574611932 1.5284590348
6.4344286822 4.4788090372 1.5492479532
6.2782427557 4.0994588466 1.5674770148
6.1222185001 3.7204700479 1.5831603309
5.9663760674 3.3411516476 1.5963176906
5.8107373450 2.9617057662 1.6069686758
5.6552941679 2.5822195856 1.6151376104
5.5000306234 2.2025045306 1.6208433528
5.3447484828 1.8224228658 1.6241208568
5.1895140177 1.4423503310 1.6249964181
5.0343267984 1.0622876915 1.6234943736
4.8791863958 0.6822356837 1.6196390617
4.7240923805 0.3021950161 1.6134548216
4.5690443240 -0.0778336301 1.6049659924
4.4140417981 -0.4578496013 1.5941969126
4.2590843748 -0.8378522703 1.5811719187
4.1041716271 -1.2178410361 1.5659153449
3.9493031282 -1.5978153230 1.5484515221
3.7944784522 -1.9777745809 1.5288047775
3.6396971737 -2.3577182835 1.5069994337
3.4849588682 -2.7376459286 1.4830598082
3.3302631119 -3.1175570372 1.4570102125
3.1756094819 -3.4974511531 1.4288749521
3.0209975558 -3.8773278415 1.3986783253
2.8664269128 -4.2571866893 1.3664446233
2.7116490096 -4.6368139865 1.3322610591
2.5571600193 -5.0166366018 1.2960275704
2.4027110648 -5.3964402762 1.2578298123
2.2483017283 -5.7762246739 1.2176920424
2.0937438692 -6.1557273623 1.1757078466
1.9393830465 -6.5353274571 1.1317936566
1.7843473415 -6.9139339167 1.0862847189
1.6291859358 -7.2922913074 1.0390080323
1.4739809645 -7.6707103687 0.9899217583
1.3187764878 -8.0491574943 0.9390492141
1.1634553037 -8.4276935693 0.8864184104
1.0082013813 -8.8061713397 0.8320552285
0.8532924217 -9.1849285063 0.7758798246
0.6983194937 -9.5638110823 0.7179996660
7.2852551309 5.4542378631 1.4462894110
7.1287174100 5.0752764546 1.4707150742
6.9723206472 4.6964760012 1.4925260583
6.8160480721 4.3178136286 1.5117506528
6.6598859863 3.9384565156 1.5284094694
6.5038848126 3.5594592986 1.5425247110
6.3480645735 3.1801339471 1.5541104473
6.1924469868 2.8006816634 1.5631876977
6.0370238626 2.4211892098 1.5697815569
5.8817788651 2.0414680293 1.5739095669
5.7265133863 1.6613785087 1.5756074124
5.5712952437 1.2812987931 1.5749036828
5.4161240146 0.9012296267 1.5718227267
5.2609992768 0.5211717259 1.5663888937
5.1059206085 0.1411257787 1.5586265332
4.9508875883 -0.2389075549 1.5485599940
4.7958997951 -0.6189276416 1.5362136232
4.6409568084 -0.9989338750 1.5216117654
4.4860582079 -1.3789256746 1.5047787623
4.3312035744 -1.7589024856 1.4857389515
4.1763924889 -2.1388637781 1.4645166661
4.0216245333 -2.5188090465 1.4411362341
3.8668992900 -2.8987378086 1.4156219775
3.7122163423 -3.2786496056 1.3879982120
3.5575752741 -3.6585440011 1.3582892464
3.4027295269 -4.0382084684 1.3265825772
3.2481713249 -4.4180674438 1.2927776301
3.0936537703 -4.7979078542 1.2569603436
2.9391764501 -5.1777293451 1.2191549940
2.7845521723 -5.5572700352 1.1794551747
2.6301547031 -5.9370537239 1.1377480474
