-1.2806908265 7.0394307712 3.1686593623
-1.4363582637 6.6501219102 3.2132992708
-1.5913020540 6.2603877939 3.2555047778
-1.7455391969 5.8705873877 3.2952416119
-1.8991180809 5.4800040983 3.3326178170
-2.0527652159 5.0882351850 3.3676271024
-2.2063062281 4.6965254672 3.4001439202
-2.3597419540 4.3048781209 3.4301933749
-2.5130732420 3.9132962479 3.4578006189
-2.6663009511 3.5217828743 3.4829908505
-2.8194259499 3.1303409499 3.5057893107
-2.9724491167 2.7389733473 3.5262212804
-3.1253713375 2.3476828615 3.5443120787
-3.2781935060 1.9564722092 3.5600870589
-3.4309165222 1.5653440287 3.5735716071
-3.5835412920 1.1743008795 3.5847911387
-3.7360687262 0.7833452424 3.5937710963
-3.8884997396 0.3924795197 3.6005369467
-4.0408352506 0.0017060347 3.6051141789
-4.1930761801 -0.3889729669 3.6075283011
-4.3452234508 -0.7795553179 3.6078048387
-4.4972779870 -1.1700389279 3.6059693314
-4.6492407131 -1.5604217835 3.6020473315
-4.8011125535 -1.9507019473 3.5960644007
-4.9528944318 -2.3408775570 3.5880461090
-5.1045872701 -2.7309468248 3.5780180313
-5.2561919889 -3.1209080363 3.5660057462
-5.4079863106 -3.5105369552 3.5520245453
-5.5604808400 -3.8996735028 3.5360832136
-5.7136127330 -4.2888089709 3.5182057066
-5.8674074584 -4.6775902088 3.4984288388
-6.0217636289 -5.0652066152 3.4768199241
-6.1765652331 -5.4543556229 3.4533089214
-6.3315826513 -5.8408001785 3.4281141416
-6.4869061053 -6.2279325520 3.4011134545
-6.6426042602 -6.6158540200 3.3723124068
-0.0962014693 8.8053928198 2.9765163852
-0.2541787009 8.4170861289 3.0322466208
-0.4116631958 8.0295413011 3.0852275744
-0.5687284136 7.6426628693 3.1355048167
-0.7255338720 7.2529867807 3.1836167874
-0.8817430788 6.8648841681 3.2289421107
-1.0373450273 6.4755194932 3.2719216758
-1.1922219061 6.0857275262 3.3124565717
-1.3463920918 5.6958676866 3.3505155382
-1.4999037730 5.3052194203 3.3862014760
-1.6534887872 4.9133721329 3.4195126603
-1.8069691850 4.5215873226 3.4503305197
-1.9603458066 4.1298681515 3.4786802401
-2.1136195030 3.7382177041 3.5045870542
-2.2667911350 3.3466389864 3.5280762395
-2.4198615724 2.9551349257 3.5491731151
-2.5728316933 2.5637083690 3.5679030395
-2.7257023833 2.1723620834 3.5842914069
-2.8784745344 1.7810987552 3.5983636454
-3.0311490442 1.3899209899 3.6101452138
-3.1837268155 0.9988313120 3.6196615989
-3.3362087550 0.6078321654 3.6269383131
-3.4885957731 0.2169259128 3.6320008915
-3.6408887825 -0.1738851629 3.6348748894
-3.7930886982 -0.5645988596 3.6355858799
-3.9451964361 -0.9552130540 3.6341594513
-4.0972129126 -1.3457257023 3.6306212045
-4.2491390445 -1.7361348384 3.6249967510
-4.4009757471 -2.1264385740 3.6173117099
-4.5527239348 -2.5166350970 3.6075917068
-4.7043845201 -2.9067226711 3.5958623701
-4.8559584125 -3.2966996341 3.5821493301
-5.0077189952 -3.6863307723 3.5664731660
-5.1601802685 -4.0754638932 3.5488491493
-5.3132796605 -4.4645917888 3.5292964455
-5.4670429880 -4.8533629373 3.5078550729
-5.6213696887 -5.2409704052 3.4845978997
-5.7761408594 -5.6301023047 3.4594316013
-5.9311314994 -6.0165385459 3.4326065655
-6.0864279064 -6.4036579912 3.4039740037
-6.2420987448 -6.7915611863 3.3735394539
0.3025320687 8.6309502022 3.0393656579
0.1446155549 8.2425952368 3.0934636130
-0.0128108538 7.8550022766 3.1448141504
-0.1698202954 7.4680758444 3.1934627720
-0.3265618568 7.0783493333 3.2399211342
-0.4827117586 6.6901975918 3.2836001662
-0.6382508503 6.3007814486 3.3249175452
-0.7930637884 5.9109362241 3.3637799454
-0.9471702627 5.5210216779 3.4001591669
-1.1006183674 5.1303135023 3.4341528845
-1.2541450521 4.7383932214 3.4657639121
-1.4075686597 4.3465387266 3.4948808835
-1.5608900321 3.9547531614 3.5215290662
-1.7141100209 3.5630395890 3.5457337735
-1.8672294868 3.1714009914 3.5675203625
-2.0202492987 2.7798402689 3.5869142305
-2.1731703328 2.3883602392 3.6039408125
-2.3259934719 1.9969636373 3.6186255785
-2.4787196047 1.6056531155 3.6309940302
-2.6313496243 1.2144312425 3.6410716988
-2.7838844285 0.8233005042 3.6488841418
-2.9363249182 0.4322633036 3.6544569404
-3.0886719972 0.0413219610 3.6578156968
-3.2409265709 -0.3495212856 3.6589860317
-3.3930895461 -0.7402642800 3.6579935819
-3.5451618304 -1.1309049470 3.6548639970
-3.6971443308 -1.5214412917 3.6496229377
-3.8490379542 -1.9118713990 3.6422960732
-4.0008436054 -2.3021934323 3.6329090785
-4.1525621878 -2.6924056327 3.6214876327
-4.3041946024 -3.0825063179 3.6080574162
-4.4557417467 -3.4724938808 3.5926441091
-4.6074725016 -3.8621222529 3.5752736513
-4.7599040369 -4.2512472695 3.5559677037
-4.9129741625 -4.6403630571 3.5347406359
-5.0667089722 -5.0291198377 3.5116356328
-5.2210086298 -5.4167145766 3.4867310431
-5.3757518470 -5.8058252098 3.4599104587
-5.5307176113 -6.1922498782 3.4314560025
-5.6859888387 -6.5793530003 3.4011924959
-5.8416341794 -6.9672343757 3.3691254823
0.7013452542 8.4563594732 3.0966182836
0.5434877746 8.0679599492 3.1490823019
0.3861177283 7.6803224025 3.1988008707
0.2291623098 7.2933513644 3.2458194105
0.0724823379 6.9035787451 3.2906224381
-0.0836105125 6.5153817849 3.3326536407
-0.2390894330 6.1259185744 3.3723071830
-0.3938414550 5.7360247417 3.4094954117
-0.5478875163 5.3460602720 3.4441932315
-0.7012757229 4.9552973132 3.4764930181
-0.8547479204 4.5633094863 3.5064020884
-1.0081186083 4.1713907750 3.5338164995
-1.1613886280 3.7795442998 3.5587616007
-1.3145588301 3.3877730988 3.5812627863
-1.4676300731 2.9960801254 3.6013454923
-1.6206032230 2.6044682491 3.6190351941
-1.7734791519 2.2129402542 3.6343574030
-1.9262587383 1.8214988400 3.6473376638
-2.0789428650 1.4301466204 3.6580015514
-2.2315324192 1.0388861240 3.6663746683
-2.3840282917 0.6477197942 3.6724826415
-2.5364313755 0.2566499896 3.6763511202
-2.6887425658 -0.1343210156 3.6780057725
-2.8409627593 -0.5251910312 3.6774722831
-2.9930928527 -0.9159579507 3.6747763506
-3.1451337432 -1.3066197497 3.6699436847
-3.2970863269 -1.6971744856 3.6630000042
-3.4489514988 -2.0876202969 3.6539710341
-3.6007301520 -2.4779554018 3.6428825034
-3.7524231770 -2.8681780971 3.6297601430
-3.9040314615 -3.2582867571 3.6146296832
-4.0555558896 -3.6482798324 3.5975168517
-4.2072606789 -4.0379005283 3.5784530136
-4.3596659452 -4.4270128412 3.5574661126
-4.5127099907 -4.8161120679 3.5345657232
-4.6664191158 -5.2048502850 3.5097981549
-4.8206941139 -5.5924285822 3.4832471550
-4.9754118111 -5.9815138819 3.4547734678
-5.1303545625 -6.3679237919 3.4246905611
-5.2856024365 -6.7550072754 3.3927971744
-5.4412240552 -7.1428633714 3.3590988710
1.1002247068 8.2816312255 3.1482942712
0.9424245279 7.8931909056 3.1991228419
0.7851090737 7.5055123629 3.2472080327
0.6282058821 7.1185001560 3.2925951690
0.4715851427 6.7286857907 3.3357413171
0.3155470468 6.3404475647 3.3761233220
0.1601255667 5.9509417330 3.4141115721
0.0054313915 5.5610039868 3.4496241664
-0.1485575971 5.1709944206 3.4826391533
-0.3018896249 4.7801818516 3.5132435436
-0.4553112161 4.3881319793 3.5414491147
-0.6086328888 3.9961545658 3.5671595541
-0.7618554822 3.6042527049 3.5904002930
-0.9149798432 3.2124294044 3.6111968056
-1.0680068265 2.8206875859 3.6295746072
-1.2209372929 2.4290300837 3.6455592503
-1.3737721089 2.0374596447 3.6591763221
-1.5265121462 1.6459789284 3.6704514412
-1.6791582803 1.2545905070 3.6794102545
-1.8317113901 0.8632968647 3.6860784349
-1.9841723576 0.4721003994 3.6904816778
-2.1365420661 0.0810034215 3.6926456987
-2.2888214007 -0.3099918441 3.6925962302
-2.4410112468 -0.7008832587 3.6903590193
-2.5931124899 -1.0916687680 3.6859598249
-2.7451260146 -1.4823464017 3.6794244150
-2.8970527048 -1.8729142729 3.6707785643
-3.0488934419 -2.2633705760 3.6600480520
-3.2006491052 -2.6537135868 3.6472586588
-3.3523205712 -3.0439416604 3.6324361655
-3.5039087128 -3.4340532302 3.6156063499
-3.6554143989 -3.8240468064 3.5967949851
-3.8070970242 -4.2136550025 3.5760389179
-3.9594794324 -4.6027501014 3.5533722564
-4.1125005265 -4.9918284065 3.5287997906
-4.2661867451 -5.3805439570 3.5023709070
-4.4204394176 -5.7681021849 3.4741746614
-4.5751339743 -6.1571581833 3.4440492212
-4.7300555311 -6.5435502279 3.4123389619
-4.8852818316 -6.9306108435 3.3788168891
-5.0408814559 -7.3184382948 3.3434885992
1.4991570820 8.1067761412 3.1944142868
1.3414124260 7.7182988268 3.2436060489
1.1841497535 7.3305829151 3.2900565982
1.0272969557 6.9435330114 3.3338111530
0.8707330500 6.5536812993 3.3752990615
0.7147473759 6.1654057942 3.4140306723
0.5593805686 5.7758618219 3.4503523739
0.4047411364 5.3858848908 3.4841880867
0.2508058485 4.9958350880 3.5155190371
0.0975262510 4.6049781152 3.5444268147
-0.0558486420 4.2128717383 3.5709276065
-0.2091252263 3.8208411702 3.5949329260
-0.3623043366 3.4288894736 3.6164682855
-0.5153868150 3.0370196228 3.6355592393
-0.6683735094 2.6452345025 3.6522313810
-0.8212652741 2.2535369081 3.6665103394
-0.9740629676 1.8619295455 3.6784217764
-1.1267674529 1.4704150304 3.6879913833
-1.2793795964 1.0789958893 3.6952448782
-1.4319002670 0.6876745591 3.7002080027
-1.5843303353 0.2964533878 3.7029065191
-1.7366706739 -0.0946653650 3.7033662075
-1.8889221553 -0.4856795277 3.7016128633
-2.0410856527 -0.8765870155 3.6976722941
-2.1931620378 -1.2673858301 3.6915703172
-2.3451521816 -1.6580740579 3.6833327567
-2.4970569536 -2.0486498700 3.6729854414
-2.6488772203 -2.4391115200 3.6605542023
-2.8006138458 -2.8294573435 3.6460648699
-2.9522676906 -3.2196857563 3.6295432720
-3.1038396116 -3.6097952533 3.6110152320
-3.2553304611 -3.9997844067 3.5905065660
-3.4069946536 -4.3893753765 3.5680596496
-3.5593575467 -4.7784488494 3.5437146296
-3.7123587518 -5.1675019738 3.5174715271
-3.8660247796 -5.5561908554 3.4893827548
-4.0202574041 -5.9437254788 3.4595425793
-4.1749311396 -6.3327483152 3.4277668949
-4.3298332702 -6.7191194727 3.3944305030
-4.4850397261 -7.1061540829 3.3592810607
-4.6406190309 -7.4939496242 3.3223242107
1.8981291053 7.9318049636 3.2349996546
1.7404381568 7.5432944860 3.2825533996
1.5832264213 7.1555448607 3.3273681935
1.4264221534 6.7684607586 3.3694891344
1.2699126491 6.3785761264 3.4093176307
1.1139770351 5.9902673532 3.4463978264
0.9586621056 5.6006897449 3.4810519240
0.8040742880 5.2106783802 3.5132097262
0.6501893072 4.8205932217 3.5428556664
0.4969583735 4.4296970729 3.5700658650
0.3436262559 4.0375397580 3.5948608606
0.1903908231 3.6454616022 3.6171601759
0.0372512469 3.2534656330 3.6369894040
-0.1157933074 2.8615547864 3.6543741785
-0.2687436797 2.4697319068 3.6693401699
-0.4216007151 2.0779997469 3.6819130827
-0.5743652626 1.6863609670 3.6921186519
-0.7270381746 1.2948181359 3.6999826406
-0.8796203060 0.9033737305 3.7055308359
-1.0321125142 0.5120301369 3.7087890470
-1.1845156572 0.1207896499 3.7097831011
-1.3368305940 -0.2703455252 3.7085388415
-1.4890581836 -0.6613732729 3.7050821241
-1.6411992844 -1.0522915656 3.6994388152
-1.7932547535 -1.4430984634 3.6916347880
-1.9452254465 -1.8337921130 3.6816959211
-2.0971122166 -2.2243707455 3.6696480946
-2.2489159141 -2.6148326764 3.6555171893
-2.4006373862 -3.0051763035 3.6393290828
-2.5522774764 -3.3954001055 3.6211096479
-2.7038370239 -3.7855026408 3.6008847508
-2.8553168632 -4.1754825456 3.5786802481
-3.0069662738 -4.5650516700 3.5545440831
-3.1593129181 -4.9540992129 3.5285223059
-3.3122972224 -5.3431230073 3.5006101928
-3.4659457053 -5.7317813259 3.4708631271
-3.6201604976 -6.1192889090 3.4393804819
-3.7748156644 -6.5082748369 3.4059562127
-3.9297000835 -6.8946221757 3.3709950240
-4.0848883680 -7.2816277408 3.3342196445
-4.2404489711 -7.6693882127 3.2956357761
2.2971276060 7.7567284691 3.2700723543
2.1394885179 7.3681886807 3.3159870289
1.9823258472 6.9804090169 3.3591651048
1.8255682207 6.5932942340 3.3996515473
1.6691106595 6.2033811251 3.4378196484
1.5132227236 5.8150431095 3.4732475840
1.3579568582 5.4254363829 3.5062332250
1.2034175108 5.0353953476 3.5367123069
1.0495794330 4.6452797234 3.5646724935
0.8963933902 4.2543496346 3.5901843977
0.7431001220 3.8621469612 3.6132728437
0.5899019058 3.4700267906 3.6338655346
0.4367979215 3.0779921107 3.6519881435
0.2837873442 2.6860458156 3.6676663819
0.1308693437 2.2941907051 3.6809259963
-0.0219569141 1.9024294851 3.6917927652
-0.1746922663 1.5107647671 3.7002924958
-0.3273375532 1.1191990690 3.7064510207
-0.4798936166 0.7277348148 3.7102941949
-0.6323612999 0.3363743361 3.7118478928
-0.7847414468 -0.0548801284 3.7111380049
-0.9370349016 -0.4460264311 3.7081904354
-1.0892425076 -0.8370625153 3.7030310989
-1.2413651071 -1.2279864138 3.6956859175
-1.3934035408 -1.6187962481 3.6861808189
-1.5453586472 -2.0094902267 3.6745417330
-1.6972312620 -2.4000666444 3.6607945896
-1.8490222179 -2.7905238804 3.6449653158
-2.0007323436 -3.1808603968 3.6270798344
-2.1523624643 -3.5710747376 3.6071640606
-2.3039134002 -3.9611655264 3.5852439004
-2.4553859669 -4.3511314652 3.5613452485
-2.6070241566 -4.7406742414 3.5355216462
-2.7593577340 -5.1296916662 3.5078249039
-2.9123280442 -5.5186820991 3.4782455833
-3.0659615517 -5.9073060765 3.4468419794
-3.2201606599 -6.2947832890 3.4137184608
-3.3747994390 -6.6837286822 3.3786474086
-3.5296678024 -7.0700493664 3.3420628679
-3.6848395291 -7.4570229491 3.3036630920
-3.8403829879 -7.8447453027 3.2634538551
2.6961395504 7.5815574387 3.2996550160
2.5385504505 7.1929922044 3.3439297240
2.3814349508 6.8051861886 3.3854702721
2.2247220589 6.4180442528 3.4243214807
2.0683139651 6.0281071174 3.4608283944
1.9124713118 5.6397438909 3.4946034027
1.7572516867 5.2501125664 3.5259199374
1.6027576604 4.8600466231 3.5547197083
1.4489630805 4.4699054207 3.5809936284
1.2958181606 4.0789466240 3.6048067725
1.1425598248 3.6867041710 3.6261881783
0.9893949036 3.2945475509 3.6450738873
0.8363225876 2.9024797081 3.6614896513
0.6833420630 2.5105034906 3.6754612583
0.5304525117 2.1186216501 3.6870145296
0.3776531127 1.7268368417 3.6961753161
0.2249430420 1.3351516244 3.7029694950
0.0723214737 0.9435684617 3.7074229670
-0.0802124191 0.5520897218 3.7095616528
-0.2326594643 0.1607176777 3.7094114902
-0.3850204897 -0.2305454904 3.7069984306
-0.5372963228 -0.6216976959 3.7023484369
-0.6894877898 -1.0127369439 3.6954874797
-0.8415957155 -1.4036613302 3.6864415355
-0.9936209224 -1.7944690399 3.6752365830
-1.1455642306 -2.1851583466 3.6618986012
-1.2974264571 -2.5757276101 3.6464535666
-1.4492084151 -2.9661752759 3.6289274509
-1.6009109143 -3.3564998726 3.6093462187
-1.7525347595 -3.7467000112 3.5877358247
-1.9040807513 -4.1367743823 3.5641222126
-2.0555496850 -4.5267217551 3.5385313119
-2.2071801168 -4.9162338057 3.5110222842
-2.3595037169 -5.3052170482 3.4816525493
-2.5124628512 -5.6941702134 3.4504079921
-2.6660838708 -6.0827561933 3.4173497561
-2.8202693705 -6.4701998155 3.3825870885
-2.9748938659 -6.8591011745 3.3458711884
-3.1297477678 -7.2453924675 3.3076648421
-3.2849044874 -7.6323312376 3.2676423122
-3.4404322944 -8.0200125392 3.2258094568
3.0951520736 7.4063026301 3.3237709117
2.9376110713 7.0177158186 3.3664049150
2.7805408338 6.6298871403 3.4063072792
2.6238707574 6.2427215820 3.4435226686
2.4675096456 5.8527648665 3.4783677935
2.3117098743 5.4643804566 3.5104893843
2.1565336645 5.0747290467 3.5401363658
2.0020818137 4.6846429473 3.5672564536
1.8483273366 4.2944810400 3.5918438234
1.6952197874 3.9034987507 3.6139579899
1.5419924874 3.5112220826 3.6336321258
1.3888569649 3.1190345575 3.6508107555
1.2358124234 2.7269390723 3.6655197081
1.0828580619 2.3349384250 3.6777848466
0.9299930765 1.9430353149 3.6876320653
0.7772166608 1.5512323431 3.6950872854
0.6245280061 1.1595320127 3.7001764527
0.4719263027 0.7679367293 3.7029255336
0.3194107401 0.3764488013 3.7033605123
0.1669805075 -0.0149295584 3.7015073877
0.0146347949 -0.4061962326 3.6973921698
-0.1376272070 -0.7973491978 3.6910408776
-0.2898063059 -1.1883865237 3.6824795357
-0.4419033073 -1.5793063715 3.6717341715
-0.5939190145 -1.9701069927 3.6588308128
-0.7458542275 -2.3607867276 3.6437954848
-0.8977097433 -2.7513440040 3.6266542081
-1.0494863547 -3.1417773350 3.6074329958
-1.2011848504 -3.5320853178 3.5861578515
-1.3528060147 -3.9222666317 3.5628547673
-1.5043506268 -4.3123200363 3.5375497208
-1.6558194606 -4.7022443697 3.5102686740
-1.8074454921 -5.0917214501 3.4810764222
-1.9597621053 -5.4806665770 3.4500358377
-2.1127127875 -5.8695786996 3.4171281719
-2.2663237189 -6.2581231537 3.3824173509
-2.4204976091 -6.6455300819 3.3460173787
-2.5751098429 -7.0343840382 3.3076586897
-2.7299508124 -7.4206433075 3.2678321786
-2.8850940091 -7.8075445453 3.2261886307
-3.0406075898 -8.1951819803 3.1827339994
3.4941525114 7.2309747496 3.3424439451
3.3366577038 6.8423702246 3.3834366638
3.1796308107 6.4545225682 3.4217003421
3.0230016251 6.0673369121 3.4572794764
2.8666850083 5.6773650493 3.4904624017
2.7109257199 5.2889634705 3.5209302614
2.5557901081 4.8992964694 3.5489074445
2.4013773011 4.5091949432 3.5743476937
2.2476595509 4.1190171793 3.5972484559
2.0945856472 3.7280165835 3.6176636731
1.9413855178 3.3357112380 3.6356305669
1.7882755342 2.9434983190 3.6511022765
1.6352549140 2.5513806715 3.6641047061
1.4823228716 2.1593610401 3.6746637925
1.3294786187 1.7674420680 3.6828055004
1.1767213655 1.3756262990 3.6885558198
1.0240503203 0.9839161767 3.6919407624
0.8714646911 0.5923140454 3.6929863583
0.7189636856 0.2008221513 3.6917186528
0.5665465118 -0.1905573570 3.6881637031
0.4142123788 -0.5818224268 3.6823475757
0.2619604971 -0.9729711010 3.6742963430
0.1097900790 -1.3640015164 3.6640360804
-0.0422996606 -1.7549119017 3.6515928641
-0.1943095041 -2.1457005773 3.6369927678
-0.3462402304 -2.5363659523 3.6202618602
-0.4980926151 -2.9269065240 3.6014262031
-0.6498674296 -3.3173208753 3.5805118482
-0.8015654406 -3.7076076734 3.5575448355
-0.9531874106 -4.0977656677 3.5325511904
-1.1047340965 -4.4877936879 3.5055569226
-1.2562062500 -4.8776906419 3.4765880232
-1.4078311254 -5.2671286478 3.4457149269
-1.5601436373 -5.6560318628 3.4130057951
-1.7130884910 -6.0448993051 3.3784372956
-1.8666916418 -6.4333988380 3.3420760686
-2.0208558404 -6.8207660887 3.3040407466
-2.1754577498 -7.2095694101 3.2640414425
-2.3302872478 -7.5957941299 3.2225964945
-2.4854183369 -7.9826552300 3.1793337502
-2.6409190472 -8.3702461053 3.1342592699
3.8931284297 7.0555844259 3.3556986375
3.7356779077 6.6669660374 3.3950496500
3.5786924390 6.2791030734 3.4316742938
3.4221022198 5.8919008309 3.4656168863
3.2658276173 5.5019182298 3.4971373902
3.1101064219 5.1135034743 3.5259513804
2.9550086066 4.7238253479 3.5522587187
2.8006317340 4.3337130914 3.5760191882
2.6469473643 3.9435242822 3.5972335089
2.4939034183 3.5525105255 3.6159500463
2.3407266369 3.1601820006 3.6322099797
2.1876383792 2.7679491521 3.6459751801
2.0346378790 2.3758147700 3.6572716255
1.8817243678 1.9837815413 3.6661253236
1.7288970746 1.5918520504 3.6725623082
1.5761552278 1.2000287795 3.6766086352
1.4234980545 0.8083141097 3.6782903799
1.2709247820 0.4167103212 3.6776336337
1.1184346376 0.0252195950 3.6746645004
0.9660268499 -0.3661559870 3.6694090931
0.8137006484 -0.7574144401 3.6618935316
0.6614552645 -1.1485538755 3.6521439390
0.5092899323 -1.5395724992 3.6401864392
0.3572038882 -1.9304686103 3.6260471537
0.2051963718 -2.3212405994 3.6097521994
0.0532666265 -2.7118869467 3.5913276856
-0.0985861010 -3.1024062205 3.5707997121
-0.2503625591 -3.4927970753 3.5481943664
-0.4020634920 -3.8830582496 3.5235377214
-0.5536896390 -4.2731885642 3.4968558338
-0.7052417342 -4.6631869201 3.4681747415
-0.8567205065 -5.0530522962 3.4375204621
-1.0083473512 -5.4424472693 3.4049690673
-1.1606585366 -5.8313049189 3.3705938387
-1.3136000804 -6.2201241853 3.3343669168
-1.4671976615 -6.6085755392 3.2963575834
-1.6213540024 -6.9959002525 3.2566889690
-1.7759474359 -7.3846498460 3.2150513282
-1.9307668529 -7.7708376004 3.1719897503
-2.0858871784 -8.1576560741 3.1271097096
-2.2413763022 -8.5451978217 3.0804173833
4.2920676528 6.8801421827 3.3635601124
4.1346595082 6.4915137585 3.4012691541
3.9777135474 6.1036391361 3.4362545669
3.8211603765 5.7164237971 3.4685604785
3.6649253209 5.3264348334 3.4984185262
3.5092398455 4.9380108625 3.5255786812
3.3541770493 4.5483260377 3.5502163251
3.1998330334 4.1582077042 3.5722972838
3.0461787365 3.7680126136 3.5918255488
2.8931611075 3.3769907892 3.6088439129
2.7400039046 2.9846445307 3.6233974157
2.5869336175 2.5923971590 3.6354567640
2.4339494979 2.2002514054 3.6450480075
2.2810507958 1.8082098960 3.6521972226
2.1282367600 1.4162751523 3.6569305093
1.9755066379 1.0244495928 3.6592739875
1.8228596775 0.6327355326 3.6592537934
1.6702951266 0.2411351849 3.6568960768
1.5178122339 -0.1503493374 3.6522269970
1.3654102494 -0.5417160218 3.6452727207
1.2130884247 -0.9329629534 3.6360594179
1.0608460138 -1.3240883145 3.6246132595
0.9086822732 -1.7150903825 3.6109604147
0.7565964621 -2.1059675284 3.5951270476
0.6045878434 -2.4967182151 3.5771393151
0.4526556836 -2.8873409955 3.5570233642
0.3007992533 -3.2778345108 3.5348053294
0.1490178273 -3.6681974878 3.5105113309
-0.0026893150 -4.0584287381 3.4841674718
-0.1543228889 -4.4485271548 3.4557998366
-0.3058836049 -4.8384917112 3.4254344884
-0.4573721680 -5.2283214581 3.3930974682
-0.6090039830 -5.6176695921 3.3588704752
-0.7613165014 -6.0064781697 3.3228317372
-0.9142571449 -6.3952459112 3.2849489291
-1.0678512671 -6.7836459692 3.2452939003
-1.2220014973 -7.1709254123 3.2039941437
-1.3765882118 -7.5596183277 3.1607205397
-1.5313988658 -7.9457668127 3.1160442108
-1.6865096990 -8.3325402902 3.0695488436
-1.8419884466 -8.7200304688 3.0212407425
4.6909582911 6.7046584140 3.3660540767
4.5335906219 6.3160237518 3.4021210385
4.3766822621 5.9281410901 3.4354671744
4.2201642340 5.5409161159 3.4661364121
4.0639662794 5.1509251222 3.4943321524
3.9083141741 4.7624958573 3.5198386764
3.7532836515 4.3728087134 3.5428069687
3.5989694548 3.9826889021 3.5632088915
3.4453419703 3.5924922366 3.5810517009
3.2923470750 3.2014673743 3.5963726291
3.1392057441 2.8091087636 3.6092204733
2.9861497395 2.4168522049 3.6195748665
2.8331783326 2.0247003668 3.6274619272
2.6802907936 1.6326558111 3.6329077982
2.5274863920 1.2407209940 3.6359386432
2.3747643968 0.8488982661 3.6365806430
2.2221240776 0.4571898745 3.6348599923
2.0695647044 0.0655979625 3.6308028963
1.9170855485 -0.3258754281 3.6244355672
1.7646858828 -0.7172283557 3.6157842219
1.6123649823 -1.1084589782 3.6048750777
1.4601221244 -1.4995655508 3.5917343505
1.3079565893 -1.8905464240 3.5763882512
1.1558676602 -2.2814000429 3.5588629839
1.0038546242 -2.6721249443 3.5391847421
0.8519167718 -3.0627197550 3.5173797073
0.7000533981 -3.4531831902 3.4934740457
0.5482638022 -3.8435140511 3.4674939071
0.3965472882 -4.2337112225 3.4394654215
0.2449031650 -4.6237736710 3.4094146978
0.0933307466 -5.0137004431 3.3773678219
-0.0581706477 -5.4034906621 3.3433508546
-0.2098103043 -5.7927883071 3.3074511053
-0.3621266962 -6.1815444579 3.2697515708
-0.5150687363 -6.5702574755 3.2302155266
-0.6686614073 -6.9586032648 3.1889173141
-0.8228071844 -7.3458348342 3.1459886492
-0.9773888430 -7.7344682662 3.1010815410
-1.1321919784 -8.1205752918 3.0547924040
-1.2872945157 -8.5073015239 3.0066837425
-1.4427640227 -8.8947378203 2.9567619977
5.0897887657 6.5291433592 3.3632068010
4.9324596826 6.1405062182 3.3976317270
4.7755870327 5.7526190993 3.4293386877
4.6191022593 5.3653879145 3.4583714016
4.4629389880 4.9753991714 3.4849051637
4.3073179328 4.5869684862 3.5087584271
4.1523169782 4.1972833449 3.5300578986
3.9980296113 3.8071665921 3.5487814617
3.8444257351 3.4169729900 3.5649396239
3.6914500568 3.0259500451 3.5785640779
3.5383209639 2.6335843887 3.5897072709
3.3852756302 2.2413238978 3.5983578377
3.2323133487 1.8491711752 3.6045419635
3.0794334111 1.4571287156 3.6082858546
2.9266351094 1.0651989062 3.6096157357
2.7739177352 0.6733840277 3.6085578457
2.6212805812 0.2816862557 3.6051384344
2.4687229411 -0.1098923384 3.5993837599
2.3162441099 -0.5013497858 3.5913200842
2.1638433846 -0.8926842193 3.5809736709
2.0115200646 -1.2838938706 3.5683707818
1.8592734519 -1.6749770698 3.5535376744
1.7071028513 -2.0659322427 3.5365005987
1.5550075710 -2.4567579095 3.5172857947
1.4029869231 -2.8474526824 3.4959194899
1.2510402232 -3.2380152636 3.4724278968
1.0991667913 -3.6284444435 3.4468372105
0.9473659519 -4.0187390980 3.4191736065
0.7956370340 -4.4088981866 3.3894632390
0.6439793714 -4.7989207502 3.3577322384
0.4923923034 -5.1888059087 3.3240067096
0.3408751740 -5.5785528583 3.2883127304
0.1892249375 -5.9677965249 3.2507431962
0.0369022548 -6.3564970484 3.2113856916
-0.1160433636 -6.7451522956 3.1701991645
-0.2696364859 -7.1334409901 3.1272603700
-0.4237793764 -7.5206222135 3.0827051060
-0.5783575470 -7.9091935035 3.0361670278
-0.7331543327 -8.2952569948 2.9882670817
-0.8882496956 -8.6819338541 2.9385472126
-1.0437110218 -9.0693140842 2.8870140072
5.4885478325 6.3536070799 3.3550450961
5.3312554643 5.9649711731 3.3878281804
5.1744166540 5.5770831342 3.4178962130
5.0179632711 5.1898491205 3.4452926934
4.8618323006 4.7998668477 3.4701649824
4.7062400120 4.4114385597 3.4923655176
4.5512659663 4.0217596763 3.5119968821
4.3970024960 3.6316504455 3.5290429561
4.2434190881 3.2414644680 3.5435174820
4.0904591847 2.8504483117 3.5554466402
3.9373387773 2.4580808295 3.5648864165
3.7843005887 2.0658215694 3.5718345097
3.6313439343 1.6736730653 3.5763171687
3.4784681295 1.2816377415 3.5783606605
3.3256724895 0.8897179136 3.5779912677
3.1729563304 0.4979157898 3.5752352843
3.0203189691 0.1062334718 3.5701190127
2.8677597239 -0.2853270433 3.5626687599
2.7152779151 -0.6767638623 3.5529108347
2.5628728644 -1.0680751933 3.5408715447
2.4105438969 -1.4592593445 3.5265771926
2.2582903399 -1.8503147223 3.5100540743
2.1061115240 -2.2412398293 3.4913284753
1.9540067832 -2.6320332623 3.4704266688
1.8019754551 -3.0226937098 3.4473749127
1.6500168811 -3.4132199507 3.4221994472
1.4981304071 -3.8036108513 3.3949264930
1.3463153832 -4.1938653633 3.3655822485
1.1945711640 -4.5839825214 3.3341928885
1.0428971089 -4.9739614410 3.3007845616
0.8912925824 -5.3638013160 3.2653833888
0.7397569538 -5.7535014159 3.2280154620
0.5880935355 -6.1426877783 3.1887792312
0.4357622697 -6.5313296312 3.1477666847
0.2828110093 -6.9199242166 3.1049325193
0.1292156406 -7.3081531383 3.0603558246
-0.0249258374 -7.6952816757 3.0141763361
-0.1802987735 -8.0809934004 2.9665572173
-0.3342935206 -8.4698063107 2.9165011815
-0.4893827541 -8.8564317921 2.8651722380
-0.6448368836 -9.2437539014 2.8120297991
5.8872246031 6.1780594375 3.3415962898
5.7299671027 5.7894284245 3.3727378732
5.5731602885 5.4015429512 3.4011673661
5.4167364600 5.0143094396 3.4269280400
5.2606354493 4.6243377877 3.4501395316
5.1050696863 4.2359156509 3.4706880281
4.9501199443 3.8462472063 3.4886521765
4.7958775005 3.4561498792 3.5040218203
4.6423114927 3.0659760013 3.5168139151
4.4893640054 2.6749714108 3.5270491652
4.3362488208 2.2826072265 3.5347869777
4.1832143445 1.8903542584 3.5400341649
4.0302599161 1.4982149686 3.5428170358
3.8773848757 1.1061917085 3.5431619154
3.7245885635 0.7142867197 3.5410951411
3.5718703206 0.3225021349 3.5366430588
3.4192294897 -0.0691600200 3.5298320198
3.2666654147 -0.4606978245 3.5206883775
3.1141774416 -0.8521094626 3.5092384840
2.9617649189 -1.2433932199 3.4955086871
2.8094271974 -1.6345474823 3.4795253276
2.6571636310 -2.0255707342 3.4613147362
2.5049735765 -2.4164615561 3.4409032309
2.3528563944 -2.8072186224 3.4183171144
2.2008114487 -3.1978406996 3.3935826717
2.0488381073 -3.5883266435 3.3667261678
1.8969357421 -3.9786753973 3.3377738450
1.7451037294 -4.3688859888 3.3067519220
1.5933414500 -4.7589575285 3.2736865907
1.4416482891 -5.1488892069 3.2386040149
1.2900236368 -5.5386802916 3.2015303286
1.1384668881 -5.9283301259 3.1624916343
0.9867878252 -6.3174560238 3.1215918991
0.8344458112 -6.7060363215 3.0789273294
0.6814869641 -7.0945675100 3.0344484512
0.5269638607 -7.4811245942 2.9886054843
0.3728606160 -7.8676963750 2.9408925943
0.2183863476 -8.2554763220 2.8912149951
0.0643834149 -8.6442180586 2.8395277875
-0.0907006582 -9.0307902792 2.7865919422
-0.2461484989 -9.4180523429 2.7318425333
6.2858085653 6.0025100731 3.3228882001
6.1285841144 5.6138875525 3.3523887665
5.9718074841 5.2260080718 3.3791802451
5.8154114081 4.8387783370 3.4033056719
5.6593380639 4.4488213791 3.4248572072
5.5037966334 4.0604090769 3.4437545061
5.3488686498 3.6707551691 3.4600524999
5.1946444325 3.2806740379 3.4737469533
5.0410928354 2.8905166397 3.4848580095
4.8881544960 2.4995282893 3.4934009386
4.7350411687 2.1071724202 3.4994384500
4.5820070730 1.7149306943 3.5029865036
4.4290515738 1.3228054990 3.5040714660
4.2761740370 0.9307991103 3.5027197170
4.1233738288 0.5389136930 3.4989576452
3.9706503170 0.1471513027 3.4928116453
3.8180028703 -0.2444861129 3.4843081142
3.6654308598 -0.6359967117 3.4734734483
3.5129336581 -1.0273787564 3.4603340395
3.3605106407 -1.4186306119 3.4449162728
3.2081611855 -1.8097507433 3.4272465233
3.0558846732 -2.2007377140 3.4073511534
2.9036804880 -2.5915901835 3.3852565098
2.7515480171 -2.9823069051 3.3609889217
2.5994866514 -3.3728867233 3.3345746979
2.4474957859 -3.7633285721 3.3060401245
2.2955748188 -4.1536314717 3.2754114628
2.1437231533 -4.5437945269 3.2427149478
1.9919401961 -4.9338169238 3.2079767856
1.8402253589 -5.3236979280 3.1712231520
1.6885780577 -5.7134368814 3.1324801909
1.5369977130 -6.1030332002 3.0917740126
1.3843133265 -6.4911593688 3.0494784323
1.2319785099 -6.8795343728 3.0051917018
1.0790347725 -7.2677937534 2.9591093156
0.9248971494 -7.6535593524 2.9117391205
0.7713565403 -8.0421035860 2.8619928972
0.6159831434 -8.4275563648 2.8112155020
0.4611592501 -8.8129832195 2.7586127729
0.3060086909 -9.1988649404 2.7042250551
0.1504428607 -9.5852194795 2.6480779155
6.6842896002 5.8269683873 3.2989491085
6.5270964147 5.4383578906 3.3268092796
6.3703481924 5.0504877645 3.3519634026
6.2139781051 4.6632650183 3.3744542695
6.0579301874 4.2733267431 3.3943468487
5.9024109497 3.8849278809 3.4115939374
5.7475022452 3.4952925180 3.4262270012
5.5932935306 3.1052317772 3.4382476775
5.4397534401 2.7150951363 3.4476792656
5.2868210779 2.3241275891 3.4545316518
5.1337063470 1.9317849377 3.4588707238
4.9806694076 1.5395592843 3.4607216113
4.8277096514 1.1474529397 3.4601107352
4.6748264710 0.7554681016 3.4570645263
4.5220192599 0.3636068561 3.4516094217
4.3692874129 -0.0281288205 3.4437718612
4.2166303264 -0.4197370601 3.4335782841
4.0640473990 -0.8112161011 3.4210551259
3.9115380309 -1.2025642865 3.4062288152
3.7591016253 -1.5937800613 3.3891257707
3.6067375876 -1.9848619712 3.3697723982
3.4544453262 -2.3758086598 3.3481950884
3.3022242529 -2.7666188662 3.3244202137
3.1500737823 -3.1572914233 3.2984741261
2.9979933327 -3.5478252545 3.2703831546
2.8459823259 -3.9382193721 3.2401736033
2.6940401877 -4.3284728739 3.2078717495
2.5421663474 -4.7185849416 3.1735038409
2.3903602389 -5.1085548371 3.1370960949
2.2386212997 -5.4983819011 3.0986746960
2.0859499472 -5.8872097949 3.0585223266
1.9343450862 -6.2767520086 3.0161580512
1.7826488569 -6.6656757423 2.9719568491
1.6296141909 -7.0526431287 2.9263416754
1.4767152708 -7.4405692873 2.8786686207
1.3215952661 -7.8248552867 2.8300786291
1.1664849281 -8.2092868545 2.7796593624
1.0109635850 -8.5941383959 2.7274369410
0.8558908127 -8.9788309399 2.6734280513
0.7003515487 -9.3637777046 2.6176976277
0.5441557440 -9.7488979802 2.5603068765
7.0826579976 5.6514435229 3.2698077315
6.9254943321 5.2628485079 3.2960282622
6.7687727831 4.8749910272 3.3195458158
6.6124269630 4.4877784130 3.3404029332
6.4564022906 4.0978627175 3.3586377090
6.3009031643 3.7094808175 3.3742357139
6.1460113308 3.3198679102 3.3872052289
5.9918154773 2.9298316495 3.3975537061
5.8382840804 2.5397199337 3.4053075665
5.6853546282 2.1487776340 3.4104713683
5.5322353435 1.7564529795 3.4131140516
5.3791924500 1.3642481017 3.4132699246
5.2262253671 0.9721652320 3.4109654591
5.0733335152 0.5802064881 3.4062271338
4.9205163157 0.1883738755 3.3990814303
4.7677731919 -0.2033307105 3.3895548302
4.6151035682 -0.5949054835 3.3776738118
4.4625068712 -0.9863487635 3.3634648462
4.3099825298 -1.3776589748 3.3469543952
4.1575299751 -1.7688346442 3.3281689076
4.0051486409 -2.1598743987 3.3071348166
3.8528379636 -2.5507769626 3.2838785377
3.7005973828 -2.9415411558 3.2584264653
3.5484263410 -3.3321658908 3.2308049711
3.3963242842 -3.7226501708 3.2010404011
3.2442906615 -4.1129930862 3.1691590740
3.0923249259 -4.5031938127 3.1351872792
2.9394340433 -4.8923983391 3.0994029938
2.7876038428 -5.2823149691 3.0613350930
2.6358399542 -5.6720874946 3.0212553231
2.4841418442 -6.0617154021 2.9791898380
2.3317580877 -6.4501497893 2.9354421067
2.1800720589 -6.8389079472 2.8896069815
2.0255972205 -7.2236265389 2.8429545728
1.8705314370 -7.6072846576 2.7947220006
1.7152043857 -7.9911260902 2.7446710357
1.5597934458 -8.3750172404 2.6928240719
1.4038309471 -8.7592024767 2.6392222769
1.2480539028 -9.1430936121 2.5838983009
1.0935742564 -9.5280422786 2.5264618933
0.9387574201 -9.9134333573 2.4672720485
7.4809044703 5.4759443490 3.2354931905
7.3237686222 5.0873681936 3.2600749638
7.1670720566 4.6995265727 3.2819568568
7.0107488289 4.3123271601 3.3011811527
6.8547452841 3.9224378431 3.3177594230
6.6992642505 3.5340763374 3.3317096038
6.5443869561 3.1444896933 3.3430170992
6.3902014095 2.7544818911 3.3516951115
6.2366759894 2.3643991517 3.3577731446
6.0837464896 1.9734864177 3.3612504911
5.9306196171 1.5811844086 3.3621990145
5.7775677780 1.1890048747 3.3606621979
5.6245904203 0.7969499660 3.3566665602
5.4716869929 0.4050217181 3.3502386245
5.3188569463 0.0132220544 3.3414049135
5.1660997322 -0.3784472129 3.3301919473
5.0134148042 -0.7699843798 3.3166262390
4.8608016178 -1.1613878492 3.3007342924
4.7082596304 -1.5526561281 3.2825425985
4.5557883019 -1.9437878258 3.2620776329
4.4033870947 -2.3347816510 3.2393658530
4.2510554736 -2.7256364100 3.2144336951
4.0987929064 -3.1163510033 3.1873075727
3.9465988637 -3.5069244239 3.1580138732
3.7944728191 -3.8973557543 3.1265789568
3.6414296761 -4.2867957174 3.0932819343
3.4894394696 -4.6769428865 3.0576496333
3.3375157459 -5.0669457978 3.0199549329
3.1856579904 -5.4568038620 2.9802240625
3.0331185737 -5.8454703825 2.9387605217
2.8813936976 -6.2350413861 2.8950420810
2.7274660641 -6.6218898431 2.8501427695
2.5731763673 -7.0067534227 2.8037323761
2.4181761989 -7.3898881330 2.7558610755
2.2627674819 -7.7731726902 2.7061801646
2.1069717866 -8.1565509355 2.6547193293
1.9508749204 -8.5398774786 2.6015163802
1.7958036501 -8.9239976247 2.5462418234
1.6411452497 -9.3079545206 2.4891873839
1.4860187881 -9.6921598985 2.4304230666
1.3301472794 -10.0766781041 2.3699969244
7.8709570046 5.2980333488 3.1969870247
7.7135102098 4.9102623646 3.2199556240
7.5566530308 4.5231924741 3.2402193527
7.4002588335 4.1366943175 3.2578256176
7.2451547340 3.7479374852 3.2726658628
7.0904019672 3.3603812446 3.2849112975
6.9359623543 2.9713442476 3.2945364750
6.7820583084 2.5817233223 3.3015438251
6.6287224249 2.1919135419 3.3059572972
6.4758869149 1.8011622057 3.3077702439
6.3227453088 1.4088838258 3.3070547699
6.1696777914 1.0167300728 3.3038553813
6.0166838343 0.6247030238 3.2981986326
5.8637629102 0.2328046414 3.2901110792
5.7109144928 -0.1589632244 3.2796192742
5.5581380575 -0.5505988343 3.2667497649
5.4054330810 -0.9421005575 3.2515290893
5.2527990421 -1.3334668693 3.2339837736
5.1002354214 -1.7246963493 3.2141403290
4.9477417016 -2.1157876787 3.1920252485
4.7953173681 -2.5067396374 3.1676650048
4.6429619082 -2.8975511022 3.1410860477
4.4906748119 -3.2882210438 3.1123148014
4.3384555720 -3.6787485243 3.0813776623
4.1863036841 -4.0691326940 3.0483009974
4.0342186464 -4.4593727895 3.0131111416
3.8821999604 -4.8494681303 2.9758343965
3.7293389448 -5.2382634338 2.9368129650
3.5774542327 -5.6280719718 2.8954483183
3.4241014168 -6.0156756125 2.8526528522
3.2703612749 -6.4023615120 2.8081027323
3.1163370368 -6.7881747276 2.7618115476
2.9623628759 -7.1721679133 2.7139366963
2.8078597164 -7.5552581928 2.6644375759
2.6530641140 -7.9384952117 2.6131141221
2.4980281098 -8.3218444974 2.5599876823
2.3428923050 -8.7051944008 2.5050814797
2.1871883159 -9.0887949936 2.4484404669
2.0315220314 -9.4721841622 2.3900870845
1.8771886696 -9.8561255620 2.3296977157
1.7224403691 -10.2403640564 2.2676056922
8.2585469067 5.1220784847 3.1537386207
8.1012085608 4.7352921845 3.1750720598
7.9444832680 4.3490472424 3.1937080017
7.7882289498 3.9632378926 3.2096928945
7.6333409413 3.5751239917 3.2228858638
7.4787908970 3.1880916204 3.2334955651
7.3251760678 2.7997902010 3.2414104070
7.1717668951 2.4106490100 3.2467382765
7.0187501669 2.0211589484 3.2494873682
6.8660684677 1.6305855889 3.2496443308
6.7129098631 1.2383310568 3.2472807154
6.5598245552 0.8462029959 3.2424345460
6.4068120375 0.4542034167 3.2351324057
6.2538718044 0.0623342146 3.2254008760
6.1010033514 -0.3294028272 3.2132665339
5.9482061756 -0.7210060360 3.1987559481
5.7954797753 -1.1124738473 3.1818956760
5.6428236507 -1.5038048027 3.1627122611
5.4902373035 -1.8949975471 3.1412322291
5.3377202375 -2.2860508268 3.1174820862
5.1852719587 -2.6769634859 3.0914883158
5.0328919751 -3.0677344650 3.0632773767
4.8805797971 -3.4583627976 3.0328756998
4.7283349377 -3.8488476074 3.0003096872
4.5761569118 -4.2391881064 2.9656057088
4.4240452375 -4.6293835909 2.9287901017
4.2719994354 -5.0194334397 2.8898891675
4.1191496628 -5.4080576558 2.8492719281
3.9657805752 -5.7955173269 2.8069004344
3.8120669483 -6.1819352711 2.7627687967
3.6583943285 -6.5687072700 2.7166071501
3.5044799016 -6.9546599068 2.6686928442
3.3505337901 -7.3375255039 2.6194500219
3.1963026031 -7.7205449336 2.5683590026
3.0418447174 -8.1036792731 2.5154409640
2.8872205409 -8.4869000330 2.4607149852
2.7325883888 -8.8701049374 2.4041996092
2.5775514633 -9.2535292192 2.3459335796
2.4227609431 -9.6367540721 2.2859220843
2.2672973221 -10.0201592100 2.2242560085
2.1133065316 -10.4040503739 2.1605577651
8.6455726760 4.9476052588 3.1056142585
8.4884510553 4.5617222427 3.1253191287
8.3319348725 4.1762151846 3.1423334115
8.1758775775 3.7910108606 3.1567022083
8.0212605898 3.4034518072 3.1682521563
7.8669563858 3.0168641304 3.1772289710
7.7136150726 2.6289461014 3.1834966663
7.5609997735 2.2403394245 3.1871151096
7.4084621748 1.8511783082 3.1881853197
7.2560004807 1.4607782758 3.1866835032
7.1028222181 1.0685491024 3.1826789061
6.9497165094 0.6764480909 3.1761931019
6.7966828701 0.2844771873 3.1672526983
6.6437208168 -0.1073617772 3.1558842999
6.4908298669 -0.4990670835 3.1421145034
6.3380095392 -0.8906371232 3.1259698962
6.1852593535 -1.2820703952 3.1074770514
6.0325788314 -1.6733655041 3.0866625264
5.8799674959 -2.0645211575 3.0635528592
5.7274248718 -2.4555361634 3.0381745657
5.5749504855 -2.8464094275 3.0105541377
5.4225438657 -3.2371399503 2.9807180400
5.2702045427 -3.6277268254 2.9486927084
5.1179320494 -4.0181692351 2.9145045476
4.9657259205 -4.4084664491 2.8781799290
4.8135856931 -4.7986178206 2.8397451892
4.6606392801 -5.1871710864 2.7996011941
4.5071844645 -5.5743988539 2.7577075499
4.3538172986 -5.9619177851 2.7137339167
4.2001329213 -6.3484507469 2.6679918778
4.0462438689 -6.7340128692 2.6204984872
3.8923658635 -7.1199761140 2.5709994675
3.7385133791 -7.5028752516 2.5201707916
3.5844701471 -7.8858440488 2.4674958175
3.4302526932 -8.2688934622 2.4129931908
3.2759222543 -8.6520003500 2.3566808915
3.1216431374 -9.0350695591 2.2985748569
2.9670709953 -9.4183174660 2.2387106477
2.8128703626 -9.8013598406 2.1770824065
2.6582599665 -10.1845318977 2.1137718698
2.5029218319 -10.5679772773 2.0488229889
9.0320969222 4.7751094010 3.0526811814
8.8752570397 4.3899750092 3.0707649589
8.7189960270 4.0050690391 3.0861638024
8.5631694397 3.6203508397 3.0989216272
8.4088605486 3.2332299731 3.1088324133
8.2548307737 2.8469869924 3.1161789096
8.1017918721 2.4593569897 3.1208008877
7.9494821478 2.0709785898 3.1227652833
7.7977232903 1.6821717179 3.1221229557
7.6455963334 1.2919414239 3.1189530747
7.4923974760 0.8997378843 3.1133158408
7.3392704795 0.5076640254 3.1051986983
7.1862148818 0.1157217320 3.0946282760
7.0332302211 -0.2760872250 3.0816311969
6.8803160364 -0.6677611870 3.0662340750
6.7274718679 -1.0592986053 3.0484635122
6.5746972569 -1.4506980386 3.0283460947
6.4219917456 -1.8419581502 3.0059083908
6.2693548782 -2.2330777064 2.9811769475
6.1167861997 -2.6240555725 2.9541782883
5.9642852568 -3.0148907114 2.9249389104
5.8118515983 -3.4055821801 2.8934852828
5.6594847741 -3.7961291271 2.8598438436
5.5071843363 -4.1865307895 2.8240409983
5.3549498386 -4.5767864902 2.7861031177
5.2018599373 -4.9651967408 2.7464816723
5.0488813822 -5.3537692494 2.7047395878
4.8954051132 -5.7410768695 2.6612442134
4.7416237356 -6.1272215560 2.6159895464
4.5879039208 -6.5137459855 2.5686744376
4.4339939067 -6.8993023937 2.5196102512
4.2801227122 -7.2852670190 2.4685332994
4.1262924621 -7.6682475745 2.4161206773
3.9723628567 -8.0511915037 2.3618679985
3.8183011446 -8.4341800348 2.3057887130
3.6641630771 -8.8171965999 2.2479004436
3.5101095975 -9.2001528254 2.1882180515
3.3558326694 -9.5832462674 2.1267760527
3.2019893325 -9.9661221049 2.0635618967
3.0478908033 -10.3490659916 1.9986552768
2.8947940008 -10.7330758836 1.9316518371
9.4180501293 4.6054025487 2.9950398190
9.2615126888 4.2207653121 3.0115104076
9.1055192039 3.8362532377 3.0253003383
8.9499303977 3.4518492596 3.0364527002
8.7959439134 3.0650074587 3.0447290582
8.6421976503 2.6789762628 3.0504488232
8.4894728978 2.2915130345 3.0534279620
8.3374795863 1.9032541994 3.0537406778
8.1860252822 1.5145194243 3.0514412936
8.0344517122 1.1244673148 3.0465812473
7.8812351795 0.7322870858 3.0393221153
7.7280898773 0.3402378472 3.0295842594
7.5750153640 -0.0516785700 3.0173943255
7.4220111981 -0.4434604497 3.0027789517
7.2690769393 -0.8351061873 2.9857647655
7.1162121476 -1.2266142875 2.9663783802
6.9634163842 -1.6179833621 2.9446463920
6.8106892112 -2.0092121274 2.9205953773
6.6580301918 -2.4002994012 2.8942518898
6.5054388904 -2.7912441005 2.8656424579
6.3529148729 -3.1820452387 2.8347935824
6.2004577061 -3.5727019229 2.8017317342
6.0480669584 -3.9632133504 2.7664833524
5.8957422000 -4.3535788067 2.7290748416
5.7434830023 -4.7437976622 2.6895325710
5.5903486395 -5.1322359285 2.6483127258
5.4366886811 -5.5191790397 2.6053632515
5.2831322479 -5.9064543985 2.5603018999
5.1292699280 -6.2925655356 2.5134883213
4.9754907910 -6.6790674437 2.4646075761
4.8215343285 -7.0645954616 2.4139819180
4.6676398760 -7.4505427494 2.3613362631
4.5137690099 -7.8336708444 2.3073370751
4.3598853951 -8.2166209234 2.2515115500
4.2059023027 -8.5995767161 2.1938624045
4.0518639249 -8.9825314087 2.1344073119
3.8979189907 -9.3654046223 2.0731613467
3.7437810324 -9.7483765756 2.0101598706
3.5912097288 -10.1321229989 1.9449773300
3.4374423676 -10.5148733818 1.8784915389
3.2843875447 -10.8991317604 1.8098528633
9.8044718616 4.4350963577 2.9325216689
9.6482566365 4.0510015902 2.9473792940
9.4925513427 3.6669193370 2.9595592304
9.3372209357 3.2828581581 2.9691041931
9.1835933588 2.8963004689 2.9757390186
9.0301672676 2.5104861690 2.9798245566
8.8777987248 2.1231784309 2.9811502791
8.7261643551 1.7350163659 2.9797987917
8.5750541643 1.3463224028 2.9758286173
8.4242912442 0.9564288916 2.9692307101
8.2710488828 0.5642774870 2.9603473424
8.1178771063 0.1722583999 2.9489865500
7.9647754957 -0.2196265973 2.9351749949
7.8117436326 -0.6113758460 2.9189393292
7.6587810990 -1.0029877990 2.9003061924
7.5058874773 -1.3944610180 2.8793022080
7.3530623507 -1.7857941713 2.8559539808
7.2003053029 -2.1769860307 2.8302880940
7.0476159185 -2.5680354691 2.8023311062
6.8949937831 -2.9589414580 2.7721095492
6.7424384831 -3.3497030641 2.7396499258
6.5899496058 -3.7403194468 2.7049787076
6.4375267398 -4.1307898555 2.6681223321
6.2851694747 -4.5211136262 2.6291072020
6.1318186600 -4.9092874683 2.5884729324
5.9785990286 -5.2976742965 2.5456842222
5.8248284888 -5.6845524696 2.5011820062
5.6711843666 -6.0717797024 2.4545602454
5.5172355657 -6.4578320609 2.4061948948
5.3633948318 -6.8442920475 2.3557539140
5.2093928294 -7.2297598490 2.3035741083
5.0554788826 -7.6156647224 2.2493652093
4.9015435845 -7.9990387232 2.1937637338
4.7476877397 -8.3820258318 2.1363621639
4.5937785339 -8.7649699371 2.0771394831
4.4408394037 -9.1488167335 2.0157412342
4.2870494944 -9.5316495222 1.9529110781
4.1331121547 -9.9145576498 1.8883233461
3.9805439679 -10.2984949951 1.8215224621
10.1903841252 4.2686448395 2.8654339457
10.0344330130 3.8847337890 2.8786894437
9.8789657606 3.5007947316 2.8892687519
9.7238497705 3.1168437905 2.8972146674
9.5705508283 2.7303573738 2.9022156469
9.4174161700 2.3445861798 2.9046735423
9.2653819493 1.9572781295 2.9043519885
9.1140861045 1.5690764340 2.9013424454
8.9632975738 1.1803040550 2.8957080073
8.8127651694 0.7902884737 2.8874480527
8.6595074886 0.3981589015 2.8769539834
8.5063198207 0.0061627287 2.8639835687
8.3532017664 -0.3856983208 2.8485634825
8.2001529269 -0.7774226363 2.8307203878
8.0471729033 -1.1690087181 2.8104809331
7.8942612974 -1.5604551752 2.7878717495
7.7414177112 -1.9517607220 2.7629194480
7.5886417470 -2.3429241768 2.7356506161
7.4359330079 -2.7339444577 2.7060918162
7.2832910975 -3.1248205808 2.6742695819
7.1307156198 -3.5155516570 2.6402104171
6.9782061798 -3.9061368890 2.6039407923
6.8257623834 -4.2965755687 2.5654871441
6.6733838368 -4.6868670739 2.5248758722
6.5199176222 -5.0749523833 2.4826856533
6.3666002736 -5.4632706773 2.4383343436
6.2127026693 -5.8500536166 2.3922892939
6.0589514415 -6.2372078380 2.3441164763
5.9048975711 -6.6231613166 2.2942117491
5.7509705022 -7.0095442121 2.2422230531
5.5968998288 -7.3948942193 2.1885060434
5.4429325298 -7.7807019897 2.1327522966
5.2889057354 -8.1644859553 2.0755193707
5.1360509316 -8.5484503609 2.0161712409
4.9821369485 -8.9314511919 1.9553713392
4.8282400865 -9.3143835198 1.8927676449
4.6753005218 -9.6983042132 1.8279841582
10.5763190459 4.1023763776 2.7936351955
10.4206640520 3.7186426246 2.8052840715
10.2654626146 3.3348390256 2.8142585641
10.1105854003 2.9509898809 2.8206015104
9.9576605482 2.5645467127 2.8239592185
9.8048593831 2.1787946040 2.8247803920
9.6532079755 1.7914486048 2.8227994999
9.5022968580 1.4031610874 2.8181185608
9.3518675393 1.0142582012 2.8108064466
9.2015559807 0.6240612071 2.8008776237
9.0482787506 0.2319561630 2.7887737528
8.8950709720 -0.1600144321 2.7741946602
8.7419322664 -0.5518489036 2.7571670309
8.5888622555 -0.9435456893 2.7377175369
8.4358605607 -1.3351033379 2.7158728344
8.2829268037 -1.7265205059 2.6916595608
8.1300606060 -2.1177959554 2.6651043315
7.9772615896 -2.5089285506 2.6362337377
7.8245293765 -2.8999172561 2.6050743435
7.6718635891 -3.2907611328 2.5716526832
7.5192638502 -3.6814593361 2.5359952601
7.3667297827 -4.0720111125 2.4981285431
7.2142610102 -4.4624157964 2.4580789655
7.0618571564 -4.8526728076 2.4158729232
6.9082526235 -5.2406414409 2.3721376034
6.7548179816 -5.6288689331 2.3262328508
6.6007694405 -6.0155137889 2.2786594699
6.4468889771 -6.4025584502 2.2289486282
6.2927089553 -6.7883509828 2.1775227872
6.1386728400 -7.1745997254 2.1240041569
5.9856438017 -7.5605803652 2.0683992420
5.8315703203 -7.9462015413 2.0111274281
5.6774470106 -8.3306951249 1.9521971826
5.5234758754 -8.7139649720 1.8916274411
5.3704067175 -9.0980738055 1.8288696680
10.9623168450 3.9363780849 2.7171483335
10.8069954692 3.5528106306 2.7271847980
10.6520918059 3.1691302724 2.7345491867
10.4974810113 2.7853702173 2.7392842820
10.3449859199 2.3989315753 2.7409863686
10.1925701662 2.0131654679 2.7401588957
10.0413608186 1.6257310492 2.7365029550
9.8908882016 1.2372971611 2.7301337214
9.7408562462 0.8481971796 2.7211278849
9.5907236548 0.4577485943 2.7095269120
9.4374221256 0.0656710817 2.6958142908
9.2841894970 -0.3262709695 2.6796276193
9.1310254123 -0.7180759341 2.6609935918
8.9779295148 -1.1097423000 2.6399388880
8.8249014471 -1.5012686646 2.6164901701
8.6719408518 -1.8926537332 2.5906740801
8.5190473712 -2.2838963152 2.5625172367
8.3662206473 -2.6749953224 2.5320462327
8.2134603224 -3.0659497654 2.4992876326
8.0607660383 -3.4567587510 2.4642679701
7.9081374368 -3.8474214793 2.4270137459
7.7555741600 -4.2379372404 2.3875514261
7.6030758498 -4.6283054120 2.3459074396
7.4506421481 -5.0185254560 2.3021081769
7.2968669479 -5.4063351581 2.2568435663
7.1432866409 -5.7944376315 2.2093989920
6.9890510308 -6.1808757619 2.1603199108
6.8350053634 -6.5677495093 2.1090924409
6.6819044820 -6.9541287497 2.0557772898
6.5276782343 -7.3401368122 2.0007645556
