-4.7389664804 -1.0504423873 1.3820653613
-4.8945434263 -1.4277065553 1.3792952313
-5.0500836591 -1.8049835287 1.3745456461
-5.2055876041 -2.1822728954 1.3678403878
-5.3610556864 -2.5595742490 1.3592032397
-5.5164883312 -2.9368871894 1.3486579850
-5.6719093775 -3.3141937015 1.3362271204
-5.8273614214 -3.6914795474 1.3219324868
-5.9828395599 -4.0687852761 1.3057981345
-6.1383462282 -4.4460810793 1.2878485182
-6.2938732476 -4.8232988677 1.2681104354
-6.4494115821 -5.2006638781 1.2466016595
-6.6049420060 -5.5778214642 1.2233593418
-6.7604727581 -5.9550550906 1.1983972017
-6.9160099073 -6.3323730037 1.1717373595
-0.3019428069 8.5935551716 0.7508075085
-0.4588765813 8.2170875721 0.8061907348
-0.6157310217 7.8406557171 0.8589739522
-0.7725126232 7.4642519068 0.9091826193
-0.9292359386 7.0875880248 0.9568854610
-1.0858721656 6.7110281660 1.0020497024
-1.2424214532 6.3343366655 1.0447356465
-1.3988741179 5.9575832750 1.0849562498
-1.5552319242 5.5807981614 1.1227303125
-1.7114992522 5.2039218617 1.1580884946
-1.8677369918 4.8269210674 1.1910519284
-2.0239309596 4.4498997667 1.2216318075
-2.1800815730 4.0728584775 1.2498518804
-2.3361892502 3.6957977115 1.2757358994
-2.4922544107 3.3187179740 1.2993076207
-2.6482774741 2.9416197639 1.3205908041
-2.8042588617 2.5645035741 1.3396092123
-2.9601989946 2.1873698904 1.3563866118
-3.1160982952 1.8102191925 1.3709467715
-3.2719571859 1.4330519536 1.3833134633
-3.4277760900 1.0558686399 1.3935104615
-3.5835554310 0.6786697116 1.4015615424
-3.7392956327 0.3014556220 1.4074904847
-3.8949971194 -0.0757731822 1.4113210687
-4.0506603154 -0.4530162605 1.4130770763
-4.2062856452 -0.8302731792 1.4127822910
-4.3618735335 -1.2075435108 1.4104604974
-4.5174244051 -1.5848268345 1.4061354812
-4.6729386845 -1.9621227354 1.3998310286
-4.8284167965 -2.3394308053 1.3915709270
-4.9838591653 -2.7167506420 1.3813789637
-5.1392662155 -3.0940818494 1.3692789267
-5.2946614381 -3.4714054879 1.3552937467
-5.4500877313 -3.8487079645 1.3394458117
-5.6055402057 -4.2260299669 1.3217587746
-5.7610213312 -4.6033418128 1.3022573593
-5.9165230066 -4.9805756987 1.2809688318
-6.0720359120 -5.3579561575 1.2579090116
-6.2275412600 -5.7351298485 1.2331177474
-6.3830469166 -6.1123792073 1.2066065182
-6.5385589518 -6.4897124206 1.1783974424
0.0745202189 8.4369410052 0.8143190386
-0.0823856771 8.0604525570 0.8681533575
-0.2392124547 7.6839998792 0.9193878140
-0.3959665832 7.3075752694 0.9680478620
-0.5526617033 6.9308903098 1.0142000278
-0.7092701217 6.5543095147 1.0578141864
-0.8657912687 6.1775968424 1.0989487349
-1.0222156746 5.8008221102 1.1376170868
-1.1785452181 5.4240155230 1.1738382934
-1.3347842628 5.0471172877 1.2076425862
-1.4909941428 4.6700934416 1.2390514776
-1.6471603763 4.2930493624 1.2680767431
-1.8032833813 3.9159855671 1.2947421378
-1.9593635763 3.5389025658 1.3190714206
-2.1154013806 3.1618008621 1.3410883543
-2.2713972144 2.7846809534 1.3608167050
-2.4273514984 2.4075433298 1.3782802424
-2.5832646541 2.0303884754 1.3935027389
-2.7391371035 1.6532168671 1.4065079697
-2.8949692691 1.2760289754 1.4173197128
-3.0507615737 0.8988252636 1.4259617483
-3.2065144404 0.5216061887 1.4324578584
-3.3622282929 0.1443722007 1.4368318277
-3.5179035547 -0.2328762567 1.4391074417
-3.6735406499 -0.6101387470 1.4393084879
-3.8291400023 -0.9874148401 1.4374587550
-3.9847020360 -1.3647041124 1.4335820326
-4.1402271751 -1.7420061467 1.4277021115
-4.2957158434 -2.1193205329 1.4198427827
-4.4511684647 -2.4966468663 1.4100278381
-4.6065854628 -2.8739847493 1.3982810694
-4.7619672611 -3.2513337901 1.3846262691
-4.9173369892 -3.6286741343 1.3690868083
-5.0727378281 -4.0059928460 1.3516856158
-5.2281649111 -4.3833307382 1.3324459451
-5.3836207371 -4.7606582640 1.3113927874
-5.5390972737 -5.1379079258 1.2885538712
-5.6945849600 -5.5153034798 1.2639430760
-5.8500653935 -5.8924929986 1.2376029234
-6.0055461132 -6.2697578009 1.2095426709
-6.1610331890 -6.6471060122 1.1797844361
0.4510677401 8.2802577289 0.8725818792
0.2941895869 7.9037487370 0.9248671410
0.1373903328 7.5272755274 0.9745526957
-0.0193364646 7.1508303969 1.0216639916
-0.1760035770 6.7741247147 1.0662653229
-0.3325843703 6.3975233047 1.1083292568
-0.4890775963 6.0207898226 1.1479122559
-0.6454739908 5.6439941315 1.1850281994
-0.8017755420 5.2671664646 1.2196963936
-0.9579866057 4.8902467162 1.2519466342
-1.1141689418 4.5132002665 1.2818008122
-1.2703077599 4.1361338596 1.3092713032
-1.4264034779 3.7590480106 1.3343818693
-1.5824565142 3.3819432281 1.3571562761
-1.7384672883 3.0048200137 1.3776182930
-1.8944362203 2.6276788623 1.3957916927
-2.0503637307 2.2505202619 1.4117002511
-2.2062502409 1.8733446937 1.4253677470
-2.3620961725 1.4961526319 1.4368179618
-2.5179019475 1.1189445437 1.4460746795
-2.6736679885 0.7417208894 1.4531616861
-2.8293947181 0.3644821226 1.4581027695
-2.9850825593 -0.0127713102 1.4609217197
-3.1407319352 -0.3900389693 1.4616423280
-3.2963432690 -0.7673204219 1.4602883872
-3.4519169840 -1.1446152418 1.4568836908
-3.6074535034 -1.5219230095 1.4514520336
-3.7629532504 -1.8992433123 1.4440172112
-3.9184166480 -2.2765757439 1.4346030191
-4.0738441192 -2.6539199046 1.4232332538
-4.2292360869 -3.0312754009 1.4099317114
-4.3845929731 -3.4086418458 1.3947221884
-4.5399375325 -3.7859984802 1.3776285027
-4.6953132103 -4.1633330374 1.3586741155
-4.8507151714 -4.5406864413 1.3378818807
-5.0061459379 -4.9180292906 1.3152770534
-5.1615975380 -5.2952944124 1.2908878187
-5.3170602117 -5.6727047150 1.2647261325
-5.4725158893 -6.0499097901 1.2368371611
-5.6279718278 -6.4271897529 1.2072279628
-5.7834340957 -6.8045526667 1.1759206556
0.8276983204 8.1235064494 0.9256176463
0.6708477696 7.7469772236 0.9763537129
0.5140758954 7.3704837777 1.0244902365
0.3573762830 6.9940184092 1.0700526585
0.2007369861 6.6172923639 1.1131030115
0.0441836300 6.2406706650 1.1536165924
-0.1122818988 5.8639167397 1.1916479047
-0.2686505338 5.4871004772 1.2272113001
-0.4249243677 5.1102521293 1.2603263437
-0.5811077569 4.7333112949 1.2910223897
-0.7372628694 4.3562426956 1.3193217042
-0.8933745945 3.9791544165 1.3452372814
-1.0494433500 3.6020469709 1.3687928902
-1.2054695545 3.2249208653 1.3900123031
-1.3614536271 2.8477765988 1.4089192960
-1.5173959876 2.4706146639 1.4255376481
-1.6732970563 2.0934355456 1.4398911416
-1.8291572541 1.7162397223 1.4520035617
-1.9849770021 1.3390276649 1.4618986957
-2.1407567220 0.9617998373 1.4696003336
-2.2964968357 0.5845566963 1.4751322672
-2.4521977651 0.2072986917 1.4785182903
-2.6078599326 -0.1699737337 1.4797821981
-2.7634837605 -0.5472601443 1.4789477873
-2.9190696711 -0.9245601115 1.4760388557
-3.0746180870 -1.3018732131 1.4710792022
-3.2301294303 -1.6791990342 1.4640926262
-3.3856041233 -2.0565371664 1.4551029278
-3.5410425882 -2.4338872081 1.4441339073
-3.6964452467 -2.8112487641 1.4312093653
-3.8518125204 -3.1886214458 1.4163531022
-4.0071448307 -3.5660048707 1.3995889184
-4.1624645433 -3.9433773864 1.3809410838
-4.3178153489 -4.3207274056 1.3604335835
-4.4731924537 -4.6980959502 1.3380888715
-4.6285983969 -5.0754537732 1.3139324632
-4.7840252590 -5.4527340457 1.2879929940
-4.9394631231 -5.8301587579 1.2602805154
-5.0948941999 -6.2073791239 1.2308428061
-5.2503255092 -6.5846739710 1.1996847505
-5.4057631174 -6.9620512989 1.1668284688
1.2044105236 7.9666882834 0.9734480103
1.0475874310 7.5901391372 1.0226347557
0.8908427891 7.2136257541 1.0692221307
0.7341702118 6.8371404342 1.1132355687
0.5775585340 6.4603943893 1.1547348145
0.4210324238 6.0837527308 1.1936979286
0.2645943647 5.7069787330 1.2301774328
0.1082532332 5.3301422903 1.2641881582
-0.0479931616 4.9532736636 1.2957499320
-0.2041491862 4.5763121743 1.3248916612
-0.3602773985 4.1992218836 1.3516359836
-0.5163623560 3.8221121920 1.3759965294
-0.6724044765 3.4449836102 1.3979970743
-0.8284041777 3.0678366422 1.4176613974
-0.9843618790 2.6906717845 1.4350132810
-1.1402779996 2.3134895266 1.4500765111
-1.2961529592 1.9362903506 1.4628748762
-1.4519871782 1.5590747313 1.4734321673
-1.6077810772 1.1818431364 1.4817721780
-1.7635350771 0.8045960258 1.4879187041
-1.9192495990 0.4273338528 1.4918955431
-2.0749250642 0.0500570630 1.4937264942
-2.2305618941 -0.3272339049 1.4934353582
-2.3861605100 -0.7045386195 1.4910459368
-2.5417213335 -1.0818566566 1.4865820330
-2.6972447858 -1.4591875985 1.4800674504
-2.8527312884 -1.8365310350 1.4715259931
-3.0081812622 -2.2138865622 1.4609814657
-3.1635951282 -2.5912537836 1.4484576729
-3.3189733071 -2.9686323085 1.4339784194
-3.4743162192 -3.3460217534 1.4175675096
-3.6296242848 -3.7234217409 1.3992487476
-3.7849194674 -4.1008097355 1.3790468601
-3.9402456851 -4.4781748412 1.3569863459
-4.0955981942 -4.8555581631 1.3330892605
-4.2509795456 -5.2329306179 1.3073813755
-4.4063818642 -5.6102257387 1.2798917687
-4.5617951169 -5.9876645299 1.2506286103
-4.7172017445 -6.3648999279 1.2196422545
-4.8726085731 -6.7422093900 1.1869354414
-5.0280216654 -7.1196008517 1.1525302936
1.5812029167 7.8098043550 1.0160946961
1.4244071340 7.4332356051 1.0637320071
1.2676895737 7.0567025872 1.1087701281
1.1110438788 6.6801976051 1.1512344838
0.9544596201 6.3034319273 1.1911825094
0.7979605614 5.9267706413 1.2285950568
0.6415497415 5.5499769445 1.2635226482
0.4852358547 5.1731207155 1.2959805998
0.3290166180 4.7962322150 1.3259890034
0.1728876456 4.4192505046 1.3535763144
0.0167860078 4.0421389845 1.3787655380
-0.1392725094 3.6650083426 1.4015709568
-0.2952883231 3.2878590870 1.4220163530
-0.4512618513 2.9106917190 1.4401255123
-0.6071935121 2.5335067321 1.4559222239
-0.7630837245 2.1563046124 1.4694302799
-0.9189329076 1.7790858387 1.4806734749
-1.0747414809 1.4018508821 1.4896756062
-1.2305098645 1.0246002063 1.4964604734
-1.3862384781 0.6473342678 1.5010518777
-1.5419277420 0.2700535152 1.5034736224
-1.6975780767 -0.1072416100 1.5037495121
-1.8531899025 -0.4845506734 1.5019033525
-2.0087636398 -0.8618732483 1.4979589509
-2.1642997087 -1.2392089148 1.4919401148
-2.3197985296 -1.6165572603 1.4838706525
-2.4752605227 -1.9939178793 1.4737743727
-2.6306861077 -2.3712903730 1.4616750844
-2.7860757043 -2.7486743494 1.4475965962
-2.9414297317 -3.1260694234 1.4315627168
-3.0967486091 -3.5034752163 1.4135972545
-3.2520327552 -3.8808913561 1.3937240170
-3.4073037188 -4.2582944359 1.3719681917
-3.5626056273 -4.6356742601 1.3483547806
-3.7179337960 -5.0130720043 1.3229054416
-3.8732907818 -5.3904587577 1.2956461988
-4.0286687467 -5.7677684321 1.2666065640
-4.1840575814 -6.1452209805 1.2357928515
-4.3394399071 -6.5224711587 1.2032579509
-4.4948223990 -6.8997949745 1.1690024899
-4.6502111150 -7.2772002978 1.1330485950
1.9580740724 7.6528557932 1.0535794839
1.8013054483 7.2762677590 1.0996672597
1.6446148157 6.8997154109 1.1431560340
1.4879958480 6.5231910581 1.1840712214
1.3314388057 6.1464061161 1.2224679289
1.1749666017 5.7697255371 1.2583298247
1.0185827878 5.3929125165 1.2917054152
0.8622958855 5.0160368973 1.3226105071
0.7061035239 4.6391289298 1.3510654594
0.5500012898 4.2621274339 1.3770982717
0.3939258997 3.8849951482 1.4007323120
0.2378934947 3.5078440198 1.4219825300
0.0819036585 3.1306745542 1.4408727147
-0.0740440263 2.7534872491 1.4574266587
-0.2299499774 2.3762825948 1.4716681573
-0.3858146127 1.9990610739 1.4836210091
-0.5416383506 1.6218231613 1.4933090147
-0.6974216099 1.2445693243 1.5007559774
-0.8531648093 0.8673000224 1.5059857024
-1.0088683680 0.4900157078 1.5090219969
-1.1645327052 0.1127168248 1.5098886693
-1.3201582402 -0.2645961896 1.5086095295
-1.4757453920 -0.6419229060 1.5052083884
-1.6312945798 -1.0192629020 1.4997090581
-1.7868062228 -1.3966157628 1.4921353506
-1.9422807398 -1.7739810810 1.4825110791
-2.0977185497 -2.1513584558 1.4708600562
-2.2531200709 -2.5287474936 1.4572060953
-2.4084857217 -2.9061478078 1.4415730088
-2.5638159199 -3.2835590182 1.4239846093
-2.7191110832 -3.6609807518 1.4044647085
-2.8743716288 -4.0384126416 1.3830371174
-3.0296186776 -4.4158304218 1.3597274877
-3.1848965490 -4.7932246059 1.3345613129
-3.3402006263 -5.1706364267 1.3075598560
-3.4955334671 -5.5480371539 1.2787493884
-3.6508872629 -5.9253610958 1.2481598473
-3.8062518672 -6.3028270893 1.2157957190
-3.9616100341 -6.6800918033 1.1817123848
-4.1169683287 -7.0574297194 1.1459083953
-4.2723328032 -7.4348486410 1.1084058818
2.3350225719 7.4958437300 1.0859242081
2.1782809526 7.1192367324 1.1304623609
2.0216170916 6.7426653604 1.1724017084
1.8650246938 6.3661219301 1.2117676538
1.7084946630 5.9893180942 1.2486129612
1.5520491152 5.6126185576 1.2829241349
1.3956920730 5.2357865897 1.3147476536
1.2394318927 4.8588919773 1.3440998184
1.0832661228 4.4819649501 1.3710012575
0.9271903126 4.1049441051 1.3954795115
0.7711408429 3.7277915188 1.4175583055
0.6151342224 3.3506203685 1.4372532710
0.4591700351 2.9734311561 1.4545882037
0.3032478647 2.5962243762 1.4695869026
0.1473672944 2.2190005153 1.4822731695
-0.0084720932 1.8417600520 1.4926708087
-0.1642707152 1.4645034571 1.5008036273
-0.3200289894 1.0872311937 1.5066954343
-0.4757473334 0.7099437170 1.5103700404
-0.6314261655 0.3326414745 1.5118512584
-0.7870659033 -0.0446750941 1.5111629018
-0.9426669651 -0.4220055565 1.5083287858
-1.0982297685 -0.7993494883 1.5033727261
-1.2537547316 -1.1767064723 1.4963185392
-1.4092422720 -1.5540760986 1.4871900420
-1.5646928072 -1.9314579649 1.4760110517
-1.7201067545 -2.3088516759 1.4628053855
-1.8754845309 -2.6862568432 1.4475968599
-2.0308265531 -3.0636730855 1.4304092919
-2.1861332376 -3.4411000284 1.4112664970
-2.3414050003 -3.8185373038 1.3901922905
-2.4966422567 -4.1959845505 1.3672104865
-2.6518656875 -4.5734166558 1.3423472032
-2.8071197870 -4.9508248509 1.3156284144
-2.9624000151 -5.3282504123 1.2870749897
-3.1177089249 -5.7056647984 1.2567134434
-3.2730387309 -6.0830027302 1.2245741292
-3.4283792865 -6.4604818666 1.1906597351
-3.5837134323 -6.8377608803 1.1550280878
-3.7390476640 -7.2151126519 1.1176756982
-3.8943880269 -7.5925449177 1.0786247036
2.7120470081 7.3387692976 1.1131507577
2.5553322373 6.9621436587 1.1561392129
2.3986949903 6.5855535699 1.1965290659
2.2421290034 6.2089913561 1.2343457081
2.0856257780 5.8321689974 1.2696395494
1.9292066866 5.4554508391 1.3023999454
1.7728761808 5.0786003005 1.3326713382
1.6166424603 4.7016870917 1.3604705266
1.4605029982 4.3247414122 1.3858184096
1.3044532980 3.9477016542 1.4087420666
1.1484294222 3.5705292322 1.4292655735
0.9924482593 3.1933385236 1.4474052567
0.8365093940 2.8161300269 1.4631849186
0.6806124110 2.4389042327 1.4766283644
0.5247568944 2.0616616235 1.4877594022
0.3689424281 1.6844026738 1.4966018426
0.2131685960 1.3071278498 1.5031794980
0.0574349813 0.9298376102 1.5075161835
-0.0982588323 0.5525324057 1.5096357152
-0.2539132615 0.1752126786 1.5095619110
-0.4095287229 -0.2021211360 1.5073185897
-0.5651056331 -0.5794686111 1.5029295712
-0.7206444087 -0.9568293273 1.4964186760
-0.8761454660 -1.3342028727 1.4878097251
-1.0316092211 -1.7115888427 1.4771265398
-1.1870360901 -2.0889868405 1.4643929411
-1.3424264887 -2.4663964760 1.4496327500
-1.4977808323 -2.8438173666 1.4328697872
-1.6530995360 -3.2212491364 1.4141278728
-1.8083830144 -3.5986914165 1.3934308258
-1.9636316822 -3.9761438447 1.3708024646
-2.1188459530 -4.3536060649 1.3462666062
-2.2740460542 -4.7310521305 1.3198498369
-2.4292766393 -5.1084739977 1.2915785982
-2.5845332531 -5.4859129743 1.2614733700
-2.7398184392 -5.8633407147 1.2295609040
-2.8951244281 -6.2406923681 1.1958719602
-3.0504411105 -6.6181843558 1.1604074618
-3.2057513681 -6.9954774409 1.1232276303
-3.3610616663 -7.3728428322 1.0843269774
-3.5163780419 -7.7502881977 1.0437276474
3.0891459877 7.1816336264 1.1352810749
2.9324579081 6.8049896687 1.1767197709
2.7758471160 6.4283811706 1.2155600749
2.6193073799 6.0518004675 1.2518273650
2.4628307527 5.6749599563 1.2855696902
2.3064379179 5.2982235119 1.3167792676
2.1501337130 4.9213547788 1.3454984971
1.9939261901 4.5444233696 1.3717446782
1.8378127529 4.1674594439 1.3955389817
1.6817888498 3.7904012074 1.4169080233
1.5257902434 3.4132094134 1.4358762240
1.3698342133 3.0359996086 1.4524606168
1.2139203457 2.6587722876 1.4666850107
1.0580482259 2.2815279369 1.4785732170
0.9022174394 1.9042670344 1.4881490500
0.7464275714 1.5269900503 1.4954363260
0.5906782069 1.1496974462 1.5004588634
0.4349689306 0.7723896758 1.5032404825
0.2792993276 0.3950671847 1.5038050049
0.1236689825 0.0177304106 1.5021762534
-0.0319225199 -0.3596202169 1.4983780518
-0.1874755946 -0.7369842761 1.4924342246
-0.3429906565 -1.1143613529 1.4843685970
-0.4984681204 -1.4917510408 1.4742049940
-0.6539084009 -1.8691529410 1.4619672410
-0.8093119123 -2.2465666618 1.4476791630
-0.9646790686 -2.6239918192 1.4313645847
-1.1200102837 -3.0014280360 1.4130473301
-1.2753059707 -3.3788749420 1.3927512225
-1.4305665429 -3.7563321742 1.3705000843
-1.5857924126 -4.1337993757 1.3463177364
-1.7409839921 -4.5112761969 1.3202279987
-1.8961610436 -4.8887358690 1.2922579271
-2.0513683634 -5.2661710808 1.2624344171
-2.2066015900 -5.6436231579 1.2307775627
-2.3618632523 -6.0210639586 1.1973143475
-2.5171455908 -6.3984290749 1.1620759280
-2.6724385684 -6.7759336330 1.1250614966
-2.8277250653 -7.1532405703 1.0863336177
-2.9830115537 -7.5306193547 1.0458848461
-3.1383040606 -7.9080775855 1.0037373344
3.4663181343 7.0244378424 1.1523371547
3.3096565874 6.6477758878 1.1922260432
3.1530720902 6.2711492875 1.2295167563
2.9965584447 5.8945503888 1.2642346580
2.8401082083 5.5176920945 1.2964254328
2.6837414301 5.1409376987 1.3260841654
2.5274632914 4.7640511456 1.3532512114
2.3712817052 4.3871019300 1.3779443721
2.2151940115 4.0101201622 1.4001850912
2.0591955952 3.6330438794 1.4199995200
1.9032219361 3.2558331748 1.4374124167
1.7472907173 2.8786047331 1.4524415325
1.5914015260 2.5013590445 1.4651106822
1.4355539491 2.1240965910 1.4754436838
1.2797475733 1.7468178459 1.4834643571
1.1239819852 1.3695232745 1.4891965242
0.9682567711 0.9922133337 1.4926640092
0.8125715174 0.6148884720 1.4938906375
0.6569258105 0.2375491297 1.4929002357
0.5013192366 -0.1398042610 1.4897166317
0.3457513821 -0.5171712756 1.4843636538
0.1902218338 -0.8945514980 1.4768651313
0.0347301783 -1.2719445196 1.4672448931
-0.1207239975 -1.6493499398 1.4555267687
-0.2761411064 -2.0267673652 1.4417345871
-0.4315215608 -2.4041964101 1.4258921770
-0.5868657732 -2.7816366962 1.4080233665
-0.7421741556 -3.1590878521 1.3881519830
-0.8974471192 -3.5365495136 1.3663018527
-1.0526850755 -3.9140213232 1.3424968006
-1.2078884351 -4.2915029302 1.3167606504
-1.3630576082 -4.6689939904 1.2891172246
-1.5182118804 -5.0464669272 1.2595940487
-1.6733961755 -5.4239151670 1.2282184594
-1.8286062333 -5.8013800415 1.1950101685
-1.9838445643 -6.1788336196 1.1599963857
-2.1391034121 -6.5562119502 1.1232086532
-2.2943728463 -6.9337288095 1.0846444702
-2.4496357043 -7.3110493884 1.0443686877
-2.6048985007 -7.6884413488 1.0023719493
-2.7601672521 -8.0659122204 0.9586764165
3.8435620907 6.8671830654 1.1643410434
3.6869269171 6.4905034347 1.2026800892
3.5303685550 6.1138590379 1.2384211823
3.3738808397 5.7372422363 1.2715896718
3.2174567876 5.3603665264 1.3022288777
3.0611158667 4.9835945117 1.3303367541
2.9048635607 4.6066905108 1.3559516126
2.7487076520 4.2297238802 1.3790917579
2.5926454231 3.8527246713 1.3997789064
2.4366721863 3.4756307709 1.4180387448
2.2807231557 3.0984016140 1.4338963610
2.1248164304 2.7211549907 1.4473702339
1.9689515988 2.3438913867 1.4584841846
1.8131282492 1.9666112793 1.4672620367
1.6573459697 1.5893151370 1.4737276160
1.5016043485 1.2120034197 1.4779047501
1.3459029734 0.8346765791 1.4798172681
1.1902414324 0.4573350585 1.4794890006
1.0346193135 0.0799792928 1.4769437795
0.8790362048 -0.2973902914 1.4722054369
0.7234916943 -0.6747732754 1.4652978058
0.5679853705 -1.0521692487 1.4562447194
0.4125168218 -1.4295778084 1.4450700110
0.2570856370 -1.8069985598 1.4317975137
0.1016914050 -2.1844311155 1.4164510602
-0.0536662847 -2.5618750955 1.3990544825
-0.2089878428 -2.9393301276 1.3796316119
-0.3642736790 -3.3167958462 1.3582062787
-0.5195242032 -3.6942718931 1.3348023119
-0.6747398245 -4.0717579168 1.3094435391
-0.8299209519 -4.4492535726 1.2821537865
-0.9850679935 -4.8267585220 1.2529568786
-1.1401997468 -5.2042443935 1.2218808108
-1.2953612483 -5.5817053569 1.1889533463
-1.4505483473 -5.9591827376 1.1541938198
-1.6057635312 -6.3366488215 1.1176296609
-1.7609990413 -6.7140401281 1.0792927870
-1.9162450862 -7.0915690308 1.0391790421
-2.0714844211 -7.4689030501 0.9973555067
-2.2267236374 -7.8463079790 0.9538109599
-2.3819687404 -8.2237912773 0.9085675727
4.2208765210 6.7098704059 1.1713148376
4.0642675619 6.3331734182 1.2081040188
3.9077351751 5.9565115292 1.2422954755
3.7512732301 5.5798771154 1.2739145412
3.5948751566 5.2029843545 1.3030021753
3.4385598954 4.8261950511 1.3295591983
3.2823331906 4.4492739712 1.3536218818
3.1262027030 4.0722903135 1.3752090342
2.9701656631 3.6952740603 1.3943426443
2.8142173024 3.3181629668 1.4110479344
2.6582925864 2.9409158114 1.4253503144
2.5024100416 2.5636514570 1.4372689991
2.3465692580 2.1863703847 1.4468278158
2.1907698255 1.8090730665 1.4540505939
2.0350113339 1.4317599657 1.4589611646
1.8792933727 1.0544315369 1.4615833608
1.7236155316 0.6770882264 1.4619410168
1.5679774005 0.2997304717 1.4600579682
1.4123785689 -0.0776412977 1.4559580510
1.2568186267 -0.4550266612 1.4496651022
1.1012971640 -0.8324252059 1.4412029589
0.9458137709 -1.2098365271 1.4305954583
0.7903680379 -1.5872602280 1.4178664374
0.6349595555 -1.9646959196 1.4030397329
0.4795879146 -2.3421432208 1.3861391807
0.3242527066 -2.7196017578 1.3671886162
0.1689535231 -3.0970711641 1.3462118733
0.0136899558 -3.4745510803 1.3232327853
-0.1415384028 -3.8520411543 1.2982751835
-0.2967319600 -4.2295410406 1.2713628981
-0.4518911228 -4.6070504005 1.2425197571
-0.6070162974 -4.9845689017 1.2117695869
-0.7621257819 -5.3620673906 1.1791408522
-0.9172647115 -5.7395407855 1.1446617281
-1.0724290525 -6.1170303932 1.1083511773
-1.2276212652 -6.4945087232 1.0702368434
-1.3828335830 -6.8719127780 1.0303510072
-1.5380563849 -7.2494534784 0.9886878983
-1.6932723066 -7.6268007458 0.9453167665
-1.8484880490 -8.0042184458 0.9002245754
-2.0037096042 -8.3817139676 0.8534335066
4.5982601134 6.5525009642 1.1732806825
4.4416772103 6.1757869359 1.2085199900
4.2851706399 5.7991078562 1.2411618066
4.1287343065 5.4224561187 1.2712314489
3.9723620077 5.0455466679 1.2987675237
3.8160722104 4.6687404026 1.3237737104
3.6598708781 4.2918026087 1.3462842475
3.5037655583 3.9148023070 1.3663184463
3.3477534358 3.5377694018 1.3838985680
3.1918296525 3.1606415344 1.3990493714
3.0359289422 2.7833768289 1.4117965794
2.8800702706 2.4060951882 1.4221601507
2.7242532295 2.0287970881 1.4301639185
2.5684774102 1.6514829952 1.4358317175
2.4127424044 1.2741533675 1.4391873843
2.2570478034 0.8968086539 1.4402547568
2.1013931989 0.5194492950 1.4390576743
1.9457781821 0.1420757226 1.4356199770
1.7902023449 -0.2353116401 1.4299655052
1.6346652790 -0.6127123779 1.4221181003
1.4791665762 -0.9901260842 1.4121016031
1.3237058289 -1.3675523604 1.3999398546
1.1682826293 -1.7449908158 1.3856566954
1.0128965701 -2.1224410677 1.3692759654
0.8575472442 -2.4999027409 1.3508215037
0.7022342448 -2.8773754678 1.3303171485
0.5469571655 -3.2548588881 1.3077867363
0.3917156005 -3.6323526489 1.2832541028
0.2365091439 -4.0098564037 1.2567430817
0.0813373905 -4.3873698134 1.2282775050
-0.0738000644 -4.7648925454 1.1978812030
-0.2289036253 -5.1424242733 1.1655780034
-0.3839910803 -5.5199350756 1.1313968386
-0.5391076497 -5.8974206223 1.0953662811
-0.6942494241 -6.2749221904 1.0575049268
-0.8494188327 -6.6524125188 1.0178406272
-1.0046080965 -7.0298291049 0.9764060148
-1.1598077941 -7.4073813691 0.9331937468
-1.3150004063 -7.7847417024 0.8882751807
-1.4701927743 -8.1621719860 0.8416355146
-1.6253908765 -8.5396795383 0.7932969417
4.9757115819 6.3950758274 1.1702607704
4.8191545772 6.0183450718 1.2039502078
4.6626736656 5.6416490998 1.2350423926
4.5062627866 5.2649803241 1.2635626242
4.3499160610 4.8880545401 1.2895471670
4.1936515341 4.5112316356 1.3130025483
4.0374753489 4.1342774878 1.3339609831
3.8813949479 3.7572609203 1.3524422850
3.7254074757 3.3802117496 1.3684689856
3.5695079769 3.0030675212 1.3820653824
3.4136309694 2.6257857077 1.3932575023
3.2577958701 2.2484872186 1.4020660544
3.1020022723 1.8711725241 1.4085148772
2.9462497695 1.4938420851 1.4126278106
2.7905379550 1.1164963540 1.4144286967
2.6348664222 0.7391357737 1.4139413780
2.4792347643 0.3617607790 1.4111896983
2.3236425750 -0.0156282043 1.4061975024
2.1680894479 -0.3930307591 1.3989886347
2.0125749766 -0.7704464766 1.3895869403
1.8570987553 -1.1478749561 1.3780162638
1.7016603780 -1.5253158053 1.3643004499
1.5462594393 -1.9027686397 1.3484633422
1.3908955338 -2.2802330830 1.3305287838
1.2355682566 -2.6577087663 1.3105206164
1.0802772029 -3.0351953282 1.2884626808
0.9250219684 -3.4126924147 1.2643788162
0.7698021494 -3.7901996789 1.2382928601
0.6146173422 -4.1677167810 1.2102286484
0.4594671435 -4.5452433877 1.1802100150
0.3043511508 -4.9227791726 1.1482607914
0.1492689617 -5.3003238155 1.1144048071
-0.0057966919 -5.6778466403 1.0786714597
-0.1608911027 -6.0553440722 1.0410897043
-0.3160104922 -6.4328573470 1.0016777759
-0.4711572555 -6.8103594381 0.9604637274
-0.6263235957 -7.1877883496 0.9174805314
-0.7815003197 -7.5653519560 0.8727193154
-0.9366697197 -7.9427251823 0.8262534813
-1.0918388069 -8.3201678723 0.7780665142
-1.2470135444 -8.6976872731 0.7281806191
5.3532296684 6.2375960679 1.1622773384
5.1966984062 5.8608488943 1.1944169218
5.0402429976 5.4841363249 1.2239594955
4.8838574174 5.1074507927 1.2509303406
4.7275360666 4.7305090271 1.2753633935
4.5712966200 4.3536698016 1.2972680137
4.4151453600 3.9766996545 1.3166744058
4.2590896335 3.5996671930 1.3336028831
4.1031265500 3.2226021370 1.3480762470
3.9472510488 2.8454419536 1.3601183353
3.7913974480 2.4681434672 1.3697554701
3.6355856271 2.0908285599 1.3770091156
3.4798151813 1.7134976961 1.3819031157
3.3240857059 1.3361513310 1.3844613155
3.1683967961 0.9587899109 1.3847075616
3.0127480476 0.5814138728 1.3826657013
2.8571390554 0.2040236451 1.3783595830
2.7015694153 -0.1733803524 1.3718130550
2.5460387231 -0.5507977089 1.3630499661
2.3905465744 -0.9282280219 1.3520941648
2.2350925655 -1.3056708971 1.3389694994
2.0796762925 -1.6831259486 1.3236998175
1.9242973521 -2.0605927984 1.3063089657
1.7689553413 -2.4380710764 1.2868207899
1.6136498570 -2.8155604199 1.2652591345
1.4583804968 -3.1930604742 1.2416478424
1.3031468586 -3.5705708915 1.2160107551
1.1479485405 -3.9480913313 1.1883717119
0.9927851411 -4.3256214599 1.1587545504
0.8376562594 -4.7031609504 1.1271831059
0.6825614948 -5.0807094824 1.0936812115
0.5275004471 -5.4582667419 1.0582726979
0.3724563779 -5.8358013122 1.0209874254
0.2173839350 -6.2133103757 0.9818547160
0.0622867583 -6.5908351160 0.9408924507
-0.0928375093 -6.9683487469 0.8981288768
-0.2479810488 -7.3457897885 0.8535972949
-0.4032013202 -7.7231316186 0.8073329585
-0.5582812006 -8.1007504838 0.7592744165
-0.7134270940 -8.4782054132 0.7095403260
-0.8685785488 -8.8557364913 0.6581072943
5.7308131443 6.0800627411 1.1493526667
5.5743074708 5.7032994547 1.1799424246
5.4178774116 5.3265705783 1.2079354195
5.2615169772 4.9498685671 1.2333569137
5.1052208060 4.5729111658 1.2562385331
4.9490062529 4.1960559322 1.2765924496
4.7928797012 3.8190701343 1.2944468733
4.6368484099 3.4420221440 1.3098226143
4.4809094594 3.0649415754 1.3227427417
4.3250576759 2.6877658351 1.3332306374
4.1692271933 2.3104511028 1.3413129080
4.0134383648 1.9331201991 1.3470117776
3.8576907874 1.5557735824 1.3503510949
3.7019840587 1.1784117018 1.3513547099
3.5463177760 0.8010349975 1.3500464737
3.3906915367 0.4236439002 1.3464502382
3.2351049385 0.0462388321 1.3405898554
3.0795575789 -0.3311797936 1.3324891778
2.9240490560 -0.7086115725 1.3221720578
2.7685789676 -1.0860561085 1.3096623473
2.6131469121 -1.4635130137 1.2949838975
2.4577524881 -1.8409819088 1.2781605590
2.3023952942 -2.2184624223 1.2592161812
2.1470749295 -2.5959541904 1.2381746126
1.9917909934 -2.9734568572 1.2150596995
1.8365430856 -3.3509700742 1.1898952872
1.6813308061 -3.7284935001 1.1627052186
1.5261537553 -4.1060268005 1.1335133351
1.3710115338 -4.4835696483 1.1023434755
1.2159037430 -4.8611217229 1.0692194766
1.0608299842 -5.2386827098 1.0341651723
0.9057898594 -5.6162523013 0.9972043942
0.7507671696 -5.9937983536 0.9583674626
0.5957165140 -6.3713188082 0.9176840508
0.4406413880 -6.7488547862 0.8751716924
0.2854624923 -7.1262456181 0.8308895620
0.1303448219 -7.5036567841 0.7848171629
-0.0247778775 -7.8811874869 0.7369682526
-0.1798357571 -8.2588169417 0.6873607459
-0.3349585375 -8.6362839533 0.6360797132
-0.4900867852 -9.0138265485 0.5830997336
6.1084608126 5.9224768846 1.1315090765
5.9519805763 5.5456977850 1.1605490493
5.7955757154 5.1689528873 1.1869925092
5.6392402766 4.7922346701 1.2108646990
5.4829690940 4.4152619725 1.2321949549
5.3267792516 4.0383910377 1.2509982378
5.1706771961 3.6613899304 1.2673007816
5.0146701067 3.2843267690 1.2811238896
4.8587550401 2.9072310530 1.2924908968
4.7029267018 2.5300401453 1.3014247319
4.5471190571 2.1527095851 1.3079522770
4.3913529432 1.7753630975 1.3120965183
4.2356279597 1.3980011346 1.3138813094
4.0799437059 1.0206241392 1.3133305051
3.9242997815 0.6432325451 1.3104679603
3.7686957862 0.2658267766 1.3053175311
3.6131313196 -0.1115927507 1.2979030735
3.4576059818 -0.4890256301 1.2882484436
3.3021193727 -0.8664714636 1.2763774969
3.1466710928 -1.2439298618 1.2623140883
2.9912607425 -1.6214004436 1.2460820723
2.8358879226 -1.9988828360 1.2277053019
2.6805522342 -2.3763766742 1.2072076289
2.5252532784 -2.7538816011 1.1846129037
2.3699906570 -3.1313972670 1.1599449752
2.2147639719 -3.5089233302 1.1332276899
2.0595728252 -3.8864594556 1.1044848927
1.9044168196 -4.2640053155 1.0737404261
1.7492955580 -4.6415605889 1.0410181302
1.5942086438 -5.0191249613 1.0063418426
1.4391556807 -5.3966981247 0.9697353984
1.2841362726 -5.7742797774 0.9312226296
1.1290524888 -6.1517590397 0.8908563437
0.9740251159 -6.5292789072 0.8486247181
0.8189739321 -6.9068087553 0.8045657002
0.6638498427 -7.2841501509 0.7587432670
0.5088017416 -7.6617422087 0.7110883897
0.3536267977 -8.0390955015 0.6617347960
0.1985231878 -8.4164652369 0.6106379620
0.0434175499 -8.7938912277 0.5578229062
-0.1116978473 -9.1713747166 0.5033134153
6.4861715090 5.7648395154 1.1087689275
6.3297165611 5.3880448970 1.1362591670
6.1733367505 5.0112842581 1.1611531468
6.0170261606 4.6345501025 1.1834760895
5.8607797797 4.2575624411 1.2032550653
5.7046144697 3.8806761055 1.2205077969
5.5485367038 3.5036600229 1.2352585628
5.3925535893 3.1265820399 1.2475291556
5.2366621646 2.7494715330 1.2573431734
5.0808570074 2.3722658381 1.2647230961
4.9250719287 1.9949198585 1.2696960708
4.7693282608 1.6175581896 1.2722858479
4.6136256055 1.2401812767 1.2725162854
4.4579635645 0.8627895566 1.2704112422
4.3023417395 0.4853834560 1.2659945776
4.1467597325 0.1079633928 1.2592901512
3.9912171456 -0.2694702238 1.2503218228
3.8357135811 -0.6469169942 1.2391134514
3.6802486411 -1.0243765269 1.2256888957
3.5248219286 -1.4018484391 1.2100720136
3.3694330460 -1.7793323565 1.1922866619
3.2140815967 -2.1568279129 1.1723566960
3.0587671839 -2.5343347499 1.1503059700
2.9034894112 -2.9118525172 1.1261583361
2.7482478825 -3.2893808716 1.0999376448
2.5930422018 -3.6669194779 1.0716677442
2.4378719739 -4.0444680076 1.0413724806
2.2827368034 -4.4220261393 1.0090756974
2.1276362956 -4.7995935583 0.9748012358
1.9725700558 -5.1771699565 0.9385729340
1.8174544381 -5.5546837191 0.9004360053
1.6624556699 -5.9322773837 0.8603720279
1.5074769156 -6.3098396305 0.8184339064
1.3524139049 -6.6872587174 0.7746785435
1.1973891389 -7.0647773178 0.7290739361
1.0422058674 -7.4420119341 0.6817368194
0.8870496385 -7.8192777906 0.6326128214
0.7318850488 -8.1965975010 0.5817257751
0.5767833819 -8.5739225647 0.5290987273
0.4216680350 -8.9512871632 0.4747587456
0.2665228229 -9.3286843176 0.4187325866
6.8639441030 5.6071516294 1.0811546159
6.7075142983 5.2303417804 1.1070951848
6.5511593934 4.8535656745 1.1304397501
6.3948735087 4.4768158425 1.1512135132
6.2386517480 4.0998135419 1.1694413049
6.0825107969 3.7229120991 1.1851435791
5.9264571200 3.3458813670 1.1983426821
5.7704977601 2.9687889033 1.2090608913
5.6146297429 2.5916639527 1.2173220646
5.4588475112 2.2144438410 1.2231482382
5.3030847360 1.8370828405 1.2265668135
5.1473632550 1.4597063820 1.2276023055
4.9916826721 1.0823149047 1.2262785768
4.8360425915 0.7049088382 1.2226194901
4.6804426171 0.3274886029 1.2166489086
4.5248823534 -0.0499453900 1.2083906952
4.3693614047 -0.4273927386 1.1978687128
4.2138793756 -0.8048530496 1.1851068237
4.0584358710 -1.1823259386 1.1701288893
3.9030304956 -1.5598110295 1.1529587698
3.7476628547 -1.9373079547 1.1336203243
3.5923325538 -2.3148163548 1.1121374106
3.4370391983 -2.6923358781 1.0885338844
3.2817823943 -3.0698661809 1.0628335995
3.1265617480 -3.4474069270 1.0350604079
2.9713768657 -3.8249577871 1.0052381589
2.8162273543 -4.2025184397 0.9733906998
2.6610301133 -4.5800174637 0.9395628514
2.5059502807 -4.9575969646 0.9037370098
2.3509046449 -5.3351853387 0.8659574766
2.1958928137 -5.7127822899 0.8262480878
2.0408518206 -6.0903001563 0.7846557888
1.8858965993 -6.4678651260 0.7411684732
1.7307362572 -6.8451133341 0.6959136403
1.5755536022 -7.2222927852 0.6488493727
1.4203757598 -7.5995068751 0.5999774745
1.2652171638 -7.9767442174 0.5493214680
1.1100384941 -8.3540249232 0.4969064401
0.9549008209 -8.7312997236 0.4427567680
0.7998964584 -9.1086810014 0.3868615871
0.6448888434 -9.4861172435 0.3292724698
7.2417774999 5.4494141996 1.0486885711
7.0853726962 5.0725894015 1.0730795432
6.9290425563 4.6957980964 1.0948747697
6.7727812372 4.3190328438 1.1140994306
6.6165839202 3.9420162207 1.1307761464
6.4604671597 3.5650999566 1.1449280681
6.3044373774 3.1880548923 1.1565756358
6.1485015596 2.8109482794 1.1657416057
5.9926567233 2.4338092227 1.1724500930
5.8368971707 2.0565750541 1.1767226949
5.6811564462 1.6791994199 1.1785870564
5.5254569027 1.3018085527 1.1780684572
5.3697981466 0.9244028847 1.1751907637
5.2141797843 0.5469828388 1.1699778424
5.0586014223 0.1695488285 1.1624535598
4.9030626674 -0.2078987420 1.1526417821
4.7475631264 -0.5853594775 1.1405663752
4.5921024063 -0.9628329918 1.1262512038
4.4366801140 -1.3403189072 1.1097201321
4.2812958572 -1.7178168545 1.0909970223
4.1259492432 -2.0953264730 1.0701057357
3.9706398799 -2.4728474101 1.0470701316
3.8153673752 -2.8503793209 1.0219140675
3.6601313376 -3.2279218682 0.9946613984
3.5049313752 -3.6054747226 0.9653359775
3.3496850493 -3.9829668575 0.9339827201
3.1945561816 -4.3605395677 0.9005838516
3.0394622202 -4.7381216445 0.8651837682
2.8844027744 -5.1157127858 0.8278063120
2.7293151942 -5.4932255136 0.7884984309
2.5743238154 -5.8708342435 0.7472382621
2.4191768489 -6.2482364698 0.7041369642
2.2640273383 -6.6254934120 0.6591886759
2.1088459017 -7.0026261508 0.6124192348
1.9536573520 -7.3797909926 0.5638212386
1.7984631388 -7.7569830042 0.5134188173
1.6432700653 -8.1341898168 0.4612367783
1.4881883476 -8.5114816191 0.4072693198
1.3331665778 -8.8887784204 0.3515624087
1.1781309969 -9.2661142782 0.2941435349
1.0230581756 -9.6434943016 0.2350383591
7.6189987105 5.2914243333 1.0114725913
7.4625906775 4.9146501121 1.0343160984
7.3062698362 4.5379065971 1.0545634442
7.1500252860 4.1611832618 1.0722402353
6.9939256057 3.7842444916 1.0873590820
6.8378922172 3.4073788122 1.0999559078
6.6819215914 3.0303630311 1.1100502484
6.5260319148 2.6532721371 1.1176639628
6.3702255564 2.2761393062 1.1228207029
6.2144965192 1.8989020666 1.1255415710
6.0587772499 1.5215118808 1.1258542323
5.9030990829 1.1441066412 1.1237840517
5.7474616265 0.7666867741 1.1193548985
5.5918644891 0.3892526963 1.1125906419
5.4363072792 0.0118048150 1.1035151510
5.2807896056 -0.3656564715 1.0921522944
5.1253110768 -0.7431307742 1.0785259397
4.9698713019 -1.1206177127 1.0626599538
4.8144698900 -1.4981169155 1.0445782023
4.6591064501 -1.8756280196 1.0243045493
4.5037805920 -2.2531506700 1.0018628569
4.3484919251 -2.6306845201 0.9772769858
4.1932400594 -3.0082292306 0.9505707943
4.0380246049 -3.3857844704 0.9217681381
3.8828451719 -3.7633499154 0.8908928710
3.7277013711 -4.1409252489 0.8579688438
3.5725928132 -4.5185101607 0.8230199045
3.4174434271 -4.8960081243 0.7860962265
3.2624044179 -5.2736116592 0.7471695885
3.1072717374 -5.6510523344 0.7063376798
2.9521351028 -6.0284371598 0.6635951706
2.7970027689 -6.4057696368 0.6189648495
2.6419022359 -6.7829705669 0.5724814893
2.4867848998 -7.1601161238 0.5241633628
2.3316701259 -7.5372935248 0.4740154542
2.1765619033 -7.9144996440 0.4220611988
2.0214716013 -8.2917249240 0.3683241882
1.8663598401 -8.6689899510 0.3128298246
1.7112767628 -9.0462559624 0.2556016344
1.5563299567 -9.4235863428 0.1966343059
1.4013734190 -9.8009595777 0.1359772730
7.9960850227 5.1335462614 0.9694807949
7.8397087102 4.7568375764 0.9907750049
7.6834215423 4.3801462864 1.0094736679
7.5272113317 4.0034638308 1.0256023110
7.3711523420 3.6265621175 1.0391708509
7.2151585300 3.2497235731 1.0502183318
7.0592793191 2.8727525694 1.0587571107
6.9034535651 2.4956851325 1.0648178346
6.7476964858 2.1185624241 1.0684228425
6.5920029492 1.7413234952 1.0695926783
6.4363049464 1.3639187759 1.0683549606
6.2806479798 0.9864991565 1.0647345145
6.1250316597 0.6090650578 1.0587552116
5.9694555962 0.2316168909 1.0504409232
5.8139193997 -0.1458449425 1.0398155205
5.6584226807 -0.5233200496 1.0269028737
5.5029650496 -0.9008080471 1.0117268521
5.3475461173 -1.2783085600 0.9943113242
5.1921654944 -1.6558212223 0.9746801567
5.0368227921 -2.0333456764 0.9528572147
4.8815176215 -2.4108815725 0.9288663614
4.7262495939 -2.7884285695 0.9027314580
4.5710183210 -3.1659863334 0.8744763633
4.4158234146 -3.5435545380 0.8441249340
4.2606644864 -3.9211328646 0.8117010237
4.1055411489 -4.2987210012 0.7772284834
3.9504530142 -4.6763186429 0.7407311614
3.7953272481 -5.0538188701 0.7022614655
3.6401872240 -5.4312431867 0.6618378898
3.4850471590 -5.8086015746 0.6194815998
3.3299388341 -6.1860100957 0.5751917628
3.1748383342 -6.5633707119 0.5290131478
3.0197628216 -6.9404941971 0.4810027563
2.8646908329 -7.3176503707 0.4311389378
2.7096268851 -7.6948357358 0.3794451134
2.5545756645 -8.0720476652 0.3259445294
2.3995500165 -8.4492773828 0.2706603872
2.2445165268 -8.8265442380 0.2136175718
2.0895291129 -9.2038130772 0.1548381718
1.9345108016 -9.5811152897 0.0943514172
1.7796400727 -9.9584761012 0.0321474988
8.3731943237 4.9757406762 0.9227220414
8.2168587544 4.5990907441 0.9424675036
8.0606116954 4.2224444237 0.9596179946
7.9044405865 3.8457958662 0.9741989293
7.7484268649 3.4689238694 0.9862175169
7.5924762226 3.0921058621 0.9957158902
7.4366424876 2.7151502868 1.0027043732
7.2809055727 2.3381108720 1.0072096110
7.1252111039 1.9609990550 1.0092616784
6.9695585841 1.5837580491 1.0088802487
6.8138816261 1.2063389224 1.0060927489
6.6582456425 0.8289050363 1.0009226328
6.5026502452 0.4514568065 0.9933937742
6.3470950463 0.0739946386 0.9835300464
6.1915796581 -0.3034810708 0.9713553219
6.0361036927 -0.6809699347 0.9568934729
5.8806667625 -1.0584715746 0.9401683699
5.7252684800 -1.4359856210 0.9212038824
5.5699084578 -1.8135117132 0.9000238781
5.4145863087 -2.1910494986 0.8766522231
5.2593016454 -2.5685986327 0.8511127813
5.1040540812 -2.9461587790 0.8234294142
4.9488432292 -3.3237296089 0.7936259812
4.7936687029 -3.7013108009 0.7617263392
4.6385301159 -4.0789020412 0.7277543417
4.4834270819 -4.4565030225 0.6917338399
4.3282865794 -4.8339924696 0.6537198956
4.1731330759 -5.2113928468 0.6137307990
4.0180158949 -5.5888386226 0.5717606779
3.8629009504 -5.9662231161 0.5278571540
3.7077972725 -6.3435473349 0.4820433046
3.5527224907 -6.7209253559 0.4343195964
3.3976774634 -7.0980681568 0.3847640166
3.2426438206 -7.4752366317 0.3333551681
3.0876225917 -7.8524314405 0.2801162609
2.9326185322 -8.2296504014 0.2250704497
2.7776449868 -8.6068853318 0.1682407188
2.6226729122 -8.9841540098 0.1096516880
2.4677573385 -9.3614241632 0.0493245254
2.3128328123 -9.7387234732 -0.0127123013
2.1578724876 -10.1160636567 -0.0764334732
8.7503315096 4.8180491225 0.8712219376
8.5940421017 4.4414450550 0.8894192749
8.4378389899 4.0648323044 0.9050221123
8.2817097895 3.6882077365 0.9180557655
8.1257444256 3.3113557345 0.9285247225
7.9698393354 2.9345499312 0.9364742021
7.8140534844 2.5576018373 0.9419125083
7.6583647171 2.1805649249 0.9448668750
7.5027578264 1.8034661074 0.9453631972
7.3471558843 1.4262227257 0.9434297284
7.1914998931 1.0487892142 0.9390931416
7.0358848184 0.6713410703 0.9323740469
6.8803102743 0.2938787038 0.9232963197
6.7247758745 -0.0835974842 0.9118838347
6.5692812331 -0.4610871025 0.8981604660
6.4138259639 -0.8385897686 0.8821500869
6.2584096813 -1.2161051094 0.8638765691
6.1030319993 -1.5936327602 0.8433637829
5.9476925324 -1.9711723651 0.8206355969
5.7923908951 -2.3487235761 0.7957158777
5.6371267017 -2.7262860539 0.7686284895
5.4818995673 -3.1038594664 0.7393972945
5.3267091066 -3.4814434898 0.7080461521
5.1715549346 -3.8590378070 0.6745989193
5.0164366665 -4.2366421086 0.6390794495
4.8612771760 -4.6141145172 0.6015470218
4.7061566779 -4.9916220887 0.5619868696
4.5510240697 -5.3690456409 0.5204512617
4.3958950540 -5.7463934172 0.4769613541
4.2407998393 -6.1237937204 0.4315137072
4.0857170977 -6.5011339837 0.3841559245
3.9306655664 -6.8785286406 0.3348876881
3.7756450750 -7.2556947471 0.2837870790
3.6206435841 -7.6328776705 0.2308337214
3.4656580166 -8.0100839264 0.1760503922
3.3106926712 -8.3873118812 0.1194602164
3.1557606118 -8.7645539170 0.0610860886
3.0008358214 -9.1418262438 0.0009525415
2.8459727054 -9.5190990398 -0.0609198144
2.6911135176 -9.8963958564 -0.1245026818
2.5363626537 -10.2737996033 -0.1898081007
9.1274904667 4.6605394704 0.8150088554
8.9712489452 4.2839603117 0.8316587266
8.8150908104 3.9073638651 0.8457144540
8.6590041081 3.5307489615 0.8572012849
8.5030882944 3.1539036942 0.8661210059
8.3472295132 2.7770990189 0.8725218908
8.1914925243 2.4001483021 0.8764102598
8.0358528077 2.0231048326 0.8778139529
7.8802939794 1.6459955025 0.8767591533
7.7247608360 1.2687504487 0.8732718036
7.5691260547 0.8913023591 0.8673870249
7.4135321376 0.5138397459 0.8591198370
7.2579787002 0.1363630151 0.8484941166
7.1024653579 -0.2411274372 0.8355337399
6.9469917267 -0.6186312242 0.8202625821
6.7915574219 -0.9961479679 0.8027045174
6.6361620596 -1.3736772996 0.7828834182
6.4808052555 -1.7512188590 0.7608231557
6.3254866256 -2.1287722944 0.7365475989
6.1702057859 -2.5063372623 0.7100806148
6.0149623528 -2.8839134274 0.6814460681
5.8597559423 -3.2615004621 0.6506678210
5.7045861710 -3.6390980462 0.6177697330
5.5494526552 -4.0167058670 0.5827756608
5.3943550118 -4.3943236189 0.5457094582
5.2392144992 -4.7718148829 0.5066307967
5.0840599005 -5.1492031920 0.4655569951
4.9289432949 -5.5266405767 0.4224778551
4.7738302171 -5.9040020778 0.3774450045
4.6187527418 -6.2814170250 0.3304538542
4.4636888125 -6.6587714433 0.2815529150
4.3086580260 -7.0361811761 0.2307409195
4.1536568330 -7.4133760984 0.1780950629
3.9986818576 -7.7905760550 0.1235976010
3.8437255248 -8.1677961035 0.0672704164
3.6887911697 -8.5450354230 0.0091366381
3.5338908389 -8.9222870620 -0.0507808211
3.3790003122 -9.2995657853 -0.1124573584
3.2242658820 -9.6769276510 -0.1759067801
3.0694569746 -10.0542248630 -0.2410342790
2.9147322920 -10.4316658380 -0.3078890014
9.5047575040 4.5029295920 0.7540887560
9.3485655168 4.1263791183 0.7691911798
9.1924540808 3.7498019693 0.7816997073
9.0364115949 3.3731991115 0.7916395544
8.8805483731 2.9963609995 0.7990094473
8.7247389559 2.6195578780 0.8038611128
8.5690543342 2.2426035980 0.8061986634
8.4134672123 1.8655516719 0.8060506391
8.2579597432 1.4884292220 0.8034435732
8.1025168368 1.1111808640 0.7983983679
7.9469025862 0.7337186556 0.7909652025
7.7913291459 0.3562420344 0.7811497361
7.6357961334 -0.0212485989 0.7689758469
7.4803031660 -0.3987528528 0.7544674121
7.3248498615 -0.7762703451 0.7376483081
7.1694358373 -1.1538007028 0.7185424095
7.0140607110 -1.5313435618 0.6971735900
6.8587241004 -1.9088985664 0.6735657211
6.7034256231 -2.2864653696 0.6477426722
6.5481648969 -2.6640436324 0.6197283106
6.3929415399 -3.0416330240 0.5895465011
6.2377551698 -3.4192332210 0.5572211061
6.0826054049 -3.7968439076 0.5227759848
5.9274918633 -4.1744647754 0.4862349939
5.7723259347 -4.5519286302 0.4476647576
5.6172009995 -4.9294321285 0.4070423236
5.4620598686 -5.3068315469 0.3644260930
5.3069586386 -5.6842814418 0.3198038853
5.1518610370 -6.0616545655 0.2732286865
4.9968011118 -6.4390825400 0.2246944827
4.8417560704 -6.8164484610 0.1742509975
4.6867463424 -7.1938711801 0.1218956980
4.5317624630 -7.5711031153 0.0677032836
4.3768124847 -7.9483226784 0.0116614508
4.2218849922 -8.3255582737 -0.0462098956
4.0670649241 -8.7028884559 -0.1059186372
3.9122001950 -9.0801532470 -0.1673811462
3.7573490694 -9.4574431723 -0.2306029052
3.6026375820 -9.8348374688 -0.2956002226
9.8820508009 4.3455908886 0.6885072435
9.7259035062 3.9690392039 0.7020631229
9.5698345900 3.5924574672 0.7130252310
9.4138326551 3.2158472751 0.7214187904
9.2580195026 2.8389985817 0.7272394957
9.1022570544 2.4621825316 0.7305424906
8.9466229759 2.0852117048 0.7313297344
8.7910867474 1.7081399553 0.7296305050
8.6356287663 1.3309944501 0.7254717166
8.4802277526 0.9537193988 0.7188749737
8.3246349083 0.5762424890 0.7098945494
8.1690828268 0.1987512566 0.6985319140
8.0135711269 -0.1787539018 0.6848109467
7.8580994278 -0.5562725987 0.6687555258
7.7026673488 -0.9338044558 0.6503895281
7.5472745089 -1.3113491042 0.6297368293
7.3919205273 -1.6889061834 0.6068213032
7.2366050233 -2.0664753417 0.5816668217
7.0813276161 -2.4440562359 0.5542972547
6.9260879251 -2.8216485307 0.5247364694
6.7708855695 -3.1992518989 0.4930083311
6.6157201689 -3.5768660207 0.4591367017
6.4605913428 -3.9544905840 0.4231454407
6.3054987107 -4.3321252838 0.3850584042
6.1503458485 -4.7095982817 0.3449454716
5.9952354530 -5.0871125895 0.3027797873
5.8401064165 -5.4645205925 0.2586219534
5.6850189440 -5.8419809240 0.2124574572
5.5299352697 -6.2193623285 0.1643409432
5.3748908328 -6.5968003994 0.1142647294
5.2198627519 -6.9741730250 0.0622801101
5.0648712609 -7.3516041729 0.0083830395
4.9099024397 -7.7288867925 -0.0473583628
4.7550585645 -8.1062043178 -0.1049754428
4.6001533569 -8.4834611611 -0.1643912579
4.4452761608 -8.8607316584 -0.2256134871
4.2905049767 -9.2381036288 -0.2886518073
10.2594143803 4.1882176261 0.6182725331
10.1033144450 3.8116641954 0.6302814935
9.9472903632 3.4350772261 0.6396968332
9.7913310092 3.0584589963 0.6465437782
9.6355717138 2.6815973861 0.6508145103
9.4798597398 2.3047664058 0.6525680780
9.3242802453 1.9277758958 0.6518040098
9.1687987605 1.5506804738 0.6485524637
9.0133933967 1.1735075722 0.6428408351
8.8580334698 0.7962008824 0.6346919861
8.7024616794 0.4187094958 0.6241643779
8.5469306049 0.0412038741 0.6112546523
8.3914398671 -0.3363155902 0.5959866893
8.2359890868 -0.7138485137 0.5783843680
8.0805778848 -1.0913945222 0.5584715659
7.9252058820 -1.4689532505 0.5362721591
7.7698726991 -1.8465243424 0.5118100219
7.6145779571 -2.2241074499 0.4851090265
7.4593212766 -2.6017022335 0.4561930429
7.3041022788 -2.9793083619 0.4250859384
7.1489205845 -3.3569255114 0.3918115781
6.9937758146 -3.7345533660 0.3563938239
6.8386675902 -4.1121916171 0.3188565349
6.6835955322 -4.4898399632 0.2792235672
6.5284538265 -4.8673197588 0.2375688424
6.3733563396 -5.2448430205 0.1938606708
6.2182374080 -5.6222560374 0.1481624422
6.0631618489 -5.9997237595 0.1004567435
5.9080903449 -6.3771082726 0.0508004363
5.7530595038 -6.7545516850 -0.0008163058
5.5981409088 -7.1319933840 -0.0543712844
5.4431632523 -7.5094255032 -0.1098078943
5.2882090712 -7.8867837784 -0.1671037736
5.1332948514 -8.2640599446 -0.2262356883
4.9784827287 -8.6414256422 -0.2872276932
10.6368512727 4.0308172978 0.5434065374
10.4808018220 3.6542612046 0.5538680964
10.3248252376 3.2776679846 0.5617362269
10.1689107683 2.9010406582 0.5670361506
10.0132099693 2.5241629045 0.5697558805
9.8575527958 2.1473142368 0.5699590271
9.7020328227 1.7702998377 0.5676423379
9.5466105626 1.3931756974 0.5628370667
9.3912609954 1.0159698503 0.5555712610
