-7.8306432810 -1.5353825455 2.9002176313
-7.9831754021 -1.9228519537 2.8997987987
-8.1355526865 -2.3096405796 2.8974199513
-8.2880645992 -2.6956480505 2.8930799421
-8.4405961076 -3.0812379129 2.8868376017
-8.5936732911 -3.4662881432 2.8786630837
-8.7475033971 -3.8502580707 2.8685582215
-8.9015479820 -4.2350344773 2.8566457417
-9.0567755128 -4.6178326227 2.8428106434
-9.2123460216 -5.0009093423 2.8272033813
-9.3683950735 -5.3843371221 2.8098306705
-2.8056999345 9.8890621373 2.0052025330
-2.9629894504 9.5059647246 2.0712127042
-3.1198934711 9.1230827408 2.1346040644
-3.2765182936 8.7403745468 2.1953962830
-3.4337017320 8.3574448678 2.2535719398
-3.5905270214 7.9748210775 2.3091842955
-3.7474605529 7.5921984583 2.3622505718
-3.9042731363 7.2096924623 2.4128067467
-4.0608554792 6.8273358292 2.4608879663
-4.2169525448 6.4439946038 2.5067511540
-4.3731361151 6.0584484039 2.5505307370
-4.5288509126 5.6721502114 2.5920611818
-4.6831126165 5.2835842188 2.6317249087
-4.8372747855 4.8950536723 2.6689703937
-4.9913381650 4.5065611792 2.7038222150
-5.1453035122 4.1181092956 2.7363049890
-5.2991715956 3.7297005265 2.7664433693
-5.4529431946 3.3413373241 2.7942620449
-5.6066190977 2.9530220876 2.8197857379
-5.7602001031 2.5647571621 2.8430392022
-5.9136870173 2.1765448384 2.8640472216
-6.0670806543 1.7883873519 2.8828346077
-6.2203818352 1.4002868834 2.8994261984
-6.3735913872 1.0122455575 2.9138468559
-6.5267101434 0.6242654431 2.9261214649
-6.6797389415 0.2363485535 2.9362749311
-6.8326786235 -0.1515031546 2.9443321793
-6.9855300352 -0.5392877798 2.9503181511
-7.1382940252 -0.9270034769 2.9542578041
-7.2909714444 -1.3146484559 2.9561761096
-7.4435631455 -1.7022209828 2.9560980509
-7.5960699824 -2.0897193777 2.9540486222
-7.7485670418 -2.4766979187 2.9500316955
-7.9014179003 -2.8630439029 2.9440386277
-8.0545577740 -3.2491524281 2.9361195657
-8.2078060987 -3.6345951339 2.9263158677
-8.3617854638 -4.0190096003 2.9145936305
-8.5159985307 -4.4043327444 2.9010551868
-8.6713313699 -4.7877249941 2.8856175153
-8.8270153579 -5.1715203728 2.8684027824
-8.9831814317 -5.5558218752 2.8494163605
-2.4174319783 9.7283857275 2.1032421602
-2.5756104003 9.3450418768 2.1676083307
-2.7331400033 8.9619064277 2.2293890348
-2.8902181133 8.5789648431 2.2885874691
-3.0477675088 8.1957897758 2.3451849701
-3.2048695266 7.8129586398 2.3992218216
-3.3620307892 7.4301466556 2.4507156700
-3.5190273781 7.0474787722 2.4996993969
-3.6757519518 6.6649924801 2.5462069379
-3.8318570277 6.2807227283 2.5906411783
-3.9876900308 5.8940854938 2.6330484747
-4.1420104587 5.5054222864 2.6735252568
-4.2962313344 5.1167937506 2.7115585784
-4.4503533965 4.7282025426 2.7471730238
-4.6043773961 4.3396512667 2.7803932171
-4.7583040956 3.9511424753 2.8112438214
-4.9121342684 3.5626786672 2.8397495360
-5.0658686980 3.1742622871 2.8659350953
-5.2195081770 2.7858957252 2.8898252667
-5.3730535073 2.3975813159 2.9114448484
-5.5265054982 2.0093213380 2.9308186681
-5.6798649665 1.6211180135 2.9479715809
-5.8331327352 1.2329735080 2.9629284672
-5.9863096337 0.8448899301 2.9757142313
-6.1393964961 0.4568693311 2.9863537992
-6.2923941613 0.0689137055 2.9948721169
-6.4453034718 -0.3189750096 3.0012941487
-6.5981252734 -0.7067949342 3.0056448752
-6.7508604145 -1.0945442448 3.0079492921
-6.9035097452 -1.4822211749 3.0082324073
-7.0560741174 -1.8698240139 3.0065192405
-7.2085543835 -2.2573511071 3.0028348209
-7.3611277448 -2.6445174392 2.9971797191
-7.5141935514 -3.0311889220 2.9895423497
-7.6676993334 -3.4177690018 2.9799672171
-7.8216037216 -3.8039118647 2.9684828393
-7.9756929454 -4.1888424076 2.9551393218
-8.1300244453 -4.5747906016 2.9399693996
-8.2854080200 -4.9588542516 2.9229228554
-8.4411317637 -5.3434477330 2.9040931469
-8.5973113823 -5.7286955136 2.8834845468
-2.0276294899 9.5672383752 2.1960715645
-2.1851476755 9.1829371143 2.2591413453
-2.3439015849 8.8000502388 2.3191435155
-2.5018813668 8.4171504527 2.3766422433
-2.6601388748 8.0338925934 2.4315907056
-2.8177939138 7.6509397789 2.4840031192
-2.9754062031 7.2679853808 2.5338892266
-3.1327716399 6.8851776359 2.5812742249
-3.2895664499 6.5013838655 2.6264157126
-3.4445350556 6.1145761930 2.6698150217
-3.5989071861 5.7258090095 2.7111191239
-3.7531798549 5.3370759211 2.7499544113
-3.9073537949 4.9483796339 2.7863454785
-4.0614297516 4.5597228024 2.8203169625
-4.2154084823 4.1711080273 2.8518935401
-4.3692907552 3.7825378553 2.8810999261
-4.5230773489 3.3940147778 2.9079608715
-4.6767690521 3.0055412304 2.9325011620
-4.8303666615 2.6171195919 2.9547456153
-4.9838709828 2.2287521842 2.9747190799
-5.1372828285 1.8404412714 2.9924464325
-5.2906030183 1.4521890597 3.0079525769
-5.4438323777 1.0639976970 3.0212624413
-5.5969717376 0.6758692728 3.0324009768
-5.7500219337 0.2878058181 3.0413931558
-5.9029838054 -0.1001906946 3.0482639693
-6.0558581959 -0.4881183513 3.0530384258
-6.2086459507 -0.8759752963 3.0557415495
-6.3613479178 -1.2637597319 3.0563983779
-6.5139649464 -1.6514699178 3.0550339604
-6.6664978867 -2.0391041713 3.0516733570
-6.8189475895 -2.4266608666 3.0463416356
-6.9715586553 -2.8139906028 3.0390386014
-7.1247434015 -3.2009349427 3.0297532685
-7.2784495332 -3.5878968740 3.0185253271
-7.4326965605 -3.9745776269 3.0053784898
-7.5873964560 -4.3602914562 2.9903538067
-7.7424665545 -4.7473098395 2.9734755027
-7.8976947852 -5.1320563285 2.9548205307
-8.0531740990 -5.5173934669 2.9343814277
-8.2089616706 -5.9034078956 2.9121669034
-1.6368304688 9.4056047929 2.2836124462
-1.7955680743 9.0215495524 2.3449134365
-1.9535991524 8.6376443403 2.4036320537
-2.1111032520 8.2539695847 2.4597594434
-2.2690340344 7.8700974518 2.5132854153
-2.4264541925 7.4866460303 2.5642361899
-2.5838816945 7.1032883538 2.6126348731
-2.7407367895 6.7187442288 2.6587885315
-2.8955549418 6.3314908630 2.7031227478
-3.0498205721 5.9435959009 2.7451167396
-3.2041247885 5.5547432343 2.7847577185
-3.3583306535 5.1659272555 2.8219287775
-3.5124389090 4.7771506724 2.8566545758
-3.6664503087 4.3884161383 2.8889598140
-3.8203656175 3.9997262506 2.9188692324
-3.9741856109 3.6110835504 2.9464076092
-4.1279110739 3.2224905211 2.9715997581
-4.2815428002 2.8339495881 2.9944705267
-4.4350815922 2.4454631176 3.0150447944
-4.5885282593 2.0570334173 3.0333474703
-4.7418836183 1.6686627345 3.0494034912
-4.8951484914 1.2803532569 3.0632378197
-5.0483237066 0.8921071120 3.0748754425
-5.2014100966 0.5039263671 3.0843413678
-5.3544084980 0.1158130291 3.0916606240
-5.5073197507 -0.2722309554 3.0968582572
-5.6601446977 -0.6602036994 3.0999593300
-5.8128841841 -1.0481033762 3.1009889190
-5.9655390560 -1.4359282182 3.0999721135
-6.1181101612 -1.8236765170 3.0969340133
-6.2705983474 -2.2113466226 3.0918997271
-6.4230044621 -2.5989369433 3.0848943707
-6.5755700352 -2.9862885751 3.0759218421
-6.7287109889 -3.3732491233 3.0649767903
-6.8823748885 -3.7602233755 3.0520949976
-7.0365817823 -4.1469135157 3.0373029269
-7.1912446728 -4.5326360356 3.0206464283
-7.3462767570 -4.9196576306 3.0021299717
-7.5014719761 -5.3044115408 2.9818579460
-7.6569181562 -5.6897527652 2.9598001421
-7.8126725153 -6.0757673963 2.9359652137
-1.2468771887 9.2446720821 2.3654293924
-1.4049497176 8.8594482520 2.4254608603
-1.5625485246 8.4746563676 2.4828174255
-1.7197562156 8.0902823516 2.5375235730
-1.8774770004 7.7058402347 2.5895937684
-2.0347425608 7.3219155747 2.6390596669
-2.1906940960 6.9350104480 2.6866201565
-2.3460392033 6.5477501391 2.7317575689
-2.5007896635 6.1604327969 2.7744424019
-2.6549864542 5.7724684108 2.8147769690
-2.8092256515 5.3835344172 2.8527523141
-2.9633676488 4.9946397471 2.8882567271
-3.1174131956 4.6057871066 2.9213149322
-3.2713630528 4.2169791448 2.9519516951
-3.4252179914 3.8282184530 2.9801918207
-3.5789787923 3.4395075628 3.0060601511
-3.7326462454 3.0508489467 3.0295815634
-3.8862211487 2.6622450164 3.0507809679
-4.0397043079 2.2736981229 3.0696833058
-4.1930965354 1.8852105558 3.0863135473
-4.3463986498 1.4967845429 3.1006966895
-4.4996114750 1.1084222503 3.1128577541
-4.6527358397 0.7201257819 3.1228217858
-4.8057725767 0.3318971797 3.1306138500
-4.9587225223 -0.0562615765 3.1362590307
-5.1115865155 -0.4443485684 3.1397824291
-5.2643653973 -0.8323619394 3.1412091610
-5.4170600105 -1.2202998943 3.1405643555
-5.5696711987 -1.6081606985 3.1378731525
-5.7221998062 -1.9959426780 3.1331607013
-5.8746466766 -2.3836442182 3.1264521590
-6.0270126532 -2.7712637640 3.1177726883
-6.1795360586 -3.1586329883 3.1071303682
-6.3326362246 -3.5456056793 3.0945254403
-6.4862606670 -3.9325882878 3.0799897482
-6.6404299096 -4.3192840556 3.0635524920
-6.7950578979 -4.7050119223 3.0452642907
-6.9500541257 -5.0920330387 3.0251098984
-7.1052180006 -5.4767914735 3.0032210312
-7.2606326910 -5.8621337523 2.9795448103
-7.4163554481 -6.2481454021 2.9540898458
-0.8542749805 9.0803932686 2.4426919633
-1.0121708860 8.6943309127 2.5013071779
-1.1696449863 8.3088977504 2.5571974392
-1.3267590664 7.9240143340 2.6104047415
-1.4836647786 7.5368009012 2.6614253297
-1.6400591183 7.1508906482 2.7096927898
-1.7959477313 6.7639289351 2.7556162763
-1.9512281691 6.3766099350 2.7991082427
-2.1059134619 5.9892323603 2.8401416026
-2.2600442496 5.6012025653 2.8788145407
-2.4142214024 5.2121914980 2.9151219314
-2.5683025448 4.8232224278 2.9489574738
-2.7222884324 4.4342980561 2.9803459584
-2.8761798315 4.0454210244 3.0093122167
-3.0299775179 3.6565939140 3.0358811189
-3.1836822764 3.2678192446 3.0600775717
-3.3372949004 2.8790994739 3.0819265161
-3.4908161904 2.4904369971 3.1014529253
-3.6442469539 2.1018341461 3.1186818028
-3.7975880045 1.7132931898 3.1336381799
-3.9508401616 1.3248163333 3.1463471138
-4.1040042488 0.9364057175 3.1568336853
-4.2570810941 0.5480634201 3.1651229969
-4.4100715291 0.1597914546 3.1712401707
-4.5629763877 -0.2284082290 3.1752103463
-4.7157965066 -0.6165337439 3.1770586791
-4.8685327234 -1.0045832667 3.1768103375
-5.0211858774 -1.3925550363 3.1744905021
-5.1737568078 -1.7804473539 3.1701243629
-5.3262463537 -2.1682585822 3.1637371179
-5.4786553538 -2.5559871448 3.1553539714
-5.6309846453 -2.9436315257 3.1450001317
-5.7834692073 -3.3310140603 3.1326879410
-5.9365315857 -3.7179948557 3.1184231808
-6.0901193391 -4.1049818879 3.1022337315
-6.2442534039 -4.4916795588 3.0841515129
-6.3988485823 -4.8774094632 3.0642318741
-6.5538110991 -5.2644264542 3.0424399247
-6.7089452846 -5.6491865529 3.0189345539
-6.8643301155 -6.0345268950 2.9936403277
-7.0200228649 -6.4205324269 2.9665658251
-0.4597694014 8.9094729093 2.5158250011
-0.6176079233 8.5233612727 2.5728261758
-0.7750267558 8.1378792245 2.6271037709
-0.9320874365 7.7529472785 2.6786997459
-1.0889320803 7.3656817837 2.7280887254
-1.2452692518 6.9797212066 2.7747303332
-1.4010970254 6.5927064112 2.8190149755
-1.5563151565 6.2053324268 2.8608595909
-1.7109378746 5.8178984375 2.9002395575
-1.8650055666 5.4298073280 2.9372488493
-2.0191237206 5.0407235273 2.9718861617
-2.1731470884 4.6516844307 3.0040508088
-2.3270764302 4.2626927312 3.0337676486
-2.4809125163 3.8737510594 3.0610615790
-2.6346561256 3.4848619833 3.0859575360
-2.7883080452 3.0960280070 3.1084804913
-2.9418690703 2.7072515704 3.1286554498
-3.0953400025 2.3185350486 3.1465074483
-3.2487216495 1.9298807516 3.1620615521
-3.4020148247 1.5412909241 3.1753428536
-3.5552203462 1.1527677450 3.1863764701
-3.7083390362 0.7643133277 3.1951875410
-3.8613717202 0.3759297201 3.2018012263
-4.0143192268 -0.0123810956 3.2062427043
-4.1671823865 -0.4006172021 3.2085371693
-4.3199620316 -0.7887767473 3.2087098300
-4.4726589955 -1.1768579430 3.2067859070
-4.6252741117 -1.5648590655 3.2027906314
-4.7778082136 -1.9527784542 3.1967492422
-4.9302621345 -2.3406145112 3.1886869850
-5.0826367056 -2.7283657007 3.1786291099
-5.2349327574 -3.1160305478 3.1666008699
-5.3873817883 -3.5034221430 3.1526189455
-5.5404093657 -3.8904070413 3.1366945951
-5.6939631826 -4.2773946065 3.1188517190
-5.8480645262 -4.6640905004 3.0991249335
-6.0026289703 -5.0498191758 3.0775742710
-6.1575599020 -5.4368284474 3.0541453014
-6.3126660347 -5.8215873912 3.0290238881
-6.4680226165 -6.2069228530 3.0021121934
-6.6236869314 -6.5929191838 2.9734187769
-0.0651611623 8.7384015808 2.5833895949
-0.2229436057 8.3522436613 2.6387751184
-0.3803085156 7.9667155880 2.6914385271
-0.5373171717 7.5817378511 2.7414217340
-0.6941025686 7.1944237860 2.7891773766
-0.8503843593 6.8084160493 2.8341915791
-1.0061534348 6.4213517385 2.8768356865
-1.1613116822 6.0339265415 2.9170312108
-1.3158744784 5.6464400205 2.9547560391
-1.4698820439 5.2582917598 2.9900998597
-1.6239443064 4.8691396436 3.0230651725
-1.7779130380 4.4800349662 3.0535571058
-1.9317890020 4.0909804089 3.0816005851
-2.0855729709 3.7019785881 3.1072205753
-2.2392657251 3.3130320547 3.1304420785
-2.3928680528 2.9241432944 3.1512901315
-2.5463807488 2.5353147255 3.1697898037
-2.6998046144 2.1465487001 3.1859661946
-2.8531404560 1.7578475028 3.1998444317
-3.0063890851 1.3692133509 3.2114496681
-3.1595513170 0.9806483941 3.2208070806
-3.3126279705 0.5921547151 3.2279418668
-3.4656198676 0.2037343288 3.2328792435
-3.6185278320 -0.1846108164 3.2356444444
-3.7713526895 -0.5728788391 3.2362627177
-3.9240952663 -0.9610679242 3.2347593247
-4.0767563896 -1.3491763223 3.2311595369
-4.2293368864 -1.7372023490 3.2254886347
-4.3818375828 -2.1251443847 3.2177719049
-4.5342593039 -2.5130008732 3.2080346397
-4.6866028733 -2.9007703217 3.1963021336
-4.8388691122 -3.2884512989 3.1825996827
-4.9912859032 -3.6758477472 3.1669483737
-5.1442816430 -4.0628327937 3.1493648705
-5.2978042515 -4.4498170523 3.1298690818
-5.4518753060 -4.8365075422 3.1084982937
-5.6064110678 -5.2222317726 3.0853171672
-5.7613125140 -5.6092297911 3.0602518695
-5.9163922074 -5.9939848101 3.0335149942
-6.0717221258 -6.3793125020 3.0049864887
-6.2273595529 -6.7652966092 2.9746749052
0.3295385544 8.5671879344 2.6454049709
0.1718108334 8.1809867823 2.6991733454
0.0144984529 7.7954155949 2.7502211586
-0.1424595989 7.4103948540 2.7985902665
-0.2991876241 7.0230357663 2.8447109867
-0.4554158698 6.6369840851 2.8880963645
-0.6111284405 6.2498738803 2.9290984017
-0.7662292797 5.8624012981 2.9676432643
-0.9207348589 5.4748661846 3.0037113899
-1.0746853198 5.0866649957 3.0373881117
-1.2286948502 4.6974490478 3.0686797121
-1.3826121325 4.3082832962 3.0974973235
-1.5364379314 3.9191704067 3.1238659395
-1.6901730197 3.5301129779 3.1478105922
-1.8438181780 3.1411135409 3.1693563499
-1.9973741935 2.7521745586 3.1885283145
-2.1508418597 2.3632984252 3.2053516195
-2.3042219754 1.9744874658 3.2198514273
-2.4575153443 1.5857439366 3.2320529269
-2.6107227739 1.1970700246 3.2419813317
-2.7638450758 0.8084678469 3.2496618772
-2.9168830636 0.4199394526 3.2551198184
-3.0698375539 0.0314868208 3.2583804282
-3.2227093644 -0.3568881372 3.2594689947
-3.3754993139 -0.7451835785 3.2584108192
-3.5282082219 -1.1333977279 3.2552312141
-3.6808369077 -1.5215288768 3.2499555006
-3.8333861898 -1.9095753833 3.2426090074
-3.9858568859 -2.2975356708 3.2332170677
-4.1382498117 -2.6854082276 3.2218050183
-4.2905657814 -3.0731916057 3.2083981972
-4.4428056060 -3.4608844199 3.1930219417
-4.5951934163 -3.8482815670 3.1757018061
-4.7481602503 -4.2352628637 3.1564597786
-4.9016543459 -4.6222400361 3.1353117713
-5.0556975114 -5.0089215564 3.1122977092
-5.2102066131 -5.3946381831 3.0874868205
-5.3650806406 -5.7816214834 3.0607860357
-5.5201354800 -6.1663698622 3.0324343950
-5.6754402913 -6.5516869554 3.0022898535
-5.8310523460 -6.9376558831 2.9703609683
0.7243185389 8.3958407416 2.7018908950
0.5666441373 8.0095994536 2.7540407403
0.4093828496 7.6239881071 2.8034716645
0.2524739412 7.2389271907 2.8502254556
0.0958013648 6.8515266758 2.8947098151
-0.0603752138 6.4654343086 2.9364650865
-0.2160335177 6.0782818772 2.9758236779
-0.3710794694 5.6907657845 3.0127164824
-0.5255305802 5.3031860642 3.0471265247
-0.6794270018 4.9149362190 3.0791347220
-0.8333870020 4.5256609789 3.1087511094
-0.9872560603 4.1364387098 3.1358930053
-1.1410349411 3.7472720582 3.1605854716
-1.2947244164 3.3581636018 3.1828536075
-1.4483252648 2.9691158478 3.2027225475
-1.6018382711 2.5801312336 3.2202174584
-1.7552642254 2.1912121254 3.2353635373
-1.9086039230 1.8023608186 3.2481860089
-2.0618581627 1.4135795376 3.2587101231
-2.2150277470 1.0248704355 3.2669611529
-2.3681134815 0.6362355945 3.2729643916
-2.5211161736 0.2476770263 3.2767451511
-2.6740366325 -0.1408033280 3.2783287590
-2.8268756686 -0.5292035973 3.2777405566
-2.9796340924 -0.9175219799 3.2750058970
-3.1323127148 -1.3057567430 3.2701501425
-3.2849123457 -1.6939062217 3.2631986628
-3.4374337942 -2.0819688186 3.2541768329
-3.5898778677 -2.4699430029 3.2431100314
-3.7422453715 -2.8578273093 3.2300236380
-3.8945371086 -3.2456203369 3.2149430321
-4.0467538789 -3.6333207484 3.1978935911
-4.1991159269 -4.0207145025 3.1789053900
-4.3520567459 -4.4076882166 3.1580056527
-4.5055249840 -4.7946545920 3.1352062956
-4.6595426214 -5.1813236465 3.1105498474
-4.8140270493 -5.5670295756 3.0841100349
-4.9688756860 -5.9539947684 3.0557747492
-5.1239072239 -6.3387338522 3.0258091511
-5.2791884498 -6.7240375837 2.9940494610
-5.4347766119 -7.1099884491 2.9605042525
1.1191675826 8.2243688724 2.7528676783
0.9615450557 7.8380905841 2.8033977354
0.8043333856 7.4524420704 2.8512105960
0.6474721238 7.0673438430 2.8963479690
0.4908530320 6.6799055359 2.9391946803
0.3347262063 6.2937757767 2.9793187050
0.1791198936 5.9065848239 3.0170326377
0.0241262718 5.5190291329 3.0522721649
-0.1302731543 5.1314088284 3.0850229313
-0.2841186360 4.7431146375 3.1153613832
-0.4380323402 4.3537846892 3.1433012727
-0.5918564283 3.9645104978 3.1687662769
-0.7455916629 3.5752946877 3.1917815259
-0.8992388131 3.1861398113 3.2123721859
-1.0527986542 2.7970483493 3.2305634570
-1.2062719668 2.4080227097 3.2463805705
-1.3596595362 2.0190652276 3.2598487865
-1.5129621520 1.6301781653 3.2709933914
-1.6661806070 1.2413637123 3.2798396951
-1.8193156968 0.8526239849 3.2864130293
-1.9723682197 0.4639610273 3.2907387442
-2.1253389748 0.0753768109 3.2928422070
-2.2782287631 -0.3131267643 3.2927487989
-2.4310383855 -0.7015478697 3.2904839134
-2.5837686432 -1.0898847477 3.2860729537
-2.7364203366 -1.4781357102 3.2795413305
-2.8889942655 -1.8662991387 3.2709144604
-3.0414912274 -2.2543734826 3.2602177636
-3.1939120185 -2.6423572590 3.2474766614
-3.3462574323 -3.0302490509 3.2327165753
-3.4985282594 -3.4180475071 3.2159629244
-3.6507252873 -3.8057513400 3.1972411238
-3.8030647411 -4.1931376812 3.1765858164
-3.9559823874 -4.5801000541 3.1540293636
-4.1094273752 -4.9670519986 3.1295796942
-4.2634217998 -5.3537051681 3.1032819013
-4.4178834988 -5.7393973765 3.0752141354
-4.5727087275 -6.1263411554 3.0452454738
-4.7277184790 -6.5110683552 3.0136668333
-4.8829776028 -6.8963560337 2.9802929895
-5.0385433122 -7.2822860324 2.9451325437
1.5140745065 8.0527812710 2.7983561794
1.3565023729 7.6664691501 2.8472653140
1.1993388117 7.2807864918 2.8934590582
1.0425236690 6.8956538466 2.9369790313
0.8859560628 6.5081814135 2.9781869611
0.7298770460 6.1220175846 3.0166787423
0.5743204182 5.7347918442 3.0527469692
0.4193765397 5.3472004953 3.0863321800
0.2650259884 4.9595436566 3.1174226673
0.1112283228 4.5712094588 3.1460903601
-0.0426423420 4.1818294194 3.1723526849
-0.1964247323 3.7925079288 3.1961398407
-0.3501196069 3.4032475851 3.2174770250
-0.5037277307 3.0140509130 3.2363894708
-0.6572498735 2.6249203624 3.2529024433
-0.8106868105 2.2358583089 3.2670412377
-0.9640393203 1.8468670534 3.2788311762
-1.1173081853 1.4579488216 3.2882976057
-1.2704941906 1.0691057651 3.2954658955
-1.4235981235 0.6803399607 3.3003614345
-1.5766207729 0.2916534110 3.3030096288
-1.7295629289 -0.0969519550 3.3034358993
-1.8824253821 -0.4854742815 3.3016656795
-2.0352089230 -0.8739117851 3.2977244136
-2.1879143416 -1.2622627546 3.2916375531
-2.3405424267 -1.6505255492 3.2834305559
-2.4930939661 -2.0386985989 3.2731288835
-2.6455697453 -2.4267804024 3.2607579991
-2.7979705474 -2.8147695264 3.2463433656
-2.9502971526 -3.2026646049 3.2299104438
-3.1025503384 -3.5904643375 3.2114846906
-3.2547308782 -3.9781674884 3.1910915571
-3.4070508473 -4.3655424782 3.1687702936
-3.5599481068 -4.7524898332 3.1445582934
-3.7133723962 -5.1394237975 3.1184595115
-3.8673458709 -5.5260577467 3.0905215628
-4.0217867391 -5.9117332885 3.0608269402
-4.1765904926 -6.2986524362 3.0292261597
-4.3315799315 -6.6833652338 2.9960354936
-4.4868183939 -7.0686342450 2.9610485933
-4.6423630462 -7.4545406558 2.9242740988
1.9090281903 7.8810869326 2.8383778054
1.7515049370 7.4947441720 2.8856650105
1.5943879476 7.1090304152 2.9302387100
1.4376173706 6.7238662676 2.9721404229
1.2810992230 6.3363633973 3.0117085941
1.1250660472 5.9501688411 3.0485672806
0.9695567751 5.5629120670 3.0829889224
0.8146600330 5.1752890197 3.1149189591
0.6603555284 4.7875997141 3.1443483560
0.5066025401 4.3992298658 3.1713444844
0.3527716457 4.0098043744 3.1959283972
0.1990276725 3.6204402236 3.2180369676
0.0453698672 3.2311399823 3.2376954605
-0.1082025290 2.8419061432 3.2549291749
-0.2616902793 2.4527411228 3.2697634403
-0.4150941510 2.0636472609 3.2822236147
-0.5684149150 1.6746268205 3.2923350815
-0.7216533446 1.2856819883 3.3001232473
-0.8748102157 0.8968148745 3.3056135389
-1.0278863058 0.5080275134 3.3088314015
-1.1808823932 0.1193218635 3.3098022953
-1.3337992570 -0.2693001915 3.3085516939
-1.4866376761 -0.6578368425 3.3051050812
-1.6393984290 -1.0462863540 3.2994879502
-1.7920822934 -1.4346470633 3.2917257994
-1.9446900453 -1.8229173799 3.2818441316
-2.0972224589 -2.2110957837 3.2698684513
-2.2496803062 -2.5991808250 3.2558242631
-2.4020643563 -2.9871711225 3.2397370693
-2.5543753752 -3.3750653623 3.2216323682
-2.7066141256 -3.7628622974 3.2015356522
-2.8587813661 -4.1505607449 3.1794724061
-3.0110848927 -4.5379205340 3.1554865203
-3.1639644874 -4.9248492844 3.1296203072
-3.3173705686 -5.3117618108 3.1018737679
-3.4713252983 -5.6983732946 3.0722969928
-3.6257471822 -6.0840293066 3.0409767301
-3.7805313377 -6.4709207009 3.0077452138
-3.9355018927 -6.8556166535 2.9729436351
-4.0907210881 -7.2408644642 2.9363448719
-4.2462460315 -7.6267446542 2.8979576135
2.3040175998 7.7092948802 2.8729545095
2.1465416879 7.3229246901 2.9186189075
1.9894697098 6.9371828975 2.9615717600
1.8327421249 6.5519901787 3.0018544757
1.6762713874 6.1644605740 3.0397820689
1.5202820675 5.7782386455 3.0750069569
1.3648178063 5.3909546023 3.1077813029
1.2099655803 5.0033038257 3.1380554908
1.0557042857 4.6155861282 3.1658231779
0.9019928306 4.2271849929 3.1911471457
0.7481984349 3.8377186989 3.2140520185
0.5944895998 3.4483165321 3.2344814867
0.4408655785 3.0589810281 3.2524608817
0.2873256206 2.6697146448 3.2680155675
0.1338689711 2.2805197615 3.2811709369
-0.0195051285 1.8913986791 3.2919524094
-0.1727974389 1.5023536198 3.3003854288
-0.3260087234 1.1133867280 3.3064954595
-0.4791397469 0.7245000697 3.3103079850
-0.6321912755 0.3356956340 3.3118485047
-0.7851640753 -0.0530246676 3.3111425316
-0.9380589131 -0.4416589994 3.3082155900
-1.0908765550 -0.8302056013 3.3030932129
-1.2436177661 -1.2186627881 3.2958009396
-1.3962833101 -1.6070289481 3.2863643140
-1.5488739490 -1.9953025428 3.2748088819
-1.7013904425 -2.3834821047 3.2611601888
-1.8538335475 -2.7715662372 3.2454437784
-2.0062040181 -3.1595536129 3.2276851903
-2.1585026049 -3.5474429723 3.2079099582
-2.3107300548 -3.9352331223 3.1861436077
-2.4628871105 -4.3229229352 3.1624116554
-2.6151771622 -4.7102637713 3.1367626565
-2.7680417436 -5.0971704271 3.1092437240
-2.9214320389 -5.4840581561 3.0798509299
-3.0753701650 -5.8706440259 3.0486367911
-3.2297748547 -6.2562777328 3.0156922187
-3.3845412295 -6.6431383521 2.9808314679
-3.5394942806 -7.0278150962 2.9444201806
-3.6946955537 -7.4130392587 2.9062108386
-3.8502020859 -7.7988906873 2.8662121912
2.6990318154 7.5374141403 2.9021087872
2.5416016844 7.1510197416 2.9461496311
2.3845731398 6.7652529852 2.9874809619
2.2278869579 6.3800346352 3.0261440675
2.0714615674 5.9924820047 3.0624304226
1.9155141072 5.6062360633 3.0960209559
1.7600925038 5.2189285180 3.1271474648
1.6052821695 4.8312539810 3.1557653116
1.4510612473 4.4435119646 3.1818708613
1.2973881856 4.0550839023 3.2055222805
1.1436270244 3.6655814548 3.2267477047
0.9899500592 3.2761459096 3.2454977726
0.8363565524 2.8867797661 3.2617978817
0.6828457627 2.4974854437 3.2756734594
0.5294169450 2.1082652816 3.2871499609
0.3760693519 1.7191215385 3.2962528663
0.2228022336 1.3300563927 3.3030076773
0.0696148387 0.9410719433 3.3074399154
-0.0834935851 0.5521702098 3.3095751187
-0.2365237910 0.1633531324 3.3094388394
-0.3894765321 -0.2253774259 3.3070566414
-0.5423525610 -0.6140196805 3.3024540977
-0.6951526296 -1.0025719227 3.2956567881
-0.8478774883 -1.3910325197 3.2866902972
-1.0005278858 -1.7793999132 3.2755802115
-1.1531045687 -2.1676726182 3.2623521175
-1.3056082810 -2.5558492221 3.2470315999
-1.4580397637 -2.9439283833 3.2296442394
-1.6103997546 -3.3319088297 3.2102156104
-1.7626889877 -3.7197893576 3.1887712795
-1.9149081933 -4.1075688300 3.1653368039
-2.0670580973 -4.4952461750 3.1399377291
-2.2193375600 -4.8825644102 3.1126272938
-2.3721897028 -5.2694455844 3.0834572855
-2.5255665607 -5.6563052608 3.0524198790
-2.6794901559 -6.0428624699 3.0195699648
-2.8338793810 -6.4284711887 2.9850025197
-2.9886297285 -6.8152981165 2.9485141472
-3.1435666042 -7.1999533718 2.9104944399
-3.2987512472 -7.5851515275 2.8706758877
-3.4542406121 -7.9709717499 2.8290673096
3.0940600580 7.3654537204 2.9258636686
2.9366741325 6.9790383368 2.9682803433
2.7796874305 6.5932496913 3.0079896057
2.6230410524 6.2080086520 3.0450326134
2.4666589378 5.8204367010 3.0796772292
2.3107513368 5.4341701030 3.1116329994
2.1553700370 5.0468428162 3.1411112987
2.0005989731 4.6591484786 3.1680724944
1.8464155941 4.2713862044 3.1925156703
1.6927777987 3.8829355610 3.2144943596
1.5390466249 3.4934015973 3.2340401436
1.3853982828 3.1039372941 3.2511107303
1.2318320456 2.7145451114 3.2657315813
1.0783471826 2.3252274272 3.2779281867
0.9249429607 1.9359865366 3.2877260625
0.7716186445 1.5468246535 3.2951507473
0.6183734972 1.1577439097 3.3002278001
0.4652067805 0.7687463559 3.3029827970
0.3121177560 0.3798339619 3.3034413292
0.1591056848 -0.0089913822 3.3016289997
0.0061698285 -0.3977278661 3.2975714211
-0.1466905502 -0.7863737575 3.2912942134
-0.2994761878 -1.1749274017 3.2828230014
-0.4521878188 -1.5633872205 3.2721834119
-0.6048261756 -1.9517517105 3.2594010724
-0.7573919884 -2.3400194429 3.2445016081
-0.9098859842 -2.7281890613 3.2275106402
-1.0623088873 -3.1162592807 3.2084537838
-1.2146614178 -3.5042288858 3.1873566463
-1.3669442926 -3.8920967304 3.1642448250
-1.5191582242 -4.2798617343 3.1391439054
-1.6713039209 -4.6675228837 3.1120794603
-1.8235755923 -5.0548149808 3.0831094231
-1.9764177886 -5.4416673959 3.0522901249
-2.1297834789 -5.8284958738 3.0196098793
-2.2836945432 -6.2150214818 2.9851258957
-2.4380699694 -6.6006026261 2.9489371149
-2.5928059748 -6.9873930554 2.9108228364
-2.7477279493 -7.3720246280 2.8711960766
-2.9028971990 -7.7571945107 2.8297697608
-3.0583705845 -8.1429811812 2.7865527876
3.4890917155 7.1934225847 2.9442427105
3.3317484099 6.8069894361 2.9850347328
3.1748019524 6.4211819717 3.0231215083
3.0181937741 6.0359211806 3.0585440549
2.8618528629 5.6483336029 3.0915465892
2.7059831218 5.2620496938 3.1218673349
2.5506397778 4.8747064106 3.1496972203
2.3959053746 4.4869962135 3.1750016353
2.2417567256 4.0992177216 3.1977823896
2.0881510923 3.7107488191 3.2180883725
1.9344466848 3.3211879538 3.2359545396
1.7808237493 2.9316994852 3.2513457776
1.6272815707 2.5422858303 3.2642876109
1.4738194311 2.1529493220 3.2748055909
1.3204366104 1.7636922095 3.2829252925
1.1671323872 1.3745166582 3.2886723115
1.0139060386 0.9854247507 3.2920722618
0.8607568414 0.5964184866 3.2931507727
0.7076840719 0.2074997837 3.2919334861
0.5546870072 -0.1813295213 3.2884460537
0.4017649248 -0.5700676720 3.2827141353
0.2489171038 -0.9587129914 3.2747633954
0.0961428244 -1.3472638806 3.2646195009
-0.0565586309 -1.7357188177 3.2523081195
-0.2091879772 -2.1240763569 3.2378549167
-0.3617459268 -2.5123351264 3.2212855542
-0.5142331893 -2.9004938280 3.2026256874
-0.6666504707 -3.2885512347 3.1819009636
-0.8189984731 -3.6765061898 3.1591370204
-0.9712778951 -4.0643576050 3.1343594832
-1.1234894308 -4.4521044592 3.1075939640
-1.2756337697 -4.8397457962 3.0788660598
-1.4279003536 -5.2270083349 3.0482384036
-1.5807350079 -5.6138288272 3.0157717340
-1.7340917169 -6.0006230754 2.9814505452
-1.8879921732 -6.3871142528 2.9453343080
-2.0423553989 -6.7726653362 2.9075258206
-2.1970786765 -7.1594165736 2.8677874475
-2.3519869672 -7.5440223587 2.8265550750
-2.5071420030 -7.9291617970 2.7835225136
-2.6626005390 -8.3149126717 2.7386987511
3.8841163681 7.0213296331 2.9572699840
3.7268140912 6.6348819278 2.9964370026
3.5699062782 6.2490587033 3.0329010008
3.4133346962 5.8637810864 3.0667028473
3.2570329210 5.4761815564 3.0980631152
3.1011990482 5.0898836629 3.1267487211
2.9458913256 4.7025281048 3.1529301540
2.7911909918 4.3148059621 3.1765778372
2.6370742841 3.9270152620 3.1976963084
2.4834977397 3.5385323883 3.2163298097
2.3298169130 3.1489492031 3.2325165945
2.1762162066 2.7594411228 3.2462288262
2.0226949190 2.3700105185 3.2574920908
1.8692523462 1.9806596755 3.2663319987
1.7158877828 1.5913907934 3.2727741823
1.5626005224 1.2022059868 3.2768442924
1.4093898579 0.8131072859 3.2785679960
1.2562550821 0.4240966371 3.2779709731
1.1031954878 0.0351759037 3.2750789148
0.9502103690 -0.3536531332 3.2699175192
0.7972990204 -0.7423887738 3.2625124905
0.6444607383 -1.1310293979 3.2528895354
0.4916948213 -1.5195734645 3.2410743613
0.3390005698 -1.9080195103 3.2270926737
0.1863772870 -2.2963661478 3.2109701741
0.0338242790 -2.6846120646 3.1927325578
-0.1186591449 -3.0727560218 3.1724055121
-0.2710736718 -3.4607968518 3.1500147141
-0.4234199849 -3.8487334575 3.1255858288
-0.5756987636 -4.2365648101 3.0991445075
-0.7279106829 -4.6242899478 3.0707163861
-0.8800564132 -5.0119079737 3.0403270833
-1.0323205140 -5.3991376555 3.0080439297
-1.1851499387 -5.7859231803 2.9739319310
-1.3384997653 -6.1726802857 2.9379718083
-1.4923914560 -6.5591343178 2.9002252338
-1.6467440095 -6.9446529572 2.8607987541
-1.8014560996 -7.3313624251 2.8194381852
-1.9563518653 -7.7159404094 2.7766017060
-2.1114938073 -8.1010473295 2.7319644824
-2.2669385637 -8.4867602682 2.6855355995
4.2791238106 6.8491836779 2.9649700624
4.1218609725 6.4627246057 3.0025118568
3.9649902070 6.0768886621 3.0373529139
3.8084536226 5.6915971277 3.0695339445
3.6521889274 5.3039892918 3.0992519169
3.4963889455 4.9176807150 3.1263024116
3.3411145295 4.5303165711 3.1508355172
3.1864457006 4.1425863604 3.1728266929
3.0323581777 3.7547874221 3.1922832025
2.8788076884 3.3662948215 3.2092446441
2.7251473013 2.9766938544 3.2237524882
2.5715656946 2.5871706677 3.2357862613
2.4180621816 2.1977275835 3.2453716090
2.2646360740 1.8083668361 3.2525341992
2.1112866825 1.4190905729 3.2572997194
1.9580133169 1.0299008553 3.2596938735
1.8048152873 0.6407996587 3.2597423795
1.6516919037 0.2517888734 3.2574709661
1.4986424766 -0.1371296939 3.2529053705
1.3456663180 -0.5259543199 3.2460713355
1.1927627409 -0.9146833630 3.2369946071
1.0399310606 -1.3033152623 3.2257009320
0.8871705940 -1.6918485362 3.2122160552
0.7344806609 -2.0802817813 3.1965657177
0.5818605836 -2.4686136707 3.1787756543
0.4293096878 -2.8568429523 3.1588715918
0.2768273023 -3.2449684477 3.1368792465
0.1244127598 -3.6329890501 3.1128243226
-0.0279346037 -4.0209037228 3.0867325103
-0.1802154473 -4.4087114977 3.0586294841
-0.3324304264 -4.7964114729 3.0285409009
-0.4845801915 -5.1840028115 2.9964923989
-0.6368443101 -5.5711964645 2.9625559983
-0.7896707214 -5.9579440998 2.9268008265
-0.9430156735 -6.3446612716 2.8892038833
-1.0969003577 -6.7310755608 2.8498289808
-1.2512436947 -7.1165594788 2.8087863007
-1.4059460614 -7.5032247188 2.7658055140
-1.5608304005 -7.8877729824 2.7213664936
-1.7159603081 -8.2728454094 2.6751262494
-1.8713922934 -8.6585183777 2.6270939723
4.6741040770 6.6769934231 2.9673680050
4.5168790925 6.2905261489 3.0032844842
4.3600437854 5.9046805022 3.0365025621
4.2035406108 5.5193779346 3.0670627824
4.0473109573 5.1317654032 3.0951385835
3.8915429079 4.7454494110 3.1205541371
3.7362995108 4.3580803307 3.1434392012
3.5816596555 3.9703458848 3.1637742651
3.4275986004 3.5825426303 3.1815693131
3.2740711800 3.1940444943 3.1968593095
3.1204281438 2.8044302300 3.2096888563
2.9668625633 2.4148963837 3.2200449182
2.8133737684 2.0254452252 3.2279531983
2.6599610875 1.6360789355 3.2334394199
2.5066238488 1.2467996073 3.2365293234
2.3533613798 0.8576092457 3.2372486637
2.2001730088 0.4685097691 3.2356232072
2.0470580639 0.0795030098 3.2316787291
1.8940158751 -0.3094092848 3.2254410105
1.7410457730 -0.6982254506 3.2169358361
1.5881470903 -1.0869439066 3.2061889914
1.4353191616 -1.4755631525 3.1932262603
1.2825613238 -1.8640817680 3.1780734229
1.1298729166 -2.2524984111 3.1607562533
0.9772532824 -2.6408118164 3.1413005170
0.8247017669 -3.0290207937 3.1197319693
0.6722177194 -3.4171242262 3.0960763531
0.5198004928 -3.8051210689 3.0703593972
0.3674494438 -4.1930103463 3.0426068143
0.2151639333 -4.5807911515 3.0128442991
0.0629433264 -4.9684626435 2.9810975276
-0.0892130073 -5.3560240459 2.9473921544
-0.2414795363 -5.7431786287 2.9118048750
-0.3943050514 -6.1298855787 2.8744087908
-0.5476470431 -6.5165601509 2.8351772358
-0.7015263937 -6.9029322201 2.7941760983
-0.8558618957 -7.2883792470 2.7515190793
-1.0105559250 -7.6749979213 2.7069201239
-1.1654298744 -8.0595146391 2.6608801816
-1.3205487446 -8.4445506989 2.6130386101
-1.4759689052 -8.8301817690 2.5634047148
5.0690474596 6.5047674443 2.9644893409
4.9118587543 6.1182951007 2.9987805417
4.7550573296 5.7324427357 3.0303757250
4.5985859916 5.3471319890 3.0593152603
4.4423893649 4.9595183293 3.0857491643
4.2866513149 4.5731981497 3.1095300855
4.1314366820 4.1858277345 3.1307675503
3.9768233089 3.7980928336 3.1494470660
3.8227860516 3.4102891281 3.1655813261
3.6692787695 3.0217895862 3.1792006787
3.5156500558 2.6321664467 3.1903527675
3.3620974920 2.2426263197 3.1990320590
3.2086204257 1.8531714205 3.2052643115
3.0552182036 1.4638038737 3.2090753012
2.9018901722 1.0745257149 3.2104908195
2.7486356783 0.6853388906 3.2095366697
2.5954540691 0.2962452600 3.2062386642
2.4423446927 -0.0927534049 3.2006226222
2.2893068986 -0.4816554173 3.1927143661
2.1363400377 -0.8704591752 3.1825397198
1.9834434629 -1.2591631589 3.1701245058
1.8306165293 -1.6477659308 3.1554945427
1.6778585945 -2.0362661331 3.1386756429
1.5251690187 -2.4246624865 3.1196936109
1.3725471655 -2.8129537886 3.0985742402
1.2199924013 -3.2011389118 3.0753433120
1.0675040962 -3.5892168019 3.0500265933
0.9150816241 -3.9771864763 3.0226498344
0.7627243627 -4.3650470220 2.9932387680
0.6104316936 -4.7527975934 2.9618191069
0.4582030030 -5.1404374112 2.9284165426
0.3060376809 -5.5279657596 2.8930567444
0.1537664594 -5.9150783640 2.8558210623
0.0009398262 -6.3017419618 2.8167864212
-0.1524010234 -6.6883713959 2.7759225484
-0.3062766258 -7.0746988898 2.7332973441
-0.4606055981 -7.4601069655 2.6890279106
-0.6152925966 -7.8466768585 2.6428128982
-0.7701571304 -8.2311603016 2.5951736998
-0.9252658976 -8.6161582210 2.5457325402
-1.0806751168 -9.0017455731 2.4944988457
5.4639445299 6.3325141687 2.9563600493
5.3067905446 5.9460398497 2.9890261334
5.1500214438 5.5601837144 3.0189986280
4.9935803886 5.1748676064 3.0463177202
4.8374148035 4.7872563348 3.0711101480
4.6817048498 4.4009351491 3.0932568805
4.5265167652 4.0135669451 3.1128473410
4.3719274301 3.6258353087 3.1298720337
4.2179113539 3.2380349533 3.1443463484
4.0644213418 2.8495380648 3.1562960393
3.9108039902 2.4599104000 3.1657716990
3.7572615048 2.0703682949 3.1727753472
3.6037932519 1.6809139073 3.1773327954
3.4503985979 1.2915493032 3.1794698705
3.2970769089 0.9022764586 3.1792124121
3.1438275517 0.5130972594 3.1765862692
2.9906498939 0.1240135033 3.1716172982
2.8375433042 -0.2649730995 3.1643313590
2.6845071529 -0.6538609253 3.1547543132
2.5315408117 -1.0426484349 3.1429120210
2.3786436549 -1.4313341723 3.1288303393
2.2258150586 -1.8199167635 3.1125351185
2.0730544018 -2.2083949146 3.0940522008
1.9203610665 -2.5967674103 3.0734074181
1.7677344372 -2.9850331116 3.0506265893
1.6151739022 -3.3731909550 3.0257355191
1.4626788528 -3.7612399495 2.9987599952
1.3102486845 -4.1491791756 2.9697257873
1.1578827962 -4.5370077829 2.9386586452
1.0055805908 -4.9247249882 2.9055842969
0.8533414756 -5.3123300736 2.8705284475
0.7011648617 -5.6998223843 2.8335167776
0.5488867796 -6.0868902390 2.7946352665
0.3960571179 -6.4735079484 2.7539645085
0.2427156909 -6.8600898347 2.7114706887
0.0888423407 -7.2463705217 2.6672236523
-0.0654813304 -7.6317376962 2.6213437831
-0.2208265093 -8.0159276219 2.5739709884
-0.3750185534 -8.4027052513 2.5242781333
-0.5301180886 -8.7876633596 2.4732391631
-0.6855171864 -9.1732052814 2.4204075255
5.8587861560 6.1602418563 2.9430065401
5.7016653514 5.7737686118 2.9740477917
5.5449270382 5.3879116107 3.0023979213
5.3885147359 5.0025929174 3.0280969262
5.2323782414 4.6149874928 3.0512484409
5.0766945166 4.2286684293 3.0717615592
4.9215308092 3.8413059205 3.0897057577
4.7669631204 3.4535812001 3.1050765101
4.6129656685 3.0657879239 3.1178918835
4.4594901273 2.6772976698 3.1281730692
4.3058812521 2.2876697495 3.1359735105
4.1523459845 1.8981298839 3.1413028217
3.9988837109 1.5086801711 3.1441868647
3.8454938181 1.1193226164 3.1446515144
3.6921756930 0.7300591338 3.1427226561
3.5389287235 0.3408915468 3.1384261824
3.3857522986 -0.0481784105 3.1317879899
3.2326458082 -0.4371490917 3.1228339776
3.0796086442 -0.8260189371 3.1115900429
2.9266402005 -1.2147864724 3.0980820799
2.7737398728 -1.6034503062 3.0823359767
2.6209070596 -1.9920091296 3.0643776131
2.4681411616 -2.3804617136 3.0442328582
2.3154415826 -2.7688069075 3.0219275686
2.1628077296 -3.1570436374 2.9974875859
2.0102390124 -3.5451709036 2.9709387349
1.8577348446 -3.9331877796 2.9423068221
1.7052946432 -4.3210934091 2.9116176335
1.5529178289 -4.7088870048 2.8788969334
1.4006038262 -5.0965678461 2.8441704625
1.2483520636 -5.4841352767 2.8074639365
1.0961619738 -5.8715887032 2.7688030452
0.9438749787 -6.2586091747 2.7282783652
0.7910404844 -6.6451785918 2.6859740060
0.6376968594 -7.0317106511 2.6418526769
0.4830545210 -7.4166011440 2.5962934984
0.3287668352 -7.8015073585 2.5488788795
0.1741746703 -8.1874238065 2.4995337692
0.0199799290 -8.5741451283 2.4482246890
-0.1351111817 -8.9590618563 2.3955897188
-0.2905009146 -9.3445567440 2.3411620243
6.2535635194 5.9879585843 2.9244556321
6.0964743802 5.6014894129 2.9538724543
5.9397653443 5.2156344019 2.9806006568
5.7833802933 4.8303158521 3.0046800405
5.6272709785 4.4427196688 3.0261913432
5.4716116549 4.0564057970 3.0450715483
5.3164702037 3.6690523984 3.0613703693
5.1619218278 3.2813381709 3.0750882145
5.0079405090 2.8935556239 3.0862458072
4.8544767152 2.5050758995 3.0948598101
4.7008735121 2.1154519048 3.1009864185
4.5473426857 1.7259184039 3.1046428699
4.3938836440 1.3364774328 3.1058550739
4.2404957950 0.9471309338 3.1046489512
4.0871785475 0.5578807570 3.1010504297
3.9339313114 0.1687286616 3.0950854427
3.7807534974 -0.2203236834 3.0867799250
3.6276445183 -0.6092746969 3.0761598111
3.4746037880 -0.9981228850 3.0632510318
3.3216307229 -1.3868668391 3.0480795120
3.1687247413 -1.7755052342 3.0306711686
3.0158852640 -2.1640368271 3.0110519076
2.8631117146 -2.5524604546 2.9892476224
2.7104035191 -2.9407750317 2.9652841912
2.5577601070 -3.3289795495 2.9391874756
2.4051809106 -3.7170730735 2.9109833182
2.2526653654 -4.1050547415 2.8806975409
2.1002129108 -4.4929237612 2.8483559439
1.9478229892 -4.8806794084 2.8139843028
1.7954950471 -5.2683210249 2.7776083685
1.6432285346 -5.6558480165 2.7392538650
1.4910229056 -6.0432598506 2.6989464884
1.3379022651 -6.4294502181 2.6570016889
1.1850778928 -6.8158515609 2.6130886139
1.0317509833 -7.2021601174 2.5673741128
0.8774340028 -7.5863940431 2.5202853290
0.7236193042 -7.9729469719 2.4709193504
0.5682819897 -8.3569271169 2.4204008282
0.4134072388 -8.7408890408 2.3680718982
0.2582648471 -9.1252333563 2.3139701189
0.1027809138 -9.5099749772 2.2581207336
6.6482681291 5.8156722287 2.9007345301
6.4912091686 5.4292100735 2.9285274410
6.3345279303 5.0433598542 2.9536342652
6.1781686606 4.6580441245 2.9760946004
6.0220846587 4.2704605063 2.9959665245
5.8664479533 3.8841548308 3.0132146391
5.7113266922 3.4968138825 3.0278691033
5.5567953595 3.1091136431 3.0399352189
5.4028277536 2.7213453903 3.0494363398
5.2493730651 2.3328799980 3.0563846417
5.0957728164 1.9432640142 3.0608389687
4.9422437445 1.5537409035 3.0628241998
4.7887852794 1.1643126373 3.0623662898
4.6353968516 0.7749810934 3.0594912019
4.4820778926 0.3857480561 3.0542249046
4.3288278346 -0.0033847817 3.0465933684
4.1756461117 -0.3924158171 3.0366225638
4.0225321594 -0.7813435362 3.0243384578
3.8694854146 -1.1701665120 3.0097670116
3.7165053168 -1.5588834027 2.9929341785
3.5635913073 -1.9474929504 2.9738659007
3.4107428300 -2.3359939785 2.9525881080
3.2579593313 -2.7243853905 2.9291267149
3.1052402603 -3.1126661676 2.9035076188
2.9525850690 -3.5008353667 2.8757566983
2.7999932124 -3.8888921186 2.8458998108
2.6474641488 -4.2768356255 2.8139627915
2.4949973394 -4.6646651593 2.7799714512
2.3425922492 -5.0523800591 2.7439515750
2.1902483462 -5.4399797294 2.7059289211
2.0371325819 -5.8267505084 2.6661429955
1.8849106469 -6.2141202586 2.6241969561
1.7326175949 -6.6009782674 2.5804072231
1.5792141389 -6.9862095994 2.5351301969
1.4259287013 -7.3722434746 2.4878332235
1.2707971936 -7.7552474044 2.4394710274
1.1156785118 -8.1383761156 2.3892872640
0.9602220329 -8.5218582332 2.3373076381
0.8051440071 -8.9052112353 2.2835499924
0.6496818189 -9.2887794243 2.2280723764
0.4936770311 -9.6724954961 2.1709297329
7.0428918350 5.6433904514 2.8718708014
6.8858615987 5.2569381938 2.8980404300
6.7292067123 4.8710955085 2.9215265311
6.5728717895 4.4857852184 2.9423684932
6.4168112828 4.0982174128 2.9606019992
6.2611954612 3.7119228687 2.9762189621
6.1060923834 3.3245976296 2.9892302204
5.9515758923 2.9369147865 2.9996459216
5.7976196554 2.5491643008 3.0074920207
5.6441715160 2.1607169443 3.0127762537
5.4905715967 1.7711129542 3.0155600083
5.3370416873 1.3816041527 3.0158758120
5.1835812407 0.9921924452 3.0137496623
5.0301897109 0.6028796427 3.0092075622
4.8768665524 0.2136674623 3.0022755173
4.7236112212 -0.1754424704 2.9929795329
4.5704231748 -0.5644486208 2.9813456119
4.4173018720 -0.9533495428 2.9673997512
4.2642467737 -1.3421438773 2.9511679396
4.1112573424 -1.7308303506 2.9326761552
3.9583330434 -2.1194077725 2.9119503635
3.8054733437 -2.5078750339 2.8890165146
3.6526777129 -2.8962311053 2.8639005415
3.4999456234 -3.2844750345 2.8366283581
3.3472765504 -3.6726059447 2.8072258569
3.1946699714 -4.0606230318 2.7757189076
3.0421253674 -4.4485255631 2.7421333557
2.8888151469 -4.8356018163 2.7067047861
2.7363941042 -5.2232753319 2.6690445324
2.5840335343 -5.6108325572 2.6293829874
2.4317329296 -5.9982730181 2.5877458834
2.2788660391 -6.3847225833 2.5443900489
2.1265856117 -6.7714456160 2.4989817982
1.9719861363 -7.1548059562 2.4525834942
1.8168991034 -7.5372861354 2.4045633410
1.6615991810 -7.9199225966 2.3547267519
1.5062341218 -8.3026039635 2.3030963258
1.3504141374 -8.6855338306 2.2497103066
1.1947533425 -9.0682219960 2.1945998403
1.0401782932 -9.4517947737 2.1374436558
0.8853267698 -9.8357395184 2.0785448524
7.4374268393 5.4711206854 2.8378923506
7.2804239084 5.0846811405 2.8624394328
7.1237939657 4.6988486679 2.8843055682
6.9674819940 4.3135463753 2.9035299305
6.8114432179 3.9259975481 2.9201261000
6.6558465976 3.5397169954 2.9341129609
6.5007597600 3.1524106386 2.9454822877
6.3462559822 2.7647485072 2.9542490196
6.1923088501 2.3770191646 2.9604416807
6.0388647953 1.9885934425 2.9640636190
5.8852626770 1.5990053197 2.9651786585
5.7317294371 1.2095146344 2.9638269723
5.5782645523 0.8201232239 2.9600345972
5.4248675004 0.4308328309 2.9538275732
5.2715377601 0.0416451042 2.9452319401
5.1182748113 -0.3474384000 2.9342737354
4.9650781356 -0.7364162158 2.9209789910
4.8119472157 -1.1252869660 2.9053737308
4.6588815365 -1.5140493607 2.8874839683
4.5058805847 -1.9027021946 2.8673357037
4.3529438489 -2.2912443459 2.8449549226
4.2000708202 -2.6796747736 2.8203675927
4.0472609916 -3.0679925156 2.7935996627
3.8945138590 -3.4561966865 2.7646770596
3.7418289202 -3.8442864758 2.7336256878
3.5883851985 -4.2315541065 2.7006820772
3.4358243263 -4.6194150103 2.6654558548
3.2833241957 -5.0071595881 2.6281783575
3.1308843148 -5.3947873027 2.5888753806
2.9778815956 -5.7814258609 2.5478037779
2.8255628100 -6.1688219056 2.5045322958
2.6714134796 -6.5539528661 2.4599598958
2.5169674529 -6.9374334208 2.4138153397
2.3619343266 -7.3194768635 2.3661443772
2.2065656401 -7.7016487452 2.3166603599
2.0508793052 -8.0839022207 2.2653919635
1.8949467649 -8.4661160855 2.2123746344
1.7398735951 -8.8489947146 2.1573377318
1.5851491276 -9.2317406842 2.1005282975
1.4300391897 -9.6146970585 2.0420086063
1.2743128969 -9.9979174127 1.9818226398
7.8251464057 5.2968317096 2.7996207641
7.6678884767 4.9110601368 2.8225666193
7.5111288136 4.5258677692 2.8428273694
7.3547618249 4.1411468529 2.8604464572
7.1994767107 3.7545387591 2.8753373572
7.0444911036 3.3689262569 2.8876466812
6.8897731247 2.9820749355 2.8973571611
6.7355080551 2.5947321977 2.9044747593
6.5817229943 2.2072273172 2.9090233710
6.4283613884 1.8189330895 2.9110013942
6.2747511163 1.4293616540 2.9104728540
6.1212089353 1.0398894489 2.9074787759
5.9677343420 0.6505182511 2.9020452264
5.8143268336 0.2612497423 2.8941982724
5.6609859085 -0.1279144900 2.8839639791
5.5077110662 -0.5169729502 2.8713684066
5.3545018075 -0.9059242332 2.8564376076
5.2013576348 -1.2947670226 2.8391976246
5.0482780521 -1.6835000886 2.8196744878
4.8952625650 -2.0721222861 2.7978942123
4.7423106815 -2.4606325524 2.7738827961
4.5894219113 -2.8490299055 2.7476662183
4.4365957660 -3.2373134414 2.7192704365
4.2838317598 -3.6254823327 2.6887213851
4.1311294091 -4.0135358251 2.6560449744
3.9784882327 -4.4014732366 2.6212670874
3.8259077518 -4.7892939540 2.5844135797
3.6726306688 -5.1760351957 2.5457735580
3.5201724482 -5.5636246422 2.5048521856
3.3664960206 -5.9493804711 2.4624137300
3.2125019709 -6.3343752661 2.4181922666
3.0582762608 -6.7186465293 2.3722030571
2.9040973050 -7.1014047594 2.3245812041
2.7494824770 -7.4834141803 2.2752968099
2.5946288434 -7.8655494505 2.2241870915
2.4395797086 -8.2477817968 2.1712737762
2.2844521771 -8.6300181323 2.1165801540
2.1288558657 -9.0124668041 2.0601476229
1.9732956189 -9.3947426714 2.0019988209
1.8188507218 -9.7774820676 1.9418680048
1.6640645600 -10.1604723330 1.8800368887
8.2108265641 5.1241635351 2.7566008341
8.0536631334 4.7392095285 2.7779271407
7.8970174997 4.3547016141 2.7965744865
7.7407712011 3.9705516996 2.8125855157
7.5856702868 3.5844763782 2.8258467706
7.4308577394 3.1992974300 2.8365360682
7.2768312044 2.8130560861 2.8445643531
7.1229826533 2.4261101232 2.8500254689
6.9694676795 2.0388686713 2.8529301817
6.8162383734 1.6507197537 2.8532713031
6.6626180600 1.2611651875 2.8511123963
6.5090651779 0.8717113888 2.8464890857
6.3555792415 0.4823600787 2.8394274613
6.2021597665 0.0931128830 2.8299536118
6.0488062693 -0.2960286663 2.8180936223
5.8955182674 -0.6850631294 2.8038735709
5.7422952797 -1.0739891564 2.7873195262
5.5891368264 -1.4628054859 2.7684575453
5.4360424291 -1.8515109426 2.7473136705
5.2830116110 -2.2401044358 2.7239139277
5.1300438973 -2.6285849562 2.6982843241
4.9771388149 -3.0169515749 2.6704508460
4.8242958924 -3.4052034405 2.6404394568
4.6715146607 -3.7933397766 2.6082760957
4.5187946526 -4.1813598806 2.5739866752
4.3661354032 -4.5692631200 2.5375970802
4.2135364497 -4.9570489312 2.4991331664
4.0602728602 -5.3436506039 2.4589063894
3.9065817840 -5.7292856650 2.4168890627
3.7526088048 -6.1140564172 2.3730802155
3.5986751477 -6.4991259656 2.3272588979
3.4445450712 -6.8835164169 2.2796601721
3.2903936140 -7.2653379936 2.2306414282
3.1360095540 -7.6472913767 2.1797735362
2.9814414751 -8.0293440845 2.1270780821
2.8267396543 -8.4114723298 2.0725749023
2.6720359574 -8.7935908366 2.0162833870
2.5169996567 -9.1758955862 1.9582397600
2.3621733376 -9.5580375275 1.8984522820
