-4.6210158226 8.3059973024 1.2313143893
-4.7777808270 7.9265422241 1.2885143261
-4.9345003293 7.5470950832 1.3432251516
-5.0911177922 7.1676652618 1.3954782471
-5.2476789751 6.7881508894 1.4453094019
-5.4041574297 6.4066528124 1.4930886104
-5.5605725685 6.0254738200 1.5384056798
-5.7167076811 5.6437495589 1.5814702644
-5.8727809706 5.2623042426 1.6221282613
-6.0279037601 4.8790670689 1.6608742449
-6.1829519103 4.4958406681 1.6972881402
-6.3379260261 4.1126266584 1.7313941171
-6.4928267190 3.7294266295 1.7632163672
-6.6476546072 3.3462421414 1.7927791025
-6.8024103154 2.9630747244 1.8201065550
-6.9570944735 2.5799258784 1.8452229749
-7.1117077170 2.1967970726 1.8681526302
-7.2662506861 1.8136897454 1.8889198057
-7.4207240256 1.4306053037 1.9075488014
-7.5751283840 1.0475451233 1.9240639322
-7.7294644137 0.6645105483 1.9384895264
-7.8837327702 0.2815028911 1.9508499250
-8.0379341119 -0.1014765676 1.9611694803
-8.1920690994 -0.4844265787 1.9694725556
-8.3461383955 -0.8673459250 1.9757835233
-8.5001426645 -1.2502334207 1.9801267650
-8.6540825721 -1.6330879114 1.9825266696
-8.8075655457 -2.0153414973 1.9830311650
-8.9609795633 -2.3970762670 1.9816264825
-9.1146124568 -2.7786074020 1.9783204713
-9.2685605437 -3.1597747899 1.9731246012
-9.4229736897 -3.5402572333 1.9660421029
-9.5774699658 -3.9211403311 1.9571789548
-9.7327430009 -4.3008057874 1.9464388100
-9.8881838625 -4.6805377587 1.9339540334
-10.0438701635 -5.0603480140 1.9197391379
-3.4578117186 10.0446924520 1.0198255167
-3.6144368060 9.6651206232 1.0883407890
-3.7709840863 9.2856047921 1.1542405789
-3.9274607832 8.9061278140 1.2175519577
-4.0843067823 8.5265048578 1.2782684271
-4.2409833286 8.1470046506 1.3364432988
-4.3977413860 7.7674682826 1.3920937842
-4.5544450752 7.3879557220 1.4452532538
-4.7110328856 7.0084809595 1.4959528968
-4.8675210085 6.6289869135 1.5442249684
-5.0239369113 6.2474404320 1.5904474930
-5.1802769267 5.8662053242 1.6342121751
-5.3363374856 5.4844290002 1.6757197128
-5.4920175054 5.1020846301 1.7150045911
-5.6471084065 4.7188079681 1.7521668193
-5.8021250308 4.3355429582 1.7869966253
-5.9570679859 3.9522912183 1.8195182003
-6.1119378857 3.5690543364 1.8497557578
-6.2667353508 3.1858338704 1.8777335312
-6.4214610075 2.8026313477 1.9034757736
-6.5761154879 2.4194482645 1.9270067565
-6.7306994288 2.0362860857 1.9483507688
-6.8852134720 1.6531462444 1.9675321158
-7.0396582634 1.2700301422 1.9845751179
-7.1940344526 0.8869391482 1.9995041103
-7.3483426927 0.5038745996 2.0123434407
-7.5025836399 0.1208378012 2.0231174699
-7.6567579529 -0.2621699742 2.0318505691
-7.8108662926 -0.6451474865 2.0385671206
-7.9649093218 -1.0280935275 2.0432915151
-8.1188877046 -1.4110069212 2.0460481522
-8.2728021065 -1.7938865236 2.0468614384
-8.4264796469 -2.1762688484 2.0457576934
-8.5799998058 -2.5580907666 2.0427560532
-8.7337453974 -2.9397298337 2.0378554268
-8.8878070479 -3.3210251497 2.0310689514
-9.0423212990 -3.7016536974 2.0224035217
-9.1969370169 -4.0827216509 2.0119540086
-9.3522894431 -4.4625861503 1.9996421004
-9.5078246919 -4.8425612497 1.9855841513
-9.6636231978 -5.2226719124 1.9697942861
-3.0768596630 9.8864813952 1.1272781388
-3.2336803744 9.5067096197 1.1942388077
-3.3903590854 9.1270291230 1.2585852948
-3.5469242314 8.7474154186 1.3203433487
-3.7038412237 8.3676570365 1.3795100471
-3.8605649964 7.9880451336 1.4361331674
-4.0173578595 7.6084095428 1.4902314631
-4.1740820555 7.2288148969 1.5418373062
-4.3306731455 6.8492783480 1.5909816455
-4.4871212827 6.4697746016 1.6376950326
-4.6434902508 6.0881887507 1.6823565049
-4.7995786361 5.7061707386 1.7247145113
-4.9556006327 5.3244135786 1.7646435885
-5.1107342357 4.9410850806 1.8025737193
-5.2657933595 4.5577675783 1.8381468980
-5.4207786072 4.1744627179 1.8713873186
-5.5756905885 3.7911721153 1.9023191969
-5.7305299201 3.4078973562 1.9309667704
-5.8852972249 3.0246399949 1.9573542966
-6.0399931311 2.6414015543 1.9815060525
-6.1946182727 2.2581835258 2.0034463332
-6.3491732880 1.8749873681 2.0231994507
-6.5036588201 1.4918145081 2.0407897333
-6.6580755160 1.1086663395 2.0562415244
-6.8124240264 0.7255442238 2.0695791810
-6.9667050049 0.3424494893 2.0808270733
-7.1209191080 -0.0406165686 2.0900095832
-7.2750669950 -0.4236526873 2.0971511035
-7.4291493265 -0.8066576369 2.1022760367
-7.5831667652 -1.1896302208 2.1054087943
-7.7371199749 -1.5725692743 2.1065737953
-7.8910096205 -1.9554736659 2.1057954658
-8.0447943083 -2.3379783687 2.1030901165
-8.1986478690 -2.7200230486 2.0984665091
-8.3525014348 -3.1018257230 2.0919693921
-8.5066708050 -3.4833130673 2.0835903075
-8.6612804797 -3.8641605686 2.0733398055
-8.8160075445 -4.2455001854 2.0613009721
-8.9714332314 -4.6256609632 2.0474142566
-9.1270537111 -5.0059968927 2.0317793820
-9.2829504746 -5.3865513551 2.0144098274
-2.6951440157 9.7283194083 1.2293551486
-2.8523104122 9.3483457991 1.2947422123
-3.0092289049 8.9684893520 1.3575234779
-3.1659634237 8.5887251941 1.4177201971
-3.3230168087 8.2088162710 1.4753313677
-3.4798391527 7.8290791174 1.5303983963
-3.6367104421 7.4493310131 1.5829410658
-3.7934933144 7.0696413401 1.6329904131
-3.9501223459 6.6900298525 1.6805769757
-4.1064446663 6.3098162877 1.7258643579
-4.2628034963 5.9282685270 1.7689426659
-4.4188658213 5.5462584698 1.8097220296
-4.5740412003 5.1628767423 1.8484413513
-4.7291419205 4.7795054026 1.8847791665
-4.8841685806 4.3961461256 1.9187596722
-5.0391217867 4.0128005554 1.9504070882
-5.1940021516 3.6294703055 1.9797456568
-5.3488102946 3.2461569578 2.0067996414
-5.5035468407 2.8628620621 2.0315933251
-5.6582124202 2.4795871362 2.0541510104
-5.8128076689 2.0963336649 2.0744970176
-5.9673332269 1.7131031001 2.0926556836
-6.1217897384 1.3298968605 2.1086513612
-6.2761778516 0.9467163315 2.1225084178
-6.4304982180 0.5635628649 2.1342512342
-6.5847514918 0.1804377792 2.1439042037
-6.7389383301 -0.2026576411 2.1514917314
-6.8930593920 -0.5857221447 2.1570382321
-7.0471153383 -0.9687545140 2.1605681306
-7.2011068312 -1.3517535645 2.1621058594
-7.3550345342 -1.7347181452 2.1616758588
-7.5088991112 -2.1176471379 2.1593025751
-7.6627457659 -2.5002729988 2.1549977816
-7.8167927962 -2.8825279957 2.1487657426
-7.9710014831 -3.2646490769 2.1406459960
-8.1252636400 -3.6463791155 2.1306728069
-8.2799529722 -4.0275005491 2.1188352833
-8.4347712281 -4.4091754176 2.1052042749
-8.5902502019 -4.7896998670 2.0897394190
-8.7459288712 -5.1704742012 2.0725234654
-8.9018859497 -5.5515601061 2.0535690875
-2.3126083550 9.5700589211 1.3261034144
-2.4702981971 9.1899302400 1.3898874810
-2.6275821412 8.8099145047 1.4510857565
-2.7845787344 8.4300031034 1.5097096085
-2.9418417956 8.0499397382 1.5657572891
-3.0988202786 7.6700709681 1.6192624187
-3.2558183086 7.2902020358 1.6702450348
-3.4127016863 6.9104080213 1.7187343167
-3.5694061582 6.5307115292 1.7647600757
-3.7257233867 6.1499336396 1.8085734929
-3.8818619784 5.7677240490 1.8502118324
-4.0370777835 5.3842877738 1.8897424019
-4.1922187677 5.0008613114 1.9268668839
-4.3472855256 4.6174463656 1.9616094787
-4.5022786597 4.2340446099 1.9939944111
-4.6571987792 3.8506576860 2.0240459288
-4.8120464997 3.4672872036 2.0517883014
-4.9668224431 3.0839347402 2.0772458196
-5.1215272366 2.7006018403 2.1004427938
-5.2761615131 2.3172900151 2.1214035530
-5.4307259097 1.9340007422 2.1401524438
-5.5852210684 1.5507354654 2.1567138293
-5.7396476346 1.1674955946 2.1711120877
-5.8940062577 0.7842825053 2.1833716117
-6.0482975897 0.4010975389 2.1935168068
-6.2025222859 0.0179420026 2.2015720907
-6.3566810031 -0.3651828310 2.2075618920
-6.5107744010 -0.7482757233 2.2115106490
-6.6648031399 -1.1313354697 2.2134428092
-6.8187678817 -1.5143608999 2.2133828274
-6.9726692893 -1.8973508770 2.2113551653
-7.1265080258 -2.2803042977 2.2073842906
-7.2803905637 -2.6630500424 2.2014799955
-7.4345566647 -3.0455075475 2.1936447789
-7.5889749986 -3.4279187704 2.1839147934
-7.7436208956 -3.8100761124 2.1723165999
-7.8983662449 -4.1915144010 2.1588897116
-8.0532456627 -4.5735715085 2.1436632196
-8.2087451797 -4.9545060071 2.1266164434
-8.3644378044 -5.3357664119 2.1078149079
-8.5203931118 -5.7174272928 2.0872706265
-1.9291176465 9.4114908658 1.4175870560
-2.0864014487 9.0307805296 1.4799766923
-2.2444100785 8.6509067294 1.5394912509
-2.4019377769 8.2710131981 1.5964786825
-2.5596158076 7.8908929486 1.6509203433
-2.7169162053 7.5109439624 1.7028342135
-2.8741749533 7.1309823727 1.7522355885
-3.0312697416 6.7510972322 1.7991490367
-3.1880064573 6.3706090441 1.8437385671
-3.3436319056 5.9883011929 1.8863144290
-3.4988840757 5.6048064239 1.9266742555
-3.6540613273 5.2213210111 1.9646033316
-3.8091642520 4.8378466887 2.0001258644
-3.9641934487 4.4543851598 2.0332660859
-4.1191495235 4.0709380956 2.0640482523
-4.2740330889 3.6875071342 2.0924966424
-4.4288447640 3.3040938812 2.1186355569
-4.5835851735 2.9206999083 2.1424893173
-4.7382549471 2.5373267533 2.1640822640
-4.8928547202 2.1539759200 2.1834387564
-5.0473851317 1.7706488771 2.2005831705
-5.2018468252 1.3873470589 2.2155398983
-5.3562404479 1.0040718647 2.2283333470
-5.5105666497 0.6208246587 2.2389879374
-5.6648260839 0.2376067698 2.2475281026
-5.8190194059 -0.1455805079 2.2539782874
-5.9731472732 -0.5287359155 2.2583629469
-6.1272103449 -0.9118582291 2.2607065457
-6.2812092814 -1.2949462596 2.2610335563
-6.4351447439 -1.6779988523 2.2593684583
-6.5890173944 -2.0610148872 2.2557357377
-6.7428278949 -2.4439932782 2.2501598853
-6.8967231573 -2.8268442743 2.2426502342
-7.0509507241 -3.2094727028 2.2332096429
-7.2054793698 -3.5921202458 2.2218713756
-7.3603209522 -3.9746075308 2.2086591098
-7.5154228065 -4.3565230002 2.1936069256
-7.6707354854 -4.7392294303 2.1767388080
-7.8261318980 -5.1205808415 2.1581103787
-7.9816679667 -5.5022946495 2.1377266098
-8.1373781478 -5.8844227284 2.1156021775
-1.5449948298 9.2526061720 1.5037678223
-1.7030003860 8.8720362389 1.5644795878
-1.8605654190 8.4915442277 1.6226074180
-2.0177978099 8.1111785057 1.6781554502
-2.1752699073 7.7306824830 1.7311270202
-2.3324194784 7.3504271235 1.7815473104
-2.4895574560 6.9702163577 1.8294396344
-2.6463361412 6.5892821801 1.8749976821
-2.8018769642 6.2067110257 1.9184862532
-2.9570707293 5.8237435917 1.9596023281
-3.1122722529 5.4401903238 1.9983476840
-3.2673995242 5.0566479677 2.0346616265
-3.4224531402 4.6731182586 2.0685684014
-3.5774337046 4.2896028992 2.1000922789
-3.7323418282 3.9061035582 2.1292575532
-3.8871781279 3.5226218709 2.1560885413
-4.0419432265 3.1391594377 2.1806095813
-4.1966377518 2.7557178245 2.2028450319
-4.3512623370 2.3722985613 2.2228192709
-4.5058176195 1.9889031432 2.2405566935
-4.6603042410 1.6055330294 2.2560817119
-4.8147228465 1.2221896426 2.2694187537
-4.9690740845 0.8388743700 2.2805922609
-5.1233586064 0.4555885625 2.2896266885
-5.2775770658 0.0723335345 2.2965465035
-5.4317301183 -0.3108894353 2.3013761836
-5.5858184215 -0.6940791044 2.3041402163
-5.7398426341 -1.0772342661 2.3048630978
-5.8938034154 -1.4603537495 2.3035693314
-6.0477014259 -1.8434364190 2.3002834272
-6.2015373258 -2.2264811742 2.2950299004
-6.3553117754 -2.6094869495 2.2878332705
-6.5091698443 -2.9923582920 2.2787053262
-6.6633612375 -3.3750036546 2.2676523071
-6.8178546459 -3.7576657991 2.2547051324
-6.9726622501 -4.1401659256 2.2398891300
-7.1277320034 -4.5220938185 2.2232412599
-7.2830119757 -4.9048093846 2.2047736542
-7.4383786833 -5.2861724576 2.1845583961
-7.5938849737 -5.6678959262 2.1625868102
-7.7495653294 -6.0500313356 2.1388735388
-1.1613454095 9.0941172026 1.5843931941
-1.3189420217 8.7128389068 1.6437266497
-1.4762377941 8.3318076831 1.7004206520
-1.6332824418 7.9510151957 1.7544993423
-1.7906186425 7.5701699737 1.8059808500
-1.9476655570 7.1896234619 1.8548936180
-2.1039080565 6.8072770170 1.9016664292
-2.2597708510 6.4247059199 1.9459981328
-2.4152611608 6.0420891706 1.9878804773
-2.5704037240 5.6590728732 2.0273843009
-2.7255563381 5.2754636000 2.0645136799
-2.8806353908 4.8918668201 2.0992110383
-3.0356414835 4.5082842675 2.1315006607
-3.1905752244 4.1247176424 2.1614068565
-3.3454372278 3.7411686099 2.1889539585
-3.5002281141 3.3576387995 2.2141663222
-3.6549485086 2.9741298052 2.2370683238
-3.8095990421 2.5906431845 2.2576843594
-3.9641803496 2.2071804584 2.2760388438
-4.1186930703 1.8237431113 2.2921562092
-4.2731378470 1.4403325903 2.3060609039
-4.4275153257 1.0569503054 2.3177773908
-4.5818261554 0.6735976297 2.3273301468
-4.7360709874 0.2902758987 2.3347436612
-4.8902504753 -0.0930135892 2.3400424343
-5.0443652741 -0.4762695725 2.3432509770
-5.1984160401 -0.8594908268 2.3443938087
-5.3524034307 -1.2426761644 2.3434954568
-5.5063281039 -1.6258244343 2.3405804554
-5.6601907177 -2.0089345213 2.3356733441
-5.8139919301 -2.3920053462 2.3287986670
-5.9677323988 -2.7750358657 2.3199809720
-6.1215552690 -3.1579249728 2.3092345562
-6.2757122915 -3.5405848301 2.2965690149
-6.4301721276 -3.9232591975 2.2820129040
-6.5849472431 -4.3057699096 2.2655931938
-6.7399861570 -4.6877082196 2.2473497056
-6.8952347174 -5.0704307076 2.2272827418
-7.0505727205 -5.4518037044 2.2054807823
-7.2060502190 -5.8335350148 2.1819215496
-7.3617017155 -6.2156758444 2.1566196600
-0.7760727242 8.9335958752 1.6601736361
-0.9335534643 8.5518072548 1.7180407431
-1.0907645146 8.1703840552 1.7732383666
-1.2477430977 7.7892787187 1.8258011532
-1.4045803569 7.4067634980 1.8760363000
-1.5610946410 7.0250184214 1.9236134084
-1.7172894890 6.6426308155 1.9687874213
-1.8731035839 6.2600172947 2.0115152606
-2.0285448951 5.8773571968 2.0517901248
-2.1836379585 5.4942944450 2.0896803744
-2.3387434479 5.1106317185 2.1251923842
-2.4937760896 4.7269830895 2.1582718237
-2.6487364888 4.3433502892 2.1889430172
-2.8036252567 3.9597350131 2.2172303136
-2.9584430109 3.5761389204 2.2431580851
-3.1131903736 3.1925636334 2.2667507257
-3.2678679727 2.8090107372 2.2880326500
-3.4224764401 2.4254817795 2.3070282919
-3.5770164122 2.0419782700 2.3237621035
-3.7314885287 1.6585016802 2.3382585538
-3.8858934330 1.2750534440 2.3505421269
-4.0402317709 0.8916349562 2.3606373214
-4.1945041909 0.5082475740 2.3685686487
-4.3487113437 0.1248926159 2.3743606323
-4.5028538813 -0.2584286375 2.3780378059
-4.6569324576 -0.6417149437 2.3796247126
-4.8109477265 -1.0249650981 2.3791459036
-4.9649003436 -1.4081779336 2.3766259373
-5.1187909639 -1.7913523205 2.3720893776
-5.2726202428 -2.1744871659 2.3655607934
-5.4263888350 -2.5575814134 2.3570647573
-5.5800973946 -2.9406340429 2.3466258443
-5.7338870607 -3.3235383453 2.3342609097
-5.8880115127 -3.7062102742 2.3199828723
-6.0424394372 -4.0888945049 2.3038179106
-6.1971835480 -4.4714135679 2.2857946264
-6.3521928780 -4.8533603096 2.2659556791
-6.5074113138 -5.2360875315 2.2442895846
-6.6627216052 -5.6174687357 2.2209011263
-6.8181712900 -5.9992060930 2.1957544939
-6.9737948837 -6.3813504610 2.1688642848
-0.3896242483 8.7690650259 1.7313727822
-0.5470606602 8.3872396280 1.7876548686
-0.7042286518 8.0057798879 1.8412682959
-0.8611652973 7.6246382244 1.8922476896
-1.0179560173 7.2420845575 1.9408872746
-1.1744261024 6.8603020774 1.9868722751
-1.3305745489 6.4778754131 2.0304463848
-1.4863413616 6.0952216926 2.0715692171
-1.6417352300 5.7125205370 2.1102354486
-1.7967805380 5.3294137874 2.1465109139
-1.9518407300 4.9457002118 2.1804042802
-2.1068288089 4.5620023578 2.2118645860
-2.2617453826 4.1783219518 2.2409161961
-2.4165910647 3.7946606826 2.2675834992
-2.5713664745 3.4110202014 2.2918909070
-2.7260722358 3.0274021212 2.3138628525
-2.8807089776 2.6438080165 2.3335237887
-3.0352773323 2.2602394227 2.3508981876
-3.1897779365 1.8766978365 2.3660105385
-3.3442114297 1.4931847150 2.3788853468
-3.4985784545 1.1097014761 2.3895471330
-3.6528796561 0.7262494983 2.3980204305
-3.8071156813 0.3428301209 2.4043297856
-3.9612871791 -0.0405553563 2.4084997551
-4.1153947993 -0.4239056725 2.4105549058
-4.2694391932 -0.8072196059 2.4105198127
-4.4234210124 -1.1904959732 2.4084190583
-4.5773409088 -1.5737336295 2.4042772313
-4.7311995340 -1.9569314681 2.3981189250
-4.8849975398 -2.3400884197 2.3899687370
-5.0387355766 -2.7232034524 2.3798512672
-5.1924142943 -3.1062755707 2.3677911174
-5.3461727438 -3.4891925185 2.3538077460
-5.5002664170 -3.8718741183 2.3379173580
-5.6546640817 -4.2545658778 2.3201437437
-5.8093786618 -4.6370910837 2.3005171227
-5.9643596531 -5.0190442971 2.2790829647
-6.1195492398 -5.4017740963 2.2558180615
-6.2748328015 -5.7831618167 2.2308433811
-6.4302556388 -6.1649034549 2.2041096711
-6.5858522738 -6.5470495113 2.1756315171
-0.0030805484 8.6044191028 1.7971360143
-0.1604734152 8.2225587260 1.8518321135
-0.3175991552 7.8410641618 1.9038604324
-0.4744946879 7.4598878148 1.9532555687
-0.6312399618 7.0772977966 2.0002985549
-0.7876669204 6.6954798117 2.0446905157
-0.9437702499 6.3130162291 2.0866637080
-1.0994912344 5.9303245720 2.1261804890
-1.2548392516 5.5475846883 2.1632370410
-1.4098385856 5.1644364389 2.1978966270
-1.5648553448 4.7806746649 2.2301701970
-1.7198007439 4.3969302534 2.2600102779
-1.8746753928 4.0132049237 2.2874412752
-2.0294799067 3.6295003560 2.3124876176
-2.1842149053 3.2458181914 2.3351737566
-2.3388810135 2.8621600317 2.3555241641
-2.4934788597 2.4785274385 2.3735633320
-2.6480090765 2.0949219336 2.3893157698
-2.8024722994 1.7113449980 2.4028060041
-2.9568691669 1.3277980729 2.4140585768
-3.1112003200 0.9442825583 2.4230980440
-3.2654664016 0.5607998145 2.4299489742
-3.4196680566 0.1773511608 2.4346359476
-3.5738059310 -0.2060621232 2.4371835543
-3.7278806719 -0.5894387982 2.4376163934
-3.8818929268 -0.9727776646 2.4359590715
-4.0358433436 -1.3560775623 2.4322362017
-4.1897325703 -1.7393373702 2.4264724022
-4.3435612542 -2.1225560061 2.4186922950
-4.4973300420 -2.5057324257 2.4089205057
-4.6510395798 -2.8888656228 2.3971816606
-4.8046905117 -3.2719546283 2.3835003877
-4.9584197192 -3.6548816970 2.3678987890
-5.1124843919 -4.0375705947 2.3503963128
-5.2668534335 -4.4202675794 2.3310143544
-5.4215399421 -4.8027967519 2.3097847353
-5.5764938260 -5.1847545074 2.2867557023
-5.7316558233 -5.5674847638 2.2618924057
-5.8869136235 -5.9488773383 2.2353318516
-6.0423105646 -6.3306215237 2.2070114585
-6.1978811689 -6.7127674550 2.1769458078
0.3835515258 8.4396633986 1.8574835968
0.2262013905 8.0577698733 1.9105928101
0.0691170662 7.6762422316 1.9610351751
-0.0877382059 7.2950328730 2.0088452554
-0.2444391587 6.9124086322 2.0542906917
-0.4008240922 6.5305570716 2.0970887611
-0.5568836208 6.1480587435 2.1374601147
-0.7125602624 5.7653314463 2.1753699021
-0.8678640514 5.3825551979 2.2108158360
-1.0228192246 4.9993679826 2.2438585662
-1.1777944465 4.6155607005 2.2745113121
-1.3326990780 4.2317724355 2.3027302034
-1.4875337298 3.8480048973 2.3285396861
-1.6422990172 3.4642597558 2.3519642295
-1.7969955604 3.0805386399 2.3730283246
-1.9516239832 2.6968431380 2.3917564826
-2.1061849135 2.3131747971 2.4081732336
-2.2606789823 1.9295351226 2.4223031250
-2.4151068235 1.5459255789 2.4341707202
-2.5694690733 1.1623475886 2.4438005974
-2.7237663703 0.7788025325 2.4512173478
-2.8779993545 0.3952917504 2.4564455744
-3.0321686674 0.0118165404 2.4595098911
-3.1862749514 -0.3716218404 2.4604349206
-3.3403188495 -0.7550221756 2.4592452939
-3.4943010051 -1.1383832896 2.4559656482
-3.6482220613 -1.5217040469 2.4506206264
-3.8020826612 -1.9049833517 2.4432348758
-3.9558834468 -2.2882201477 2.4338330461
-4.1096250595 -2.6714134174 2.4224397897
-4.2633081394 -3.0545621813 2.4090797590
-4.4169333247 -3.4376654981 2.3937776069
-4.5706352458 -3.8206001951 2.3765581157
-4.7246726769 -4.2032940520 2.3574439283
-4.8790147128 -4.5859939940 2.3364540421
-5.0336745899 -4.9685249938 2.3136218622
-5.1886025797 -5.3504853961 2.2889983753
-5.3437382278 -5.7332140308 2.2625371898
-5.4989712175 -6.1146098302 2.2343911800
-5.6543431964 -6.4963548654 2.2044845687
-5.8098886792 -6.8784988981 2.1728319404
0.7702651085 8.2748032784 1.9124361178
0.6129568628 7.8928784625 1.9639576170
0.4559130922 7.5113195162 2.0128132521
0.2990972042 7.1300788434 2.0590375457
0.1424394187 6.7474225372 2.1028845690
-0.0139046166 6.3655393559 2.1440879780
-0.1699216871 5.9830084828 2.1828566676
-0.3255554980 5.6002478702 2.2191586236
-0.4808167080 5.2174376487 2.2529931109
-0.6357295596 4.8342140305 2.2844181299
-0.7906651653 4.4503639641 2.3134491515
-0.9455309644 4.0665345795 2.3400460169
-1.1003275673 3.6827275750 2.3642332132
-1.2550555889 3.2989446078 2.3860352500
-1.4097156480 2.9151872927 2.4054766580
-1.5643083673 2.5314572026 2.4225819872
-1.7188343725 2.1477558677 2.4373758059
-1.8732942924 1.7640847758 2.4498826990
-2.0276887580 1.3804453719 2.4601272665
-2.1820184026 0.9968390585 2.4681341221
-2.3362838611 0.6132671953 2.4739278919
-2.4904857698 0.2297310998 2.4775332129
-2.6446247659 -0.1537679527 2.4789747319
-2.7987014872 -0.5372287293 2.4782771036
-2.9527165719 -0.9206500384 2.4754649898
-3.1066706580 -1.3040307297 2.4705630579
-3.2605643833 -1.6873696939 2.4635959798
-3.4143983849 -2.0706658621 2.4545884306
-3.5681732990 -2.4539182052 2.4435650873
-3.7218897605 -2.8371257336 2.4305506279
-3.8755484027 -3.2202874964 2.4155697299
-4.0291498575 -3.6034025806 2.3986470699
-4.1828264231 -3.9863424509 2.3798101428
-4.3368383472 -4.3690389673 2.3590847331
-4.4911549705 -4.7517396401 2.3364874405
-4.6457896327 -5.1342703695 2.3120532322
-4.8006929203 -5.5162315623 2.2858357945
-4.9558034359 -5.8989565415 2.2577773120
-5.1110125466 -6.2803539730 2.2280463311
-5.2663604762 -6.6620982003 2.1965540341
-5.4218817255 -7.0442386046 2.1633150153
1.1570533342 8.1098441662 1.9620144925
0.9997861114 7.7278899410 2.0119475222
0.8427820094 7.3463014854 2.0592157225
0.6860046074 6.9650312169 2.1038535688
0.5293888107 6.5823450263 2.1461014066
0.3730845252 6.2004322008 2.1857094711
0.2171085474 5.8178710058 2.2228747688
0.0615160324 5.4350794251 2.2575681619
-0.0937042687 5.0522376441 2.2897904872
-0.2485766583 4.6689802094 2.3195970623
-0.4034745883 4.2850901089 2.3470055886
-0.5583035073 3.9012223619 2.3719797224
-0.7130640245 3.5173786533 2.3945439919
-0.8677567529 3.1335606250 2.4147229466
-1.0223823097 2.7497698760 2.4325411565
-1.1769413147 2.3660079616 2.4480232108
-1.3314343909 1.9822763934 2.4611937153
-1.4858621636 1.5985766391 2.4720772918
-1.6402252604 1.2149101230 2.4806985764
-1.7945243103 0.8312782253 2.4870822181
-1.9487599438 0.4476822831 2.4912528771
-2.1029327923 0.0641235896 2.4932352235
-2.2570434880 -0.3193966045 2.4930539364
-2.4110926631 -0.7028770919 2.4907337016
-2.5650809500 -1.0863167072 2.4862992112
-2.7190089807 -1.4697143273 2.4797751615
-2.8728773868 -1.8530688704 2.4711862527
-3.0266867984 -2.2363792958 2.4605571867
-3.1804378450 -2.6196446032 2.4479126665
-3.3341311544 -3.0028638321 2.4332773949
-3.4877673526 -3.3860360610 2.4166760734
-3.6413470639 -3.7691604071 2.3981334010
-3.7950001750 -4.1521030387 2.3776796136
-3.9489882975 -4.5347999594 2.3553435780
-4.1032810725 -4.9174991828 2.3311395014
-4.2578919090 -5.3000275902 2.3051038898
-4.4127716612 -5.6819877597 2.2772930836
-4.5678582339 -6.0647070997 2.2476379789
-4.7230443748 -6.4461046098 2.2163225760
-4.8783691452 -6.8278464143 2.1832451903
-5.0338670247 -7.2099815077 2.1484204325
1.5439093555 7.9447915305 2.0062399646
1.3866822667 7.5628097968 2.0545838442
1.2297169281 7.1811936453 2.1002639781
1.0729770956 6.7998955171 2.1433147880
0.9164020883 6.4171816419 2.1839627604
0.7601363862 6.0352411654 2.2219748821
0.6042001174 5.6526518888 2.2575361598
0.4486473464 5.2698317043 2.2906203666
0.2934662682 4.8869607937 2.3212299278
0.1386324663 4.5036721458 2.3494174509
-0.0162297421 4.1197447817 2.3752028419
-0.1710237443 3.7358414461 2.3985536701
-0.3257501474 3.3519638082 2.4194945041
-0.4804095621 2.9681134935 2.4380499337
-0.6350026018 2.5842920823 2.4542445681
-0.7895298834 2.2005011104 2.4681030342
-0.9439920258 1.8167420691 2.4796499756
-1.0983896500 1.4330164041 2.4889100504
-1.2527233790 1.0493255167 2.4959079301
-1.4069938367 0.6656707638 2.5006682981
-1.5612016481 0.2820534573 2.5032158482
-1.7153474391 -0.1015251350 2.5035752827
-1.8694318356 -0.4850637890 2.5017713120
-2.0234554638 -0.8685613243 2.4978286524
-2.1774189492 -1.2520166036 2.4917720250
-2.3313229169 -1.6354285319 2.4836261544
-2.4851679913 -2.0187960569 2.4734157676
-2.6389547952 -2.4021181671 2.4611655925
-2.7926839504 -2.7853938922 2.4469003569
-2.9463560766 -3.1686223020 2.4306447873
-3.0999717921 -3.5518025058 2.4124236079
-3.2535317124 -3.9349336518 2.3922615393
-3.4071632346 -4.3178766816 2.3701915817
-3.5611292270 -4.7005718007 2.3462456210
-3.7153996850 -5.0832674450 2.3204354805
-3.8699880535 -5.4657915294 2.2927991788
-4.0248454092 -5.8477489079 2.2633956619
-4.1799091988 -6.2304606781 2.2321446894
-4.3350732540 -6.6118567560 2.1992454746
-4.4903757295 -6.9935945692 2.1645836584
-4.6458510768 -7.3757227189 2.1281738749
1.9308263601 7.7796508706 2.0451341069
1.7736384976 7.3976435440 2.0918882324
1.6167110001 7.0160015244 2.1359797429
1.4600078050 6.6346772856 2.1774430000
1.3034723709 6.2519379390 2.2164905207
1.1472440714 5.8699718171 2.2529061891
0.9913461141 5.4873567112 2.2868629192
0.8358315230 5.1045102986 2.3183374249
0.6806879709 4.7216126988 2.3473337353
0.5258908733 4.3382954516 2.3739017232
0.3710624252 3.9543336072 2.3980634705
0.2163013713 3.5703974663 2.4197905509
0.0616071078 3.1864886809 2.4391075735
-0.0930209723 2.8026088569 2.4560391677
-0.2475834784 2.4187595548 2.4706099812
-0.4020810228 2.0349422889 2.4828446789
-0.5565142197 1.6511585275 2.4927679407
-0.7108836847 1.2674096932 2.5004044606
-0.8651900351 0.8836971625 2.5057789449
-1.0194338890 0.5000222665 2.5089161105
-1.1736158652 0.1163862907 2.5098406838
-1.3277365828 -0.2672095240 2.5085773986
-1.4817966609 -0.6507639818 2.5051509956
-1.6357967182 -1.0342759309 2.4995862204
-1.7897373731 -1.4177442631 2.4919078222
-1.9436192428 -1.8011679137 2.4821405527
-2.0974429437 -2.1845458602 2.4703091646
-2.2512090905 -2.5678771222 2.4564384107
-2.4049182965 -2.9511607604 2.4405530425
-2.5585711729 -3.3343958761 2.4226778087
-2.7121683290 -3.7175816104 2.4028374550
-2.8657103717 -4.1007171434 2.3810567223
-3.0193221304 -4.4836582619 2.3573713947
-3.1732676259 -4.8663494273 2.3318163097
-3.3275172609 -5.2490394179 2.3044009182
-3.4820844844 -5.6315572321 2.2751647242
-3.6369205514 -6.0135101018 2.2441692267
-3.7919626842 -6.3962124291 2.2113232161
-3.9471055111 -6.7776056090 2.1768408572
-4.1023865283 -7.1593379109 2.1405953268
-4.2578401522 -7.5414575372 2.1026012883
2.3177975874 7.6144277023 2.0787188200
2.1606480277 7.2323967089 2.1238826646
2.0037574351 6.8507306588 2.1663850704
1.8470899333 6.4693820682 2.2062603327
1.6905928432 6.0866194719 2.2437069099
1.5344007554 5.7046297175 2.2785257027
1.3785397026 5.3219910411 2.3108774588
1.2230617191 4.9391207819 2.3407418586
1.0679539911 4.5561989380 2.3681245466
0.9131917115 4.1728557094 2.3930726416
0.7583950607 3.7888621745 2.4156103683
0.6036649876 3.4048960149 2.4357133908
0.4490008926 3.0209588628 2.4534063582
0.2944021735 2.6370523032 2.4687139386
0.1398682259 2.2531778743 2.4816608180
-0.0146015572 1.8693370671 2.4922716980
-0.1690077839 1.4855313253 2.5005712948
-0.3233510638 1.1017620461 2.5065843372
-0.4776320076 0.7180305796 2.5103355652
-0.6318512266 0.3343382298 2.5118497286
-0.7860093322 -0.0493137460 2.5111515850
-0.9401069362 -0.4329241359 2.5082658992
-1.0941446499 -0.8164917733 2.5032174410
-1.2481230841 -1.2000155366 2.4960309839
-1.4020428487 -1.5834943483 2.4867313043
-1.5559045526 -1.9669271748 2.4753431796
-1.7097088034 -2.3503130252 2.4618913873
-1.8634562068 -2.7336509510 2.4464007035
-2.0171473670 -3.1169400452 2.4288959021
-2.1707828861 -3.5001794417 2.4094017532
-2.3243633639 -3.8833683141 2.3879430223
-2.4778893977 -4.2665058754 2.3645444692
-2.6314831734 -4.6494428311 2.3392446773
-2.7854097629 -5.0321279488 2.3120813641
-2.9396400283 -5.4148102699 2.2830616231
-3.0941873916 -5.7973199248 2.2522264143
-3.2490032441 -6.1792666206 2.2196397345
-3.4040248104 -6.5619576919 2.1851995867
-3.5591472369 -6.9433465558 2.1491348060
-3.7144076027 -7.3250718779 2.1113063317
-3.8698402819 -7.7071814563 2.0717288634
2.7048163455 7.4491275436 2.1070163297
2.5477041524 7.0670748159 2.1505894453
2.3908495178 6.6853865784 2.1915023415
2.2342167559 6.3040154000 2.2297892411
2.0777567721 5.9212317792 2.2656344790
1.9215996981 5.5392204081 2.2988560623
1.7657741380 5.1565604214 2.3296025196
1.6103311876 4.7736686969 2.3578565183
1.4552575811 4.3907250524 2.3836253272
1.3005282355 4.0073584587 2.4069532966
1.1457614234 3.6233360226 2.4278667575
0.9910603703 3.2393426269 2.4463455433
0.8364244820 2.8553798820 2.4624143425
0.6818531619 2.4714493499 2.4760978616
0.5273458114 2.0875525447 2.4874208237
0.3729018302 1.7036909319 2.4964079669
0.2185206169 1.3198659292 2.5030840421
0.0642015688 0.9360789064 2.5074738123
-0.0900559172 0.5523311858 2.5096020505
-0.2442524446 0.1686240419 2.5094935379
-0.3983886169 -0.2150412971 2.5071730628
-0.5524650375 -0.5986636496 2.5026654193
-0.7064823092 -0.9822418803 2.4959954050
-0.8604410340 -1.3657748988 2.4871878208
-1.0143418126 -1.7492616596 2.4762674685
-1.1681852449 -2.1327011615 2.4632591502
-1.3219719289 -2.5160924461 2.4481876666
-1.4757024608 -2.8994345981 2.4310778162
-1.6293774352 -3.2827267438 2.4119543937
-1.7829974440 -3.6659680505 2.3908421890
-1.9365630773 -4.0491577254 2.3677659864
-2.0900749221 -4.4322950150 2.3427505633
-2.2436524463 -4.8152256193 2.3158373130
-2.3975616746 -5.1979026570 2.2870667578
-2.5517739795 -5.5805753557 2.2564436528
-2.7063027263 -5.9630750232 2.2240103822
-2.8610994019 -6.3450139351 2.1898333822
-3.0161014538 -6.7276920006 2.1538000648
-3.1712042770 -7.1090751803 2.1161536357
-3.3264447668 -7.4907921074 2.0767430387
-3.4818572476 -7.8728901711 2.0355830153
3.0918760267 7.2837559008 2.1300491825
2.9348002550 6.9016833732 2.1720312000
2.7779806241 6.5199747932 2.2113542587
2.6213816424 6.1385827922 2.2480525030
2.4649575222 5.7557803700 2.2822961008
2.3088342617 5.3737493959 2.3139202297
2.1530427819 4.9910703551 2.3430611647
1.9976332917 4.6081595412 2.3697045761
1.8425921091 4.2251965331 2.3938593643
1.6878938214 3.8418091816 2.4155670991
1.5331548998 3.4577606267 2.4348561793
1.3784809186 3.0737427672 2.4517106798
1.2238712901 2.6897571897 2.4661553277
1.0693254240 2.3058054315 2.4782148668
0.9148427290 1.9218889801 2.4879140569
0.7604226120 1.5380092743 2.4952776712
0.6060644793 1.1541677037 2.5003304949
0.4517677361 0.7703656092 2.5030973239
0.2975317878 0.3866042832 2.5036029628
0.1433560393 0.0028849701 2.5018722236
-0.0107601041 -0.3807911332 2.4979299236
-0.1648172366 -0.7644228769 2.4918008851
-0.3188159517 -1.1480091578 2.4835099328
-0.4727568417 -1.5315489184 2.4730818929
-0.6266404980 -1.9150411463 2.4605415918
-0.7804675101 -2.2984848735 2.4459138547
-0.9342384662 -2.6818791759 2.4292235044
-1.0879539524 -3.0652231719 2.4104953599
-1.2416145524 -3.4485160219 2.3897542357
-1.3952208483 -3.8317569276 2.3670249402
-1.5487734190 -4.2149451305 2.3423322748
-1.7022728414 -4.5980799118 2.3157010329
-1.8558357929 -4.9810020422 2.2871754249
-2.0097291552 -5.3636690336 2.2567986992
-2.1639248616 -5.7463302223 2.2245732942
-2.3184361917 -6.1288181382 2.1905429854
-2.4732146900 -6.5107477145 2.1547765874
-2.6281982386 -6.8934110899 2.1171511299
-2.7832822231 -7.2747872691 2.0779238726
-2.9385035789 -7.6564944414 2.0369320209
-3.0938965739 -8.0385795831 1.9941903639
3.4789701239 7.1183182548 2.1478402413
3.3219298221 6.7362278591 2.1882308708
3.1651442359 6.3545007787 2.2259638408
3.0085780721 5.9730897176 2.2610732118
2.8521885720 5.5902707103 2.2937149641
2.6960979255 5.2082221404 2.3237414818
2.5403391172 4.8255262928 2.3512767719
2.3849615215 4.4425987542 2.3763095183
2.2299510749 4.0596188063 2.3988502570
2.0752819825 3.6762132903 2.4189377714
1.9205690187 3.2921413853 2.4366024850
1.7659201795 2.9081018176 2.4518327797
1.6113348841 2.5240961477 2.4646534204
1.4568125502 2.1401258860 2.4750891877
1.3023525939 1.7561924923 2.4831648768
1.1479544308 1.3722973766 2.4889052949
0.9936174753 0.9884418987 2.4923352607
0.8393411418 0.6046273690 2.4934796015
0.6851248446 0.2208550486 2.4923631526
0.5309679980 -0.1628738501 2.4890107551
0.3768700169 -0.5465581625 2.4834472547
0.2228303171 -0.9301967721 2.4756975002
0.0688483150 -1.3137886091 2.4657863419
-0.0850765716 -1.6973326497 2.4537386302
-0.2389449235 -2.0808279161 2.4395792147
-0.3927573197 -2.4642734748 2.4233329421
-0.5465143377 -2.8476684361 2.4050246559
-0.7002165529 -3.2310119536 2.3846791944
-0.8538645381 -3.6143032226 2.3623213903
-1.0074588642 -3.9975414798 2.3379760687
-1.1610000993 -4.3807260019 2.3116680468
-1.3144888090 -4.7638561047 2.2834221331
-1.4680388100 -5.1467677092 2.2532853570
-1.6219177490 -5.5294227560 2.2213036120
-1.7760981686 -5.9120706159 2.1874770445
-1.9305932359 -6.2945450825 2.1518507870
-2.0853545159 -6.6764638313 2.1144959684
-2.2403205297 -7.0591109007 2.0752794576
-2.3953864059 -7.4404788164 2.0344722362
-2.5505893353 -7.8221749311 1.9919000406
-2.7059635226 -8.2042458044 1.9475777135
3.8660922448 6.9528200474 2.1604126771
3.7090864583 6.5707137087 2.1992117078
3.5523339568 6.1889699631 2.2353544148
3.3957996489 5.8075415975 2.2688747693
3.2394435284 5.4247082097 2.2999145652
3.0833843009 5.0426440402 2.3283434024
2.9276567634 4.6599336186 2.3542730245
2.7723095075 4.2769917034 2.3776951353
2.6173281236 3.8939972217 2.3986219075
2.4626863826 3.5105761139 2.4170893364
2.3079974653 3.1264836079 2.4331298241
2.1533718616 2.7424250641 2.4467361185
1.9988089989 2.3584020155 2.4579330214
1.8443083031 1.9744159439 2.4667453489
1.6898691992 1.5904682795 2.4731979306
1.5354911118 1.2065604015 2.4773156069
1.3811734648 0.8226936385 2.4791232280
1.2269156822 0.4388692688 2.4786456520
1.0727171881 0.0550885210 2.4759077435
0.9185774071 -0.3286474257 2.4709343715
0.7644957643 -0.7123374412 2.4637504084
0.6104716860 -1.0959804427 2.4543807283
0.4565045993 -1.4795753952 2.4428502056
0.3025939330 -1.8631213101 2.4291837137
0.1487391172 -2.2466172446 2.4134061235
-0.0050604160 -2.6300623006 2.3955423021
-0.1588052329 -3.0134556244 2.3756171120
-0.3124958972 -3.3967964048 2.3536554095
-0.4661329708 -3.7800838733 2.3296820435
-0.6197170129 -4.1633173020 2.3037218549
-0.7732485802 -4.5464960033 2.2757996752
-0.9267282267 -4.9296193285 2.2459403257
-1.0802668397 -5.3125184280 2.2141936546
-1.2341327430 -5.6951597033 2.1806081156
-1.3882991351 -6.0777924865 2.1451815912
-1.5427790450 -6.4602518750 2.1079605348
-1.6975240236 -6.8421583665 2.0690183243
-1.8524734270 -7.2247875832 2.0282118994
-2.0075218901 -7.6061460275 1.9858256175
-2.1627070652 -7.9878298404 1.9416740279
-2.3180630867 -8.3698851611 1.8957720320
4.2532361263 6.7872666681 2.1677899625
4.0962639011 6.4051463001 2.2049972621
3.9395435262 6.0233877141 2.2395496079
3.7830401149 5.6419437889 2.2714808763
3.6267161404 5.2590982086 2.3009186984
3.4706871455 4.8770204199 2.3277498724
3.3149894900 4.4942976378 2.3520739015
3.1596710350 4.1113436729 2.3738855113
3.0047170601 3.7283370391 2.3931985100
2.8501008502 3.3449028861 2.4100461065
2.6954340946 2.9607925019 2.4244626332
2.5408298488 2.5767176852 2.4364452558
2.3862875489 2.1926799396 2.4460188120
2.2318066302 1.8086807163 2.4532081524
2.0773865276 1.4247214141 2.4580381395
1.9230266750 1.0408033805 2.4605336456
1.7687265070 0.6569279110 2.4607195516
1.6144854578 0.2730962504 2.4586207448
1.4603029620 -0.1106904067 2.4542621174
1.3061784552 -0.4944309160 2.4476685652
1.1521113734 -0.8781241821 2.4388649857
0.9981011541 -1.2617691577 2.4278762770
0.8441472357 -1.6453648437 2.4147273362
0.6902490585 -2.0289102872 2.3994430578
0.5364060641 -2.4124045818 2.3820483327
0.3826176962 -2.7958468659 2.3625680471
0.2288834004 -3.1792363217 2.3410270806
0.0752026247 -3.5625721746 2.3174503060
-0.0784251811 -3.9458536924 2.2918625873
-0.2320005641 -4.3290801834 2.2642887792
-0.3855240692 -4.7122509963 2.2347537259
-0.5389962386 -5.0953655182 2.2032822602
-0.6925249642 -5.4782502095 2.1699270444
-0.8463791615 -5.8608759601 2.1347390050
-1.0005327308 -6.2434919923 2.0977137917
-1.1549985388 -6.6259347441 2.0588991420
-1.3097280895 -7.0078276118 2.0183706147
-1.4646617608 -7.3904375008 1.9759754626
-1.6196934699 -7.7717853217 1.9320110594
-1.7748615262 -8.1534556478 1.8862810610
-1.9301999871 -8.5354941954 1.8388004320
4.6403956487 6.6216634414 2.1699958617
4.4834560337 6.2395309431 2.2056113757
4.3267668318 5.8577593262 2.2385733374
4.1702933644 5.4763015720 2.2689155231
4.0140003130 5.0934459653 2.2967514458
3.8580003757 4.7113565183 2.3219850585
3.7023312296 4.3286235654 2.3447036662
3.5470400567 3.9456598502 2.3649050123
3.3921118606 3.5626434176 2.3826045375
3.2375193900 3.1791987344 2.3978326704
3.0828729431 2.7950731628 2.4106256221
2.9282882110 2.4109847413 2.4209850215
2.7737646400 2.0269349420 2.4289357406
2.6193016754 1.6429251842 2.4345026633
2.4648987624 1.2589568341 2.4377106838
2.3105553458 0.8750312049 2.4385847051
2.1562708710 0.4911495584 2.4371496370
2.0020447831 0.1073131044 2.4334303948
1.8478765283 -0.2764769982 2.4274518971
1.6937655534 -0.6602196405 2.4192390646
1.5397113063 -1.0439137633 2.4088168188
1.3857132360 -1.4275583560 2.3962100800
1.2317707929 -1.8111524559 2.3814437662
1.0778834293 -2.1946951473 2.3645427920
0.9240505987 -2.5781855606 2.3455320666
0.7702717571 -2.9616228711 2.3244364934
0.6165463621 -3.3450062982 2.3012809678
0.4628738740 -3.7283351044 2.2760903775
0.3092537549 -4.1116085940 2.2488895998
0.1556854698 -4.4948261123 2.2197035017
0.0021684860 -4.8779870444 2.1885569389
-0.1512977264 -5.2610908136 2.1554747539
-0.3048180003 -5.6439592717 2.1205124144
-0.4586617617 -6.0265678203 2.0837232309
-0.6128036569 -6.4091655018 2.0451006540
-0.7672563666 -6.7915901306 2.0046936667
-0.9219713183 -7.1734680728 1.9625799396
-1.0768900891 -7.5560572314 1.9185972896
-1.2319056663 -7.9373933339 1.8730557367
-1.3870572022 -8.3190490487 1.8257483454
-1.5423786703 -8.7010696665 1.7766901489
5.0275648473 6.4560156146 2.1670544207
4.8706568978 6.0738728656 2.2010781711
4.7139979234 5.6920900087 2.2324497995
4.5575534560 5.3106201379 2.2612029776
4.4012901187 4.9277566452 2.2874371655
4.2453180790 4.5456574768 2.3110734023
4.0896760895 4.1629165138 2.3321868538
3.9344107040 3.7799453166 2.3507782744
3.7795066845 3.3969214043 2.3668647303
3.6249361951 3.0134686685 2.3804738804
3.4703082396 2.6293305627 2.3916437608
3.3157412156 2.2452311637 2.4003805014
3.1612345797 1.8611719110 2.4067090073
3.0067877884 1.4771541899 2.4106541943
2.8524002979 1.0931793322 2.4122409871
2.6980715645 0.7092486164 2.4114943179
2.5438010447 0.3253632684 2.4084391238
2.3895881959 -0.0584755380 2.4031003467
2.2354324761 -0.4422666804 2.3955029299
2.0813333439 -0.8260090869 2.3856718178
1.9272902595 -1.2097017354 2.3736319538
1.7733026843 -1.5933436528 2.3594082792
1.6193700811 -1.9769339138 2.3430257315
1.4654919143 -2.3604716405 2.3245092433
1.3116676504 -2.7439560009 2.3038837407
1.1578967576 -3.1273862080 2.2811741426
1.0041787061 -3.5107615187 2.2564053590
0.8505129687 -3.8940812330 2.2296022903
0.6968990203 -4.2773446926 2.2007898260
0.5433363380 -4.6605512797 2.1699928438
0.3898244020 -5.0437004163 2.1372362087
0.2363626946 -5.4267915622 2.1025447723
0.0828495033 -5.8096420424 2.0659767945
-0.0709850311 -6.1922317887 2.0275878804
-0.2251163429 -6.5748095963 1.9873693162
-0.3795569057 -6.9572146890 1.9453712922
-0.5342580415 -7.3390764695 1.9016735199
-0.6891626957 -7.7216435685 1.8561046392
-0.8441627256 -8.1029669152 1.8089869360
-0.9992983017 -8.4846069549 1.7601031953
-1.1546033068 -8.8666085509 1.7094685228
5.4147379248 6.2903283461 2.1589899555
5.2578607053 5.9081772028 2.1914220394
5.1012310233 5.5263848746 2.2212034580
4.9448146236 5.1449045781 2.2483677737
4.7885798093 4.7620353092 2.2730004794
4.6326345254 4.3799283280 2.2950396064
4.4770183629 3.9971814826 2.3145482587
4.3217772983 3.6142050350 2.3315301890
4.1668958855 3.2311759238 2.3460040811
4.0123456560 2.8477175709 2.3579948376
3.8577344159 2.4635695410 2.3675422639
3.7031833369 2.0794617460 2.3746570220
3.5486918872 1.6953955912 2.3793640489
3.3942595348 1.3113724267 2.3816882905
3.2398857476 0.9273935485 2.3816547007
3.0855699943 0.5434601987 2.3792882390
2.9313117435 0.1595735663 2.3746138692
2.7771104647 -0.2242652119 2.3676565572
2.6229656286 -0.6080550514 2.3584412700
2.4688767062 -0.9917949180 2.3469929738
2.3148431707 -1.3754838278 2.3333366327
2.1608644959 -1.7591208458 2.3174972069
2.0069401575 -2.1427050852 2.2994996519
1.8530696331 -2.5262357063 2.2793689167
1.6992524016 -2.9097119153 2.2571299427
1.5454879442 -3.2931329635 2.2328076628
1.3917757443 -3.6764981459 2.2064269996
1.2381152872 -4.0598068004 2.1780128649
1.0845060606 -4.4430583060 2.1475901586
0.9309475546 -4.8262520825 2.1151837676
0.7774392619 -5.2093875886 2.0808185649
0.6239806774 -5.5924643210 2.0445194088
0.4704732678 -5.9752951604 2.0063473372
0.3166468144 -6.3578645827 1.9663601563
0.1625250542 -6.7404210708 1.9245470274
0.0080957407 -7.1228052885 1.8809593076
-0.1465923163 -7.5046497372 1.8356786772
-0.3018819808 -7.8857960649 1.7887985306
-0.4564686188 -8.2685031324 1.7398320370
-0.6115887577 -8.6501264945 1.6893730133
-0.7668777919 -9.0321080414 1.6371629783
5.8019092619 6.1246066940 2.1458270408
5.6450618489 5.7424489864 2.1766676285
5.4884605375 5.3606489296 2.2048590316
5.3320712876 4.9791598728 2.2304346984
5.1758638257 4.5962869030 2.2534662596
5.0199441771 4.2141739861 2.2739086216
4.8643525390 3.8314233488 2.2918129202
4.7091343602 3.4484438418 2.3071858897
4.5542740200 3.0654117690 2.3200478205
4.3997423711 2.6819501877 2.3304208773
4.2451461149 2.2977947954 2.3383465761
4.0906092647 1.9136811351 2.3438401355
3.9361313005 1.5296105761 2.3469265226
3.7817117028 1.1455844322 2.3476307124
3.6273499521 0.7616039621 2.3459776861
3.4730455294 0.3776703705 2.3419924294
3.3187979163 -0.0062151916 2.3356999301
3.1646065952 -0.3900516259 2.3271251777
3.0104710494 -0.7738378862 2.3162931606
2.8563907636 -1.1575729773 2.3032288654
2.7023652236 -1.5412559540 2.2879572748
2.5483939167 -1.9248859204 2.2705033668
2.3944763316 -2.3084620286 2.2508921129
2.2406119590 -2.6919834777 2.2291484771
2.0868002913 -3.0754495129 2.2052974142
1.9330408228 -3.4588594239 2.1793638692
1.7793330497 -3.8422125443 2.1513727761
1.6256764708 -4.2255082498 2.1213490564
1.4720705866 -4.6087459575 2.0893176188
1.3185149003 -4.9919251247 2.0553033577
1.1650089172 -5.3750452470 2.0193311524
1.0115521452 -5.7581058579 1.9814258670
0.8580492858 -6.1409154764 1.9416512974
0.7042298309 -6.5234631324 1.9000673592
0.5501166499 -6.9059969334 1.8566611282
0.3952358416 -7.2875542436 1.8116695267
0.2405792737 -7.6691293255 1.7648514499
0.0857513157 -8.0513187756 1.7161713174
-0.0688270426 -8.4339992676 1.6656184921
-0.2239322287 -8.8156050105 1.6135852718
-0.3792057460 -9.1975655460 1.5598010062
6.1890734275 5.9588556066 2.1275904963
6.0322549118 5.5766931338 2.1568398298
5.8756810648 5.1948870621 2.1834414801
5.7193180637 4.8133908823 2.2074287776
5.5631368076 4.4305162482 2.2288596151
5.4072416979 4.0483992373 2.2477056325
5.2516733114 3.6656468571 2.2640061081
5.0964766184 3.2826664367 2.2777707367
4.9416358562 2.8996335924 2.2890214026
4.7871211537 2.5161711198 2.2977775531
4.6325381987 2.1320108738 2.3040823556
4.4780139113 1.7478938233 2.3079556025
4.3235477843 1.3638213002 2.3094222897
4.1691393109 0.9797945806 2.3085074196
4.0147879849 0.5958148851 2.3052359989
3.8604933002 0.2118833793 2.2996330376
3.7062547517 -0.1719988244 2.2917235466
3.5520718354 -0.5558306672 2.2815325367
3.3979440479 -0.9396111422 2.2690850163
3.2438708873 -1.3233392937 2.2544059904
3.0898518530 -1.7070142162 2.2375204591
2.9358864456 -2.0906350533 2.2184534162
2.7819741677 -2.4742009966 2.1972298475
2.6281145232 -2.8577112847 2.1738747301
2.4743070181 -3.2411652017 2.1484130310
2.3205511601 -3.6245620765 2.1208697056
2.1668464586 -4.0079012811 2.0912696973
2.0131924258 -4.3911822298 2.0596379360
1.8595885753 -4.7744043775 2.0259993372
1.7060344234 -5.1575672189 1.9903788014
1.5525294884 -5.5406702868 1.9528012132
1.3990732910 -5.9237131514 1.9132914400
1.2450801423 -6.3060319166 1.8720482021
1.0912766586 -6.6884859370 1.8288824380
0.9371834050 -7.0708928454 1.7839037072
0.7825077094 -7.4520634243 1.7373777459
0.6281448319 -7.8346337438 1.6887722567
0.4728796821 -8.2156686212 1.6387714805
0.3179032161 -8.5967006836 1.5869901488
0.1627771594 -8.9779701880 1.5334602466
0.0074570200 -9.3594859725 1.4782063699
6.5762251868 5.7930799117 2.1043053734
6.4194346764 5.4109144395 2.1319637636
6.2628874059 5.0291040337 2.1569759904
6.1065497717 4.6476023370 2.1793752622
5.9503936014 4.2647280329 2.1992058759
5.7945219606 3.8826087307 2.2164560426
5.6389755862 3.4998566116 2.2311533075
5.4837990172 3.1168773750 2.2433103019
5.3289763807 2.7338458981 2.2529504880
5.1744770394 2.3503848158 2.2600906214
5.0199057552 1.9662221672 2.2647754585
4.8653924184 1.5821041417 2.2670293767
4.7109365355 1.1980320326 2.2668773989
4.5565376129 0.8140070770 2.2643445531
4.4021951579 0.4300304560 2.2594558704
4.2479086781 0.0461032958 2.2522363830
4.0936776824 -0.3377733312 2.2427111233
3.9395016801 -0.7215984064 2.2309051216
3.7853801819 -1.1053709631 2.2168434046
3.6313126998 -1.4890900856 2.2005509941
3.4772987467 -1.8727549087 2.1820529057
3.3233378374 -2.2563646160 2.1613741471
3.1694294880 -2.6399184391 2.1385397172
3.0155732162 -3.0234156563 2.1135746043
2.8617685416 -3.4068555911 2.0865037856
2.7080149855 -3.7902376116 2.0573522256
2.5543120711 -4.1735611286 2.0261448755
2.4006593234 -4.5568255949 1.9929066717
2.2470562699 -4.9400305032 1.9576625354
2.0935024394 -5.3231753859 1.9204373713
1.9394978513 -5.7058319354 1.8813843332
1.7860417682 -6.0888567587 1.8402747658
1.6325550708 -6.4715833177 1.7973079713
1.4784140349 -6.8533425407 1.7527072398
1.3243555625 -7.2355918494 1.7061624291
1.1692010486 -7.6160316398 1.6582558238
1.0140656792 -7.9965546378 1.6085430673
0.8587389289 -8.3772979078 1.5570490323
0.7036503959 -8.7579718261 1.5037938746
0.5483423594 -9.1387828638 1.4488218738
0.3927196052 -9.5196905278 1.3921754456
6.9633595097 5.6272843083 2.0759969411
6.8065961318 5.2451175657 2.1020647654
6.6500745706 4.8633044712 2.1254879618
6.4937614425 4.4817988291 2.1462996132
6.3376292673 4.0989268035 2.1645305795
6.1817800548 3.7168069711 2.1801854586
6.0262544885 3.3340570685 2.1932802034
5.8710967225 2.9510810606 2.2038303526
5.7162908054 2.5680530349 2.2118609291
5.5618052917 2.1845955651 2.2173860246
5.4072441031 1.8004329037 2.2204519217
5.2527401618 1.4163162546 2.2210875869
5.0982929880 1.0322468717 2.2193180688
4.9439021023 0.6482259518 2.2151684191
4.7895670256 0.2642546359 2.2086636912
4.6352872800 -0.1196659902 2.1998289384
4.4810623881 -0.5035348954 2.1886892123
4.3268918736 -0.8873511014 2.1752695612
4.1727752614 -1.2711136823 2.1595950283
4.0187120772 -1.6548217634 2.1416906506
3.8647018484 -2.0384745201 2.1215814572
3.7107441037 -2.4220711765 2.0992924684
3.5568383731 -2.8056110043 2.0748486939
3.4029841883 -3.1890933218 2.0482751321
3.2491810826 -3.5725174924 2.0195967684
3.0954285911 -3.9558829231 1.9888385748
2.9417262505 -4.3391890638 1.9560255086
2.7875773542 -4.7220087707 1.9213083707
2.6339746271 -5.1051960576 1.8844634112
2.4804206946 -5.4883226823 1.8456383159
2.3269151003 -5.8713882500 1.8048579743
2.1730819420 -6.2538681713 1.7622859333
2.0196127173 -6.6365209538 1.7177314316
1.8647639678 -7.0171647908 1.6718413369
1.7096344362 -7.3972890908 1.6242460218
1.5543887716 -7.7775156092 1.5748381841
1.3991154738 -8.1577774097 1.5236408334
1.2435805182 -8.5381965384 1.4706863659
1.0881522218 -8.9184787638 1.4160029193
0.9333863666 -9.2992997638 1.3594071808
0.7784654692 -9.6803518407 1.3010904601
7.3504715774 5.4614733584 2.0426906708
7.1937344807 5.0793070343 2.0671683707
7.0372377837 4.6974928583 2.0890029911
6.8809483243 4.3159848058 2.1082274861
6.7248390856 3.9331169581 2.1248594539
6.5690112919 3.5509983115 2.1389196752
6.4135053677 3.1682525291 2.1504126646
6.2583651277 2.7852817393 2.1593568357
6.1035745716 2.4022591905 2.1657787528
5.9491014066 2.0188074921 2.1696898750
5.7945487966 1.6346471420 2.1711379465
5.6400527551 1.2505341536 2.1701565212
