-1.7949789986 6.1434246544 1.2239222786
-1.9511763283 5.7654820334 1.2634386469
-2.1072316675 5.3873863247 1.3005462080
-2.2632654934 5.0090719391 1.3352628370
-2.4192496344 4.6307437511 1.3675861736
-2.5751845451 4.2524025223 1.3975400761
-2.7310706820 3.8740490017 1.4251484106
-2.8869085038 3.4956839267 1.4504350513
-3.0426984707 3.1173080222 1.4734238797
-3.1984410449 2.7389220006 1.4941387838
-3.3541366899 2.3605265620 1.5126036584
-3.5097858705 1.9821223938 1.5288424042
-3.6653890528 1.6037101706 1.5428789276
-3.8209467043 1.2252905546 1.5547371399
-3.9764592929 0.8468641948 1.5644409574
-4.1319272876 0.4684317278 1.5720143005
-4.2873511583 0.0899937772 1.5774810939
-4.4427313749 -0.2884490460 1.5808652654
-4.5980684085 -0.6668961434 1.5821907461
-4.7533627296 -1.0453469294 1.5814814697
-4.9086148097 -1.4238008309 1.5787613725
-5.0638251201 -1.8022572871 1.5740543924
-5.2189941318 -2.1807157495 1.5673844689
-5.3741223161 -2.5591756819 1.5587755432
-5.5292101439 -2.9376365601 1.5482515568
-5.6843049142 -3.3160626302 1.5358338783
-5.8394914396 -3.6944256928 1.5215425639
-5.9947595354 -4.0728071218 1.5054020897
-6.1501136922 -4.4511475770 1.4874377399
-6.3055371737 -4.8293111561 1.4676794842
-6.4610115284 -5.2077486088 1.4461392445
-6.6164979258 -5.5857509185 1.4228676987
-6.7720124645 -5.9638852911 1.3978686601
-6.9275669026 -6.3421684952 1.3711627446
-0.3194790952 8.6286571425 0.9469205633
-0.4765133971 8.2511179832 1.0024835615
-0.6334305477 7.8736805513 1.0554328209
-0.7902431581 7.4963291704 1.1057956334
-0.9469799543 7.1184873313 1.1536858238
-1.1035829530 6.7408829483 1.1990142170
-1.2600520723 6.3630444150 1.2418777942
-1.4163675667 5.9851109585 1.2822788432
-1.5725325854 5.6071426365 1.3202313397
-1.7285555093 5.2290202468 1.3557729785
-1.8845577395 4.8506768963 1.3889223987
-2.0405105295 4.4723202849 1.4196783632
-2.1964143349 4.0939511724 1.4480647436
-2.3522696131 3.7155703057 1.4741054194
-2.5080768235 3.3371784195 1.4978242780
-2.6638364265 2.9587762354 1.5192452138
-2.8195488849 2.5803644626 1.5383921275
-2.9752146622 2.2019437969 1.5552889270
-3.1308342235 1.8235149213 1.5699595249
-3.2864080347 1.4450785059 1.5824278400
-3.4419365629 1.0666352072 1.5927177958
-3.5974202760 0.6881856689 1.6008533200
-3.7528596425 0.3097305218 1.6068583448
-3.9082551314 -0.0687296170 1.6107568059
-4.0636072122 -0.4471941429 1.6125726422
-4.2189163548 -0.8256624645 1.6123297954
-4.3741830293 -1.2041340033 1.6100522096
-4.5294077058 -1.5826081935 1.6057638312
-4.6845908544 -1.9610844819 1.5994886079
-4.8397329451 -2.3395623282 1.5912504890
-4.9948344475 -2.7180412041 1.5810734244
-5.1498958312 -3.0965205936 1.5689813649
-5.3049636993 -3.4749628940 1.5549965465
-5.4601234684 -3.8533411953 1.5391401209
-5.6153649809 -4.2317371491 1.5214357684
-5.7706927973 -4.6100916670 1.5019093120
-5.9260903359 -4.9882694184 1.4805916584
-6.0815385776 -5.3667197453 1.4574908216
-6.2369995683 -5.7447362421 1.4326628742
-6.3924886611 -6.1228840568 1.4061071488
-6.5480176162 -6.5011798387 1.3778442574
0.0590000654 8.4704366247 1.0108824338
-0.0980032248 8.0928737908 1.0648891087
-0.2548897948 7.7154127357 1.1162823377
-0.4116722041 7.3380377785 1.1650894034
-0.5683773550 6.9601718072 1.2114197332
-0.7249494814 6.5825435741 1.2551894523
-0.8813870649 6.2046807197 1.2964917295
-1.0376707865 5.8267226026 1.3353297672
-1.1938040248 5.4487293561 1.3717180429
-1.3497951274 5.0705811180 1.4056933944
-1.5057663832 4.6922096863 1.4372752215
-1.6616884498 4.3138255406 1.4664634501
-1.8175617836 3.9354294384 1.4932819653
-1.9733868424 3.5570221238 1.5177546600
-2.1291640856 3.1786043280 1.5399054347
-2.2848939742 2.8001767690 1.5597581968
-2.4405769707 2.4217401515 1.5773368603
-2.5962135386 2.0432951671 1.5926653451
-2.7518041427 1.6648424933 1.6057675766
-2.9073492486 1.2863827949 1.6166674856
-3.0628493230 0.9079167225 1.6253890074
-3.2183048326 0.5294449138 1.6319560816
-3.3737162457 0.1509679928 1.6363926516
-3.5290840299 -0.2275134300 1.6387226642
-3.6844086543 -0.6059987573 1.6389700690
-3.8396905872 -0.9844874050 1.6371588183
-3.9949302975 -1.3629788024 1.6333128664
-4.1501282542 -1.7414723914 1.6274561697
-4.3052849256 -2.1199676275 1.6196126851
-4.4604007802 -2.4984639782 1.6098063716
-4.6154762862 -2.8769609240 1.5980611877
-4.7705119113 -3.2554579577 1.5844010928
-4.9255535352 -3.6339156468 1.5688492044
-5.0806871408 -4.0123083958 1.5514277552
-5.2359026156 -4.3907181064 1.5321596270
-5.3912045781 -4.7690859615 1.5110711770
-5.5465765842 -5.1472772421 1.4881942374
-5.7019991327 -5.5257397366 1.4635329419
-5.8574350395 -5.9037698665 1.4371487090
-6.0128990035 -6.2819305454 1.4090364284
-6.1684027849 -6.6602383008 1.3792167104
0.4375644972 8.3121388628 1.0695622227
0.2805919476 7.9345529643 1.1220122748
0.1237356795 7.5570688682 1.1718491916
-0.0330168129 7.1796708921 1.2191002444
-0.1896906933 6.8017814982 1.2638703967
-0.3462323147 6.4241300581 1.3060811577
-0.5026388012 6.0462436068 1.3458218276
-0.6588912451 5.6682615945 1.3830965399
-0.8149932439 5.2902442113 1.4179202821
-0.9709531295 4.9120709695 1.4503290206
-1.1268940428 4.5336723533 1.4803429122
-1.2827860235 4.1552615748 1.5079630833
-1.4386295282 3.7768393879 1.5332134327
-1.5944250148 3.3984065336 1.5561178668
-1.7501729427 3.0199637389 1.5767002993
-1.9058737729 2.6415117174 1.5949846507
-2.0615279673 2.2630511690 1.6109948476
-2.2171359892 1.8845827795 1.6247548226
-2.3726983027 1.5061072213 1.6362885135
-2.5282153727 1.1276251527 1.6456198631
-2.6836876649 0.7491372180 1.6527728184
-2.8391156454 0.3706440482 1.6577713305
-2.9944997810 -0.0078537401 1.6606393540
-3.1498405385 -0.3863555435 1.6614008465
-3.3051383851 -0.7648607726 1.6600797685
-3.4603937882 -1.1433688514 1.6567000823
-3.6156072150 -1.5218792170 1.6512857522
-3.7707791326 -1.9003913202 1.6438607441
-3.9259100078 -2.2789046246 1.6344490245
-4.0810003073 -2.6574186071 1.6230745610
-4.2360504974 -3.0359327570 1.6097613209
-4.3910610434 -3.4144465762 1.5945332721
-4.5460770752 -3.7929188232 1.5774144253
-4.7011851036 -4.1713252403 1.5584280780
-4.8563750796 -4.5497479519 1.5375963130
-5.0116516683 -4.9281284313 1.5149460151
-5.1669985463 -5.3063326092 1.4905099301
-5.3223958149 -5.6848065781 1.4642883440
-5.4778069549 -6.0628497981 1.4363479649
-5.6332461015 -6.4410227754 1.4066792840
-5.7887250124 -6.8193419130 1.3753029125
0.8162116780 8.1537658152 1.1229813406
0.6592695883 7.7761574713 1.1738744937
0.5024433348 7.3986509254 1.2221548396
0.3457204672 7.0212304961 1.2678496359
0.1890774726 6.6433183986 1.3110593230
0.0325659807 6.2656444031 1.3517108695
-0.1238098565 5.8877350883 1.3898896573
-0.2800315267 5.5097299558 1.4256007648
-0.4361028358 5.1316892332 1.4588596971
-0.5920321175 4.7534918420 1.4897015377
-0.7479433286 4.3750669493 1.5181471936
-0.9038058685 3.9966304491 1.5441990285
-1.0596201935 3.6181830917 1.5678809548
-1.2153867614 3.2397256138 1.5892168925
-1.3711060313 2.8612587375 1.6082307684
-1.5267784636 2.4827831716 1.6249465159
-1.6824045195 2.1042996100 1.6393880745
-1.8379846617 1.7258087330 1.6515793891
-1.9935193533 1.3473112063 1.6615444099
-2.1490090581 0.9688076815 1.6693070913
-2.3044542408 0.5902987961 1.6748913922
-2.4598553661 0.2117851733 1.6783212748
-2.6152128992 -0.1667325775 1.6796207048
-2.7705273058 -0.5452538613 1.6788136505
-2.9257990513 -0.9237780968 1.6759240825
-3.0810286012 -1.3023047165 1.6709759733
-3.2362164209 -1.6808331662 1.6639932969
-3.3913629756 -2.0593629056 1.6550000283
-3.5464687304 -2.4378934075 1.6440201433
-3.7015341494 -2.8164241580 1.6310776178
-3.8565596969 -3.1949546559 1.6161964277
-4.0115458361 -3.5734844127 1.5994005487
-4.1665369193 -3.9519703993 1.5807148956
-4.3216199486 -4.3303897180 1.5601638134
-4.4767849571 -4.7088246882 1.5377685853
-4.6320366440 -5.0872170925 1.5135566170
-4.7873587912 -5.4654335490 1.4875615541
-4.9427311857 -5.8439183146 1.4597798747
-5.0981178693 -6.2219740938 1.4302835111
-5.2535325026 -6.6001588168 1.3990586072
-5.4089868390 -6.9784887600 1.3661257781
1.1949390857 7.9953194600 1.1711613067
1.0380271671 7.6176892980 1.2204973090
0.8812306332 7.2401609004 1.2672208491
0.7245370910 6.8627185907 1.3113591687
0.5679245894 6.4847845167 1.3530081330
0.4114428441 6.1070886248 1.3921002371
0.2550972013 5.7291571876 1.4287169000
0.0989057931 5.3511297173 1.4628641589
-0.0571353830 4.9730664597 1.4945580430
-0.2130346806 4.5948457813 1.5238327414
-0.3689168365 4.2163955287 1.5507099046
-0.5247505863 3.8379342260 1.5751931680
-0.6805363861 3.4594626188 1.5973064578
-0.8362746928 3.0809814387 1.6170737072
-0.9919659652 2.7024914028 1.6345188561
-1.1476106626 2.3239932136 1.6496658511
-1.3032092455 1.9454875592 1.6625386440
-1.4587621753 1.5669751129 1.6731611922
-1.6142699139 1.1884565337 1.6815574577
-1.7697329237 0.8099324657 1.6877514069
-1.9251516680 0.4314035389 1.6917670099
-2.0805266098 0.0528703683 1.6936282401
-2.2358582129 -0.3256664448 1.6933590738
-2.3911469406 -0.7042063140 1.6909834898
-2.5463932568 -1.0827486667 1.6865254687
-2.7015976248 -1.4612929443 1.6800089926
-2.8567605081 -1.8398386021 1.6714580450
-3.0118823694 -2.2183851089 1.6608966099
-3.1669636715 -2.5969319475 1.6483486716
-3.3220048765 -2.9754786132 1.6338382145
-3.4770064459 -3.3540246149 1.6173892224
-3.6319688406 -3.7325694741 1.5990256783
-3.7869356089 -4.1110683962 1.5787734108
-3.9419942076 -4.4894998648 1.5566577923
-4.0971347699 -4.8679463670 1.5326993087
-4.2523620183 -5.2463500124 1.5069258784
-4.4076598236 -5.6245781429 1.4793720317
-4.5630077403 -6.0030730439 1.4500304840
-4.7183702706 -6.3811408643 1.4189783188
-4.8737606875 -6.7593367948 1.3861973912
-5.0291907373 -7.1376769829 1.3517083214
1.5737442045 7.8368017901 1.2141237498
1.4168621606 7.4591504434 1.2619023745
1.2600950446 7.0816007988 1.3070688981
1.1034305222 6.7041371875 1.3496505446
0.9468481137 6.3261818702 1.3897385596
0.7903957264 5.9484647461 1.4272710219
0.6340798166 5.5705119333 1.4623253505
0.4779181531 5.1924629133 1.4949085531
0.3219065480 4.8143779308 1.5250371882
0.1660366098 4.4361348328 1.5527445417
0.0101828578 4.0576601440 1.5780529988
-0.1456227564 3.6791749633 1.6009674995
-0.3013806880 3.3006800313 1.6215119832
-0.4570913935 2.9221760739 1.6397103966
-0.6127553301 2.5436638021 1.6555866928
-0.7683729563 2.1651439120 1.6691648308
-0.9239447312 1.7866170848 1.6804687751
-1.0794711148 1.4080839865 1.6895224950
-1.2349525674 1.0295452684 1.6963499647
-1.3903895499 0.6510015670 1.7009751618
-1.5457825232 0.2724535036 1.7034220676
-1.7011319492 -0.1060983150 1.7037146662
-1.8564382891 -0.4846532965 1.7018769444
-2.0117020046 -0.8632108635 1.6979328912
-2.1669235568 -1.2417704526 1.6919064968
-2.3221034071 -1.6203315147 1.6838217529
-2.4772420164 -1.9988935149 1.6737026517
-2.6323398452 -2.3774559318 1.6615731860
-2.7873973535 -2.7560182580 1.6474573483
-2.9424150007 -3.1345799991 1.6313791309
-3.0973932457 -3.5131406742 1.6133625252
-3.2523325466 -3.8916998152 1.5934315215
-3.4072756219 -4.2702108850 1.5716128697
-3.5623103473 -4.6486537682 1.5479329487
-3.7174269738 -5.0271110925 1.5224114494
-3.8726302361 -5.4055253120 1.4950767948
-4.0279040792 -5.7837645273 1.4659643836
-4.1832279049 -6.1622689201 1.4350632191
-4.3385665765 -6.5403482782 1.4024554557
-4.4939330651 -6.9185548934 1.3681187236
-4.6493391073 -7.2969047820 1.3320736510
1.9526245299 7.6782148087 1.2518904085
1.7957720582 7.3005429160 1.2981114542
1.6390340526 6.9229726336 1.3417207758
1.4823982394 6.5454883036 1.3827455772
1.3258455188 6.1675124807 1.4212724473
1.1694220957 5.7897747931 1.4572450975
1.0131354531 5.4118013554 1.4907369160
0.8570030130 5.0337315776 1.5217558907
0.7010204133 4.6556256836 1.5503191146
0.5451792065 4.2773610374 1.5764589620
0.3893532048 3.8988628400 1.6001985437
0.2335750701 3.5203547091 1.6215441342
0.0778443484 3.1418373795 1.6405196865
-0.0778394155 2.7633115706 1.6571491605
-0.2334766776 2.3847779868 1.6714565221
-0.3890678947 2.0062373169 1.6834657430
-0.5446135244 1.6276902346 1.6932007999
-0.7001140248 1.2491373981 1.7006856740
-0.8555698544 0.8705794504 1.7059443509
-1.0109814722 0.4920170195 1.7090008196
-1.1663493372 0.1134507180 1.7098790722
-1.3216739087 -0.2651188565 1.7086031033
-1.4769556457 -0.6436911211 1.7051969099
-1.6321950075 -1.0222655077 1.6996844905
-1.7873924528 -1.4008414629 1.6920898449
-1.9425484404 -1.7794184476 1.6824369738
-2.0976634285 -2.1579959367 1.6707498779
-2.2527378748 -2.5365734193 1.6570525584
-2.4077722366 -2.9151503983 1.6413690156
-2.5627669705 -3.2937263898 1.6237232492
-2.7177225324 -3.6723009235 1.6041392578
-2.8726393774 -4.0508735419 1.5826410384
-3.0275593681 -4.4293959898 1.5592562691
-3.1825707644 -4.8078495702 1.5340123123
-3.3376639532 -5.1863170250 1.5069280685
-3.4928436705 -5.5647411695 1.4780324555
-3.6480939206 -5.9429908970 1.4473617232
-3.8033940306 -6.3215041572 1.4149012184
-3.9587091295 -6.6995945644 1.3807380793
-4.1140519686 -7.0778113577 1.3448457816
-4.2694342730 -7.4561704202 1.3072449631
2.3315775750 7.5195605244 1.2844831305
2.1747543676 7.1418687277 1.3291464217
2.0180451603 6.7642784200 1.3711983808
1.8614377417 6.3867739577 1.4106661896
1.7049142991 6.0087783698 1.4476317509
1.5485194432 5.6310207896 1.4820444484
1.3922615990 5.2530274800 1.5139736147
1.2361578580 4.8749377382 1.5434282264
1.0802036965 4.4968117477 1.5704259153
0.9243905924 4.1185264260 1.5949981376
0.7685916864 3.7400056500 1.6171687181
0.6128403755 3.3614754978 1.6369452950
0.4571362066 2.9829366974 1.6543518346
0.3014787264 2.6043899616 1.6694123098
0.1458674807 2.2258359871 1.6821506992
-0.0096979860 1.8472754550 1.6925909865
-0.1652181289 1.4687090307 1.7007571608
-0.3206934043 1.0901373642 1.7066732149
-0.4761242683 0.7115610895 1.7103631454
-0.6315111777 0.3329808256 1.7118509524
-0.7868545891 -0.0456028245 1.7111606384
-0.9421549593 -0.4241892724 1.7083162085
-1.0974127448 -0.8027779453 1.7033416691
-1.2526284021 -1.1813682851 1.6962610281
-1.4078023873 -1.5599597485 1.6870982945
-1.5629351563 -1.9385518069 1.6758774773
-1.7180271642 -2.3171439457 1.6626225858
-1.8730788660 -2.6957356647 1.6473576287
-2.0280907159 -3.0743264775 1.6301066139
-2.1830631673 -3.4529159111 1.6108935483
-2.3379966730 -3.8315035059 1.5897424369
-2.4928916849 -4.2100888155 1.5666772831
-2.6477891847 -4.5886218909 1.5417266980
-2.8027777821 -4.9670854705 1.5149190043
-2.9578480178 -5.3455623838 1.4862723163
-3.1130046182 -5.7239958237 1.4558160376
-3.2682316335 -6.1022555083 1.4235872503
-3.4235083913 -6.4807770317 1.3895677054
-3.5788001932 -6.8588780154 1.3538494315
-3.7341196518 -7.2371044971 1.3164018249
-3.8894784779 -7.6154722254 1.2772455355
2.7106008756 7.3608409468 1.3119238721
2.5538066204 6.9831298902 1.3550292594
2.3971258958 6.6055201716 1.3955237210
2.2405465539 6.2279961649 1.4334344147
2.0840519768 5.8499815538 1.4688385353
1.9276852889 5.4722047529 1.5016911687
1.7714557723 5.0941923247 1.5320575745
1.6153802058 4.7160834127 1.5599477249
1.4594539148 4.3379381403 1.5853797932
1.3036682855 3.9596330151 1.6083843126
1.1478958224 3.5810905903 1.6289858103
0.9921706815 3.2025393443 1.6471933140
0.8364924116 2.8239799979 1.6630308034
0.6808605612 2.4454132561 1.6765222638
0.5252746778 2.0668398077 1.6876916865
0.3697343085 1.6882603254 1.6965630674
0.2142390002 1.3096754657 1.7031604069
0.0587882988 0.9310858695 1.7075077093
-0.0966182493 0.5524921617 1.7096289823
-0.2519810981 0.1738949513 1.7095482364
-0.4073007017 -0.2047051682 1.7072894843
-0.5625775140 -0.5833076188 1.7028767408
-0.7178119888 -0.9619118379 1.6963340218
-0.8730045796 -1.3405172779 1.6876853443
-1.0281557394 -1.7191234061 1.6769547255
-1.1832659211 -2.0977297047 1.6641661829
-1.3383355768 -2.4763356700 1.6493437333
-1.4933651580 -2.8549408129 1.6325113930
-1.6483551158 -3.2335446579 1.6136931770
-1.8033059004 -3.6121467433 1.5929130984
-1.9582179612 -3.9907466208 1.5701951690
-2.1130917468 -4.3693438549 1.5455633976
-2.2679673326 -4.7478868283 1.5190473321
-2.4229336464 -5.1263597296 1.4906762301
-2.5779813984 -5.5048454505 1.4604674266
-2.7331152966 -5.8832875764 1.4284507996
-2.8883194229 -6.2615566815 1.3946642446
-3.0435731792 -6.6400858847 1.3590859824
-3.1988419499 -7.0181969887 1.3218128314
-3.3541382864 -7.3964326873 1.2828101896
-3.5094738830 -7.7748085924 1.2420987209
3.0896919955 7.2020580813 1.3342346964
2.9329263775 6.8243284096 1.3757820568
2.7762738176 6.4466998951 1.4147189116
2.6197222324 6.0691569324 1.4510723926
2.4632561066 5.6911240390 1.4849149723
2.3069171867 5.3133286887 1.5162074600
2.1507155268 4.9352978941 1.5450110306
1.9946676104 4.5571706039 1.5713366578
1.8387686241 4.1790068617 1.5952030582
1.6830098441 3.8006828022 1.6166398385
1.5272631747 3.4221196561 1.6356722150
1.3715635544 3.0435482403 1.6523106294
1.2159105346 2.6649692680 1.6665790741
1.0603036655 2.2863834358 1.6785015470
0.9047424973 1.9077914235 1.6881020514
0.7492265796 1.5291938951 1.6954045950
0.5937554614 1.1505914977 1.7004331897
0.4383286917 0.7719848625 1.7032118508
0.2829458196 0.3933746044 1.7037645965
0.1276063938 0.0147613225 1.7021154475
-0.0276900368 -0.3638544002 1.6982884262
-0.1829439230 -0.7424719963 1.6923075567
-0.3381557156 -1.1210909139 1.6841968642
-0.4933258647 -1.4997106163 1.6739803738
-0.6484548203 -1.8783305820 1.6616821112
-0.8035430318 -2.2569503041 1.6473261014
-0.9585909481 -2.6355692905 1.6309363686
-1.1135990174 -3.0141870632 1.6125369361
-1.2685676871 -3.3928031580 1.5921518252
-1.4234974040 -3.7714171249 1.5698050555
-1.5783886139 -4.1500285267 1.5455206441
-1.7332417619 -4.5286369399 1.5193226055
-1.8880959935 -4.9071891037 1.4912414266
-2.0430405218 -5.2856706713 1.4613072735
-2.1980662443 -5.6641645708 1.4295367090
-2.3531778402 -6.0426147946 1.3959600751
-2.5083594107 -6.4208928029 1.3606160599
-2.6635905024 -6.7994291244 1.3234794233
-2.8188364969 -7.1775499101 1.2846516687
-2.9741099587 -7.5557943720 1.2440942811
-3.1294225633 -7.9341779850 1.2018279403
3.4688485322 7.0432139249 1.3514377720
3.3121112343 6.6654662821 1.3914270087
3.1554865194 6.2878195857 1.4288061732
2.9989623702 5.9102582546 1.4636023688
2.8425242811 5.5322078177 1.4958833390
2.6862127292 5.1543945871 1.5256156287
2.5300384565 4.7763461750 1.5528563235
2.3740176684 4.3982012948 1.5776174013
2.2181454242 4.0200198910 1.5999181244
2.0624128727 3.6416777616 1.6197871703
1.9066913526 3.2630948169 1.6372504303
1.7510166097 2.8845041500 1.6523197819
1.5953881976 2.5059064651 1.6650192299
1.4398056693 2.1273024500 1.6753727846
1.2842685774 1.7486927752 1.6834044610
1.1287764743 1.3700780949 1.6891382784
0.9733289120 0.9914590467 1.6925982595
0.8179254423 0.6128362514 1.6938084303
0.6625656173 0.2342103134 1.6927928191
0.5072489889 -0.1444181788 1.6895754564
0.3519751090 -0.5230486530 1.6841803740
0.1967435305 -0.9016805528 1.6766316051
0.0415538056 -1.2803133375 1.6669531829
-0.1135945123 -1.6589464817 1.6551691410
-0.2687018698 -2.0375794754 1.6413035126
-0.4237687126 -2.4162118231 1.6253803300
-0.5787954861 -2.7948430442 1.6074236244
-0.7337826351 -3.1734726724 1.5874574252
-0.8887306030 -3.5521002554 1.5655057602
-1.0436398333 -3.9307253545 1.5415926542
-1.1985107679 -4.3093475445 1.5157421297
-1.3533438483 -4.6879664133 1.4879782063
-1.5081772663 -5.0665270836 1.4583323104
-1.6631004902 -5.4450166848 1.4268354899
-1.8181046203 -5.8235181564 1.3935035437
-1.9731942986 -6.2019759122 1.3583672660
-2.1283536329 -6.5802623264 1.3214661163
-2.2835623830 -6.9588052278 1.2827714677
-2.4387858447 -7.3369352740 1.2423893974
-2.5940366676 -7.7151880652 1.2002775675
-2.7493265062 -8.0935789372 1.1564566759
3.8480681215 6.8843104618 1.3635553701
3.6913588253 6.5065454895 1.4019864129
3.5347616353 6.1288812229 1.4378078288
3.3782646016 5.7513021085 1.4710466913
3.2218541358 5.3732348631 1.5017660152
3.0655695536 4.9954044174 1.5299380838
2.9094222013 4.6173391324 1.5556158950
2.7534280231 4.2391774448 1.5788124334
2.5975819632 3.8609791813 1.5995475067
2.4418750255 3.4826198395 1.6178488631
2.2861780177 3.1040180128 1.6337430536
2.1305275166 2.7254090053 1.6472434108
1.9749230788 2.3467935125 1.6583739519
1.8193642600 1.9681722122 1.6671586991
1.6638506156 1.5895457655 1.6736216789
1.5083817012 1.2109148161 1.6777869214
1.3529570717 0.8322799910 1.6796784601
1.1975762824 0.4536419006 1.6793203309
1.0422388884 0.0750011384 1.6767365723
0.8869444452 -0.3036417182 1.6719512238
0.7316925083 -0.6822861086 1.6649883263
0.5764826336 -1.0609314875 1.6558719212
0.4213143773 -1.4395773258 1.6446260499
0.2661872962 -1.8182231099 1.6312747537
0.1111009475 -2.1968683413 1.6158420729
-0.0439451110 -2.5755125365 1.5983520464
-0.1989513208 -2.9541552269 1.5788287119
-0.3539181227 -3.3327959579 1.5572961049
-0.5088459567 -3.7114342891 1.5337782582
-0.6637352622 -4.0900697938 1.5082992023
-0.8185864775 -4.4687020587 1.4808829643
-0.9734000402 -4.8473306833 1.4515535680
-1.1282131654 -5.2258992004 1.4203433795
-1.2831155473 -5.6043962262 1.3872843002
-1.4380985049 -5.9829046874 1.3523913741
-1.5931666340 -6.3613694322 1.3156958357
-1.7483040378 -6.7396637758 1.2772378945
-1.9034907544 -7.1182127413 1.2369856136
-2.0586919149 -7.4963516456 1.1950495289
-2.2139203230 -7.8746123513 1.1513835735
-2.3691876096 -8.2530100541 1.1060084646
4.2273484420 6.7253496584 1.3706098626
4.0706668297 6.3475679946 1.4074826675
3.9140968453 5.9698867661 1.4417463020
3.7576266071 5.5922904501 1.4734278082
3.6012433533 5.2142071253 1.5025854799
3.4449853454 4.8363601249 1.5291973331
3.2888644505 4.4582787045 1.5533122857
3.1328963694 4.0801009854 1.5749443296
2.9770759425 3.7018866561 1.5941138174
2.8213940120 3.3235109507 1.6108475689
2.6657208880 2.9448911495 1.6251727781
2.5100940031 2.5662647026 1.6371042504
2.3545129162 2.1876322957 1.6466660151
2.1989771865 1.8089945965 1.6538821056
2.0434863727 1.4303522554 1.6587765596
1.8880400331 1.0517059056 1.6613734177
1.7326377267 0.6730561633 1.6616967238
1.5772790119 0.2944036274 1.6597705235
1.4219634475 -0.0842511195 1.6556188643
1.2666905924 -0.4629075122 1.6492657948
1.1114600059 -0.8415650011 1.6407353643
0.9562712475 -1.2202230532 1.6300516220
0.8011238774 -1.5988811511 1.6172386172
0.6460174561 -1.9775387932 1.6023203979
0.4909515445 -2.3561954930 1.5853210111
0.3359257045 -2.7348507794 1.5662645024
0.1809394985 -3.1135041956 1.5451749148
0.0259924896 -3.4921552992 1.5220762894
-0.1289157585 -3.8708036619 1.4969926643
-0.2837856809 -4.2494488692 1.4699480743
-0.4386177121 -4.6280905197 1.4409665508
-0.5934122856 -5.0067282250 1.4100721215
-0.7482056184 -5.3853039544 1.3772980906
-0.9030876015 -5.7638078204 1.3426771835
-1.0580497881 -6.1423227130 1.3062237002
-1.2130967199 -6.5207939274 1.2679693031
-1.3682124843 -6.8990957448 1.2279549287
-1.5233774601 -7.2776502829 1.1861454112
-1.6785565393 -7.6557976610 1.1426556251
-1.8337627444 -8.0340658862 1.0974358725
-1.9890076808 -8.4124700131 1.0505068917
4.6066872205 6.5663334597 1.3726237183
4.4500329749 6.1885357373 1.4079382671
4.2934898783 5.8108381502 1.4406441127
4.1370461181 5.4332252094 1.4707682637
3.9806896688 5.0551265274 1.4983643081
3.8244578434 4.6772636257 1.5234159800
3.6683629484 4.2991668000 1.5459681312
3.5124204580 3.9209738156 1.5660357595
3.3566251208 3.5427442050 1.5836397619
3.2009676000 3.1643529744 1.5988060312
3.0453177424 2.7857160957 1.6115623879
2.8897138587 2.4070730988 1.6219251249
2.7341555116 2.0284246589 1.6299182829
2.5786422632 1.6497714330 1.6355659066
2.4231736760 1.2711140608 1.6388920442
2.2677493119 0.8924531641 1.6399207465
2.1123687333 0.5137893477 1.6386760669
1.9570315023 0.1351231990 1.6351820606
1.8017371816 -0.2435447117 1.6294627836
1.6464853339 -0.6222138304 1.6215422931
1.4912755222 -1.0008836200 1.6114446463
1.3361073103 -1.3795535596 1.5991938997
1.1809802620 -1.7582231439 1.5848141096
1.0258939419 -2.1368918836 1.5683293307
0.8708479151 -2.5155593048 1.5497636163
0.7158417472 -2.8942249485 1.5291410174
0.5608750049 -3.2728883701 1.5064855826
0.4059472552 -3.6515491400 1.4818213577
0.2510580661 -4.0302068418 1.4551723853
0.0962070064 -4.4088610732 1.4265627044
-0.0586063543 -4.7875114452 1.3960163502
-0.2133824455 -5.1661575813 1.3635573535
-0.3681564643 -5.5447399148 1.3292199538
-0.5230184721 -5.9232500619 1.2930376710
-0.6779602706 -6.3017708527 1.2550240723
-0.8329863395 -6.6802480412 1.2152112351
-0.9880807408 -7.0585568985 1.1736407998
-1.1432242531 -7.4371165416 1.1302744554
-1.2983814583 -7.8152720287 1.0852312919
-1.4535656599 -8.1935473986 1.0384580807
-1.6087884353 -8.5719575639 0.9899755831
4.9860822350 6.4072637848 1.3696195005
4.8294550413 6.0294506306 1.4033758005
4.6729385172 5.6517372816 1.4345238740
4.5165209205 5.2741082869 1.4630906949
4.3601908725 4.8959949611 1.4891251667
4.2039848431 4.5181168039 1.5126167191
4.0479154970 4.1400052930 1.5336061573
3.8919980991 3.7617977995 1.5521094829
3.7362273175 3.3835536805 1.5681481345
3.5805936206 3.0051477507 1.5817470820
3.4249664235 2.6264946787 1.5929347540
3.2693849392 2.2478360076 1.6017289438
3.1138487338 1.8691724014 1.6081537032
2.9583573733 1.4905045060 1.6122330874
2.8029104236 1.1118329496 1.6139911548
2.6475074506 0.7331583422 1.6134519660
2.4921480204 0.3544812769 1.6106395834
2.3368316991 -0.0241976711 1.6055780712
2.1815580535 -0.4028779434 1.5982914937
2.0263266500 -0.7815589987 1.5888039158
1.8711370561 -1.1602403119 1.5771394018
1.7159888393 -1.5389213748 1.5633220158
1.5608815677 -1.9176016946 1.5473758201
1.4058148099 -2.2962807945 1.5293248757
1.2507881353 -2.6749582132 1.5091932413
1.0958011138 -3.0536335042 1.4870049731
0.9408533160 -3.4323062355 1.4627841247
0.7859443133 -3.8109759897 1.4365547461
0.6310736778 -4.1896423633 1.4083408839
0.4762409824 -4.5683049661 1.3781665808
0.3214458011 -4.9469634213 1.3460558748
0.1666877083 -5.3256173648 1.3120328001
0.0119325471 -5.7042057207 1.2761325267
-0.1429098883 -6.0827216155 1.2383893395
-0.2978316624 -6.4612477968 1.1988160840
-0.4528371856 -6.8397304883 1.1574452404
-0.6079104849 -7.2180459735 1.1143191291
-0.7630327949 -7.5966102785 1.0693963802
-0.9181683209 -7.9747735289 1.0228001723
-1.0733307058 -8.3530556888 0.9744738504
-1.2285314968 -8.7314715287 0.9244381998
5.3655313196 6.2481425236 1.3616198618
5.2089308660 5.8703145560 1.3938179453
5.0524406028 5.4925860348 1.4234082880
4.8960488587 5.1149415498 1.4504178272
4.7397448151 4.7368142835 1.4748908107
4.5835642011 4.3589215069 1.4968223322
4.4275199606 3.9807960201 1.5162491764
4.2716271665 3.6025747614 1.5331883443
4.1158804171 3.2243168944 1.5476618138
3.9602699703 2.8458970771 1.5596936358
3.8046648416 2.4672286819 1.5693128289
3.6491051691 2.0885551971 1.5765386969
3.4935905224 1.7098772752 1.5813953024
3.3381204717 1.3311955502 1.5839067105
3.1826945864 0.9525106384 1.5840969894
3.0273124369 0.5738231379 1.5819902089
2.8719735931 0.1951336294 1.5776104402
2.7166776252 -0.1835573243 1.5709817554
2.5614241042 -0.5622491774 1.5621282268
2.4062126007 -0.9409414011 1.5510739266
2.2510426865 -1.3196334833 1.5378429261
2.0959139332 -1.6983249280 1.5224592954
1.9408259132 -2.0770152557 1.5049471030
1.7857781996 -2.4557040024 1.4853304153
1.6307703659 -2.8343907190 1.4636332961
1.4758019863 -3.2130749720 1.4398798065
1.3208726357 -3.5917563424 1.4140940040
1.1659818898 -3.9704344251 1.3862999425
1.0111293250 -4.3491088291 1.3565216721
0.8563145184 -4.7277791768 1.3247832383
0.7015370482 -5.1064451037 1.2911086822
0.5467964931 -5.4851062577 1.2555220401
0.3920597559 -5.8637000818 1.2180594078
0.2372365108 -6.2422212171 1.1787558040
0.0823344175 -6.6207523070 1.1376233661
-0.0726508593 -6.9992400552 1.0946949629
-0.2277033023 -7.3775617783 1.0500135713
-0.3829374523 -7.7556645079 1.0036260729
-0.5379186843 -8.1343010136 0.9553859406
-0.6930594268 -8.5125896294 0.9055068635
-0.8482383974 -8.8910108013 0.8539184311
5.7450323678 6.0889715317 1.3486475415
5.5884583465 5.7111293610 1.3792874654
5.4319940368 5.3333862485 1.4073201420
5.2756278393 4.9557268282 1.4327724707
5.1193494099 4.5775863133 1.4556840784
4.9631938377 4.1996795430 1.4760556840
4.8071742687 3.8215407772 1.4939200827
4.6513055999 3.4433064835 1.5092952694
4.4955823715 3.0650356142 1.5222037575
4.3399946149 2.6866027057 1.5326686854
4.1844109776 2.3079198413 1.5407196416
4.0288725448 1.9292323863 1.5463774492
3.8733788900 1.5505409811 1.5496661805
3.7179295876 1.1718462479 1.5506099104
3.5625242112 0.7931487905 1.5492327162
3.4071623353 0.4144491943 1.5455586764
3.2518435341 0.0357480274 1.5396118703
3.0965673822 -0.3429541601 1.5314163778
2.9413334547 -0.7216568353 1.5209962784
2.7861413268 -1.1003594823 1.5083756509
2.6309905744 -1.4790616018 1.4935785729
2.4758807738 -1.8577627111 1.4766291205
2.3208115017 -2.2364623435 1.4575513676
2.1657823354 -2.6151600479 1.4363693855
2.0107928530 -2.9938553883 1.4131072424
1.8558426331 -3.3725479441 1.3877890036
1.7009312548 -3.7512373089 1.3604387301
1.5460582984 -4.1299230904 1.3310804793
1.3912233444 -4.5086049101 1.2997383041
1.2364259744 -4.8872824032 1.2664362528
1.0816657708 -5.2659552172 1.2311983683
0.9269423166 -5.6446230126 1.1940486888
0.7722235929 -6.0232217782 1.1550242296
0.6174191774 -6.4017476731 1.1141607125
0.4625364404 -6.7802832156 1.0714695796
0.3074171621 -7.1585073432 1.0270455549
0.1523917122 -7.5367512924 0.9808240203
-0.0026720389 -7.9152137446 0.9328088656
-0.1576340142 -8.2938534069 0.8830122951
-0.3127532757 -8.6721481648 0.8315808249
-0.4679105774 -9.0505743480 0.7784399881
6.1245833356 5.9297526290 1.3307253604
5.9680354434 5.5518968548 1.3598072054
5.8115967852 5.1741397222 1.3862823034
5.6552558340 4.7964659125 1.4101775147
5.4990026367 4.4183128276 1.4315278869
5.3428717408 4.0403926776 1.4503397167
5.1868764192 3.6622413157 1.4666418469
5.0310314090 3.2839947026 1.4804532590
4.8753312033 2.9057115609 1.4917969980
4.7197655922 2.5272663402 1.5006952961
4.5642028854 2.1485698429 1.5071782927
4.4086851369 1.7698692427 1.5112683352
4.2532119246 1.3911651677 1.5129895055
4.0977828269 1.0124582275 1.5123658880
3.9423974222 0.6337490131 1.5094215680
3.7870552890 0.2550380971 1.5041806324
3.6317560060 -0.1236739655 1.4966671681
3.4764991525 -0.5023866375 1.4869052622
3.3212843077 -0.8810993993 1.4749190007
3.1661110517 -1.2598117482 1.4607324687
3.0109789646 -1.6385231981 1.4443697496
2.8558876272 -2.0172332795 1.4258549247
2.7008366209 -2.3959415387 1.4052120726
2.5458255274 -2.7746475378 1.3824652690
2.3908539292 -3.1533508540 1.3576385863
2.2359214095 -3.5320510794 1.3307560931
2.0810275518 -3.9107478207 1.3018418536
1.9261719409 -4.2894406984 1.2709199281
1.7713541615 -4.6681293466 1.2380143716
1.6165737997 -5.0468134128 1.2031492344
1.4618304422 -5.4254925571 1.1663485613
1.3071236763 -5.8041664522 1.1276363916
1.1522580195 -6.1826136151 1.0870947154
0.9974754244 -6.5611203132 1.0446762621
0.8426158267 -6.9396255733 1.0004333016
0.6875814160 -7.3177328056 0.9544701628
0.5326703597 -7.6963205157 0.9066251631
0.3774773746 -8.0744101254 0.8571421329
0.2223991935 -8.4525123263 0.8059083994
0.0672894718 -8.8307070198 0.7529503743
-0.0878668739 -9.2089969678 0.6982920062
6.5041822445 5.7704875947 1.3078762167
6.3476601841 5.3926188055 1.3354000863
6.1912468816 5.0148482133 1.3603177155
6.0349308828 4.6371605494 1.3826559240
5.8787025440 4.2589955595 1.4024452274
5.7225959679 3.8810626305 1.4196974461
5.5666244803 3.5028993406 1.4344375117
5.4108026749 3.1246411070 1.4466853848
5.2551250078 2.7463464060 1.4564646363
5.0995810138 2.3678896336 1.4637966011
4.9440386940 1.9891803203 1.4687119483
4.7885410923 1.6104673800 1.4712345537
4.6330877915 1.2317514279 1.4713885081
4.4776783741 0.8530330607 1.4691979044
4.3223124232 0.4743128560 1.4646868361
4.1669895216 0.0955913734 1.4578793976
4.0117092530 -0.2831308453 1.4487996829
3.8564712009 -0.6618532766 1.4374717854
3.7012749493 -1.0405754142 1.4239197975
3.5461200828 -1.4192967684 1.4081678097
3.3910061862 -1.7980168670 1.3902399106
3.2359328448 -2.1767352535 1.3701601862
3.0808996448 -2.5554514877 1.3479527194
2.9259061722 -2.9341651450 1.3236415897
2.7709520143 -3.3128758155 1.2972508730
2.6160367586 -3.6915831046 1.2688046405
2.4611599934 -4.0702866318 1.2383269596
2.3063213074 -4.4489860304 1.2058418922
2.1515202905 -4.8276809473 1.1713734957
1.9967565326 -5.2063710424 1.1349458214
1.8418631207 -5.5849133623 1.0966256709
1.6871728896 -5.9635932587 1.0563525755
1.5324925466 -6.3421883680 1.0142087194
1.3776139309 -6.7204754821 0.9702842827
1.2227824236 -7.0989402241 0.9244916347
1.0676049036 -7.4768158753 0.8770406203
0.9124528467 -7.8547331600 0.8277988706
0.7572558248 -8.2327375824 0.7767904266
0.6021567847 -8.6107324170 0.7240377568
0.4470028998 -8.9887863033 0.6695713712
0.2917621794 -9.3668855596 0.6134211584
6.8838271844 5.6111781652 1.2801230809
6.7273306650 5.2332969375 1.3060891009
6.5709424288 4.8555134338 1.3294493924
6.4146510954 4.4778124398 1.3502307332
6.2584472518 4.0996361942 1.3684591599
6.1023646485 3.7216910735 1.3841519550
5.9464165937 3.3435165073 1.3973301864
5.7906175526 2.9652473347 1.4080147836
5.6349619554 2.5869417691 1.4162298375
5.4794390673 2.2084741858 1.4219957955
5.3239166094 1.8297528531 1.4253438351
5.1684386363 1.4510283565 1.4262993618
5.0130047353 1.0723012981 1.4248864752
4.8576144936 0.6935722610 1.4211292759
4.7022674988 0.3148418095 1.4150518651
4.5469633387 -0.0638895101 1.4066783438
4.3917016014 -0.4426211699 1.3960328127
4.2364818752 -0.8213526600 1.3831393712
4.0813037491 -1.2000834873 1.3680221171
3.9261668119 -1.5788131763 1.3507051460
3.7710706535 -1.9575412678 1.3312125509
3.6160148638 -2.3362673191 1.3095684222
3.4609990332 -2.7149909033 1.2857968463
3.3060227531 -3.0937116091 1.2599219060
3.1510856149 -3.4724290400 1.2319676800
2.9961872108 -3.8511428143 1.2019582421
2.8413271336 -4.2298525645 1.1699176615
2.6863395614 -4.6084157251 1.1359119553
2.5315551500 -4.9871167832 1.0998822901
2.3768078549 -5.3658128074 1.0618936445
2.2220972710 -5.7445034819 1.0219700651
2.0672978449 -6.1230137593 0.9801818177
1.9126398229 -6.5015962916 0.9364810649
1.7575417993 -6.8795236254 0.8910991796
1.6023697690 -7.2572920463 0.8439287025
1.4471783622 -7.6351086219 0.7949496164
1.2919968258 -8.0129508559 0.7441853411
1.1367468989 -8.3908592463 0.6916624253
0.9815511011 -8.7687355316 0.6374059982
0.8265944401 -9.1468047539 0.5813707059
0.6716041686 -9.5249641629 0.5236360679
7.2635163154 5.4518260314 1.2474889911
7.1070450531 5.0739329281 1.2718973087
6.9506816018 4.6961370488 1.2937004140
6.7944146547 4.3184232362 1.3129250417
6.6382349533 3.9402363682 1.3295928079
6.4821759862 3.5622796276 1.3437263896
6.3262509755 3.1840944197 1.3553430415
6.1704742732 2.8058149714 1.3644646517
6.0148402930 2.4274992163 1.3711158250
5.8593380179 2.0490215417 1.3753161309
5.7038349163 1.6702889643 1.3770972344
5.5483760732 1.2915536729 1.3764860700
5.3929610806 0.9128162557 1.3735067452
5.2375895305 0.5340772823 1.3681833680
5.0822610154 0.1553373036 1.3605400465
4.9269751278 -0.2234031485 1.3506008881
4.7717314608 -0.6021435596 1.3383899992
4.6165296073 -0.9808834334 1.3239314846
4.4613691610 -1.3596222909 1.3072494472
4.3062497158 -1.7383596701 1.2883679869
4.1511708660 -2.1170951256 1.2673112009
3.9961322066 -2.4958282283 1.2441031829
3.8411333326 -2.8745585647 1.2187680225
3.6861738399 -3.2532857369 1.1913298052
3.5312533247 -3.6320093618 1.1618126119
3.3762072881 -4.0105876630 1.1302826487
3.2213637532 -4.3893035058 1.0966807409
3.0665579952 -4.7680147493 1.0610720559
2.9117896122 -5.1467210654 1.0234806530
2.7569336832 -5.5252477744 0.9839768028
2.6022392592 -5.9039439837 0.9424931547
2.4472031412 -6.2822049583 0.8992284010
2.2921317955 -6.6601534130 0.8541471941
2.1369668378 -7.0378317855 0.8072775840
1.9817582729 -7.4155529651 0.7585811410
1.8265093795 -7.7933073616 0.7080825002
1.6712341430 -8.1710705133 0.6558076512
1.5161533751 -8.5489830742 0.6017213656
1.3611646389 -8.9268853386 0.5458919519
1.2061207961 -9.3048456982 0.4883507650
1.0509753669 -9.6828746473 0.4291255014
7.6419040100 5.2920251529 1.2101557216
7.4854015441 4.9142512259 1.2330106007
7.3290319448 4.5365689496 1.2532594359
7.1727737903 4.1589569941 1.2709298156
7.0167646174 3.7809438546 1.2860233348
6.8608476490 3.4031063060 1.2985882160
6.7050162062 3.0249976871 1.3086399054
6.5493070415 2.6467676994 1.3161984958
6.3937252717 2.2684824186 1.3212876660
6.2382592824 1.8900166247 1.3239259958
6.0827743462 1.5112729667 1.3241451903
5.9273335109 1.1325269532 1.3219723544
5.7719363727 0.7537791604 1.3174316016
5.6165825274 0.3750301458 1.3105470453
5.4612715714 -0.0037195522 1.3013427986
5.3060031012 -0.3824694136 1.2898429735
5.1507767136 -0.7612189363 1.2760716806
4.9955920056 -1.1399676360 1.2600530284
4.8404485747 -1.5187150459 1.2418111229
4.6853460184 -1.8974607159 1.2213700674
4.5302839353 -2.2762042125 1.1987539613
4.3752619236 -2.6549451184 1.1739869005
4.2202795823 -3.0336830318 1.1470929767
4.0653365110 -3.4124175662 1.1180962766
3.9104323094 -3.7911483498 1.0870208825
3.7555665779 -4.1698750253 1.0538908709
3.6007389175 -4.5485972488 1.0187303129
3.4457975650 -4.9271222434 0.9816159300
3.2910453101 -5.3058353239 0.9424676549
3.1360744356 -5.6841999051 0.9014572409
2.9810647549 -6.0624302827 0.8585504035
2.8260331569 -6.4405337360 0.8137690948
2.6710350214 -6.8183521439 0.7671592354
2.5159735195 -7.1960381301 0.7187337458
2.3608877612 -7.5737664054 0.6684789695
2.2057861039 -7.9515309943 0.6164181519
2.0506916653 -8.3293130583 0.5625748510
1.8955260652 -8.7071540458 0.5069762467
1.7403899690 -9.0849767079 0.4496457663
1.5854989306 -9.4629080900 0.3905491613
1.4305613236 -9.8409054394 0.3297616747
8.0199451940 5.1325037363 1.1680496881
7.8634814239 4.7548789044 1.1893474644
7.7071544264 4.3773191006 1.2080404255
7.5509402061 3.9998069274 1.2241560004
7.3949876692 3.6218859242 1.2376903975
7.2391251088 3.2441206683 1.2486980803
7.0834517508 2.8661196268 1.2571801377
6.9278456860 2.4879545759 1.2631742384
6.7723377296 2.1097075627 1.2667014358
6.6169179964 1.7312564128 1.2677791922
6.4614508479 1.3525017105 1.2664391201
6.3060276685 0.9737449601 1.2627072446
6.1506480577 0.5949867268 1.2566076838
5.9953116151 0.2162275567 1.2481645553
5.8400179408 -0.1625320229 1.2374019762
5.6847666347 -0.5412915029 1.2243440623
5.5295572974 -0.9200503926 1.2090149270
5.3743895294 -1.2988082184 1.1914386821
5.2192629316 -1.6775645245 1.1716394360
5.0641771053 -2.0563188719 1.1496412939
4.9091316521 -2.4350708374 1.1254683572
4.7541261740 -2.8138200145 1.0991447233
4.5991602734 -3.1925660120 1.0706944848
4.4442335530 -3.5713084534 1.0401417298
4.2893456160 -3.9500469775 1.0075105405
4.1344960660 -4.3287812366 0.9728249942
3.9796845071 -4.7075108971 0.9361091619
3.8247656494 -5.0860223960 0.8974442348
3.6697866195 -5.4643590176 0.8568435757
3.5147762307 -5.8425410016 0.8143258904
3.3597984245 -6.2208007479 0.7698658890
3.2048057494 -6.5989424569 0.7235294839
3.0498329097 -6.9765879523 0.6754070532
2.8948373575 -7.3542771491 0.6254316710
2.7398285062 -7.7320033301 0.5736265544
2.5848161078 -8.1097615168 0.5200145708
2.4298262321 -8.4875344332 0.4646184982
2.2747924302 -8.8653610544 0.4074644816
2.1198229157 -9.2431713494 0.3485730729
1.9647641216 -9.6210283734 0.2879791074
1.8099733871 -9.9989828532 0.2256393412
8.3979559921 4.9731829110 1.1211667884
8.2415489636 4.5956936076 1.1409085604
8.0852774388 4.2182417656 1.1580466689
7.9291166766 3.8408154111 1.1726083183
7.7732299308 3.4629718637 1.1845843023
7.6174289647 3.0852657046 1.1940352612
7.4618218135 2.7073135427 1.2009582180
7.3063686819 2.3292225586 1.2053828382
7.1509612013 1.9510153507 1.2073456458
6.9955987565 1.5725780697 1.2068623628
6.8401489526 1.1938125751 1.2039642178
6.6847429940 0.8150453140 1.1986744937
6.5293804838 0.4362768411 1.1910173127
6.3740610255 0.0575076917 1.1810167967
6.2187842225 -0.3212616174 1.1686970657
6.0635496788 -0.7000305882 1.1540822386
5.9083569981 -1.0787987401 1.1371964318
5.7532057847 -1.4575656104 1.1180637591
5.5980956431 -1.8363307536 1.0967083310
5.4430261781 -2.2150937408 1.0731542542
5.2879969945 -2.5938541595 1.0474256319
5.1330076980 -2.9726116127 1.0195465620
4.9780578941 -3.3513657195 0.9895411382
4.8231471890 -3.7301161131 0.9574334490
4.6682751890 -4.1088624419 0.9232475769
4.5134415011 -4.4876043678 0.8870075990
4.3585004612 -4.8660996166 0.8488000137
4.2035013840 -5.2443933929 0.8086377763
4.0485432952 -5.6227549101 0.7664855178
3.8935584023 -6.0009710825 0.7224148562
3.7385651449 -6.3790442016 0.6764483212
3.5835991610 -6.7572026975 0.6285632210
3.4286625466 -7.1348688018 0.5788919053
3.2737189412 -7.5125645787 0.5273679544
3.1187707827 -7.8902916243 0.4740141636
2.9638279615 -8.2680458512 0.4188532171
2.8089175460 -8.6458111706 0.3619074587
2.6539818288 -9.0236234149 0.3032025025
2.4991312498 -9.4014183157 0.2427570601
2.3442352808 -9.7792515117 0.1806044415
2.1892406098 -10.1571467132 0.1167716597
8.7759465471 4.8141455114 1.0695364143
8.6196070960 4.4367659599 1.0877234280
8.4633987205 4.0593992803 1.1033077205
8.3072970304 3.6820389277 1.1163162984
8.1514822550 3.3042533926 1.1267345126
7.9957476479 2.9265896640 1.1346291755
7.8402115197 2.5486704875 1.1399932700
7.6848299380 2.1706025308 1.1428576394
7.5295728685 1.7924393447 1.1432504480
7.3742868342 1.4140153346 1.1412045780
7.2188542188 1.0352390933 1.1367497506
7.0634653331 0.6564613389 1.1299035607
6.9081197840 0.2776826154 1.1206901339
6.7528171787 -0.1010965516 1.1091335949
6.5975571243 -0.4798756556 1.0952580668
6.4423392279 -0.8586542083 1.0790876711
6.2871630973 -1.2374317393 1.0606465260
6.1320283399 -1.6162077956 1.0399587473
5.9769345639 -1.9949819415 1.0170484470
5.8218813773 -2.3737537576 0.9919397332
5.6668683886 -2.7525228409 0.9646567096
5.5118952065 -3.1312888040 0.9352234753
5.3569614400 -3.5100512750 0.9036641241
5.2020666984 -3.8888098963 0.8700027446
5.0472105912 -4.2675643251 0.8342634193
4.8922392452 -4.6460310830 0.7965410810
4.7373134692 -5.0245445578 0.7567825713
4.5823314373 -5.4028666617 0.7150688028
4.4273249342 -5.7810141570 0.6714184625
4.2723547558 -6.1592439263 0.6258010463
4.1173786258 -6.5373311119 0.5782881360
3.9624343978 -6.9155048568 0.5288554710
3.8075221102 -7.2931995496 0.4776355879
3.6526180634 -7.6709062008 0.4245641102
3.4977164828 -8.0486381181 0.3696629668
3.3428263444 -8.4263923102 0.3129547825
3.1879741560 -8.8041538178 0.2544617216
3.0331082621 -9.1819553369 0.1942092244
2.8783378533 -9.5597375002 0.1322148866
2.7235478163 -9.9375476869 0.0685116781
2.5689473217 -10.3155519924 0.0030518936
9.1539049815 4.6555270230 1.0131934885
8.9976365582 4.2782153118 1.0298270612
8.8414933916 3.9008992626 1.0438586253
8.6854519526 3.5235762614 1.0553150499
8.5297115325 3.1458222183 1.0641762833
8.3740447984 2.7681787683 1.0705152483
8.2185816492 2.3902723687 1.0743209600
8.0632734239 2.0122093205 1.0756254733
7.9080877342 1.6340431317 1.0744575297
7.7529145520 1.2556338001 1.0708453894
7.5974996115 0.8768464252 1.0648356695
7.4421282958 0.4980577551 1.0564347845
7.2868002151 0.1192683256 1.0456668629
7.1315149798 -0.2595213475 1.0325560319
6.9762722005 -0.6383107663 1.0171264170
6.8210714879 -1.0170994515 0.9994021413
6.6659124528 -1.3958869416 0.9794073249
6.5107947060 -1.7746727924 0.9571660850
6.3557178589 -2.1534565768 0.9327025345
6.2006815227 -2.5322378839 0.9060407824
6.0456853092 -2.9110163193 0.8772049331
5.8907288299 -3.2897915040 0.8462190858
5.7358116971 -3.6685630739 0.8131073347
5.5809335229 -4.0473306797 0.7778937681
5.4260939200 -4.4260939865 0.7406024684
5.2711357847 -4.8045804325 0.7013291539
5.1161170624 -5.1828373600 0.6600848366
4.9611422906 -5.5611691059 0.6168254956
4.8061429181 -5.9393260286 0.5716307606
4.6511834736 -6.3175670631 0.5244678289
4.4962202230 -6.6956645359 0.4754100971
4.3412927397 -7.0738504100 0.4244314053
4.1863943036 -7.4515847117 0.3716625186
4.0315185428 -7.8293074066 0.3170443236
3.8766506864 -8.2070488865 0.2605969607
3.7217977838 -8.5848077853 0.2023430630
3.5669843072 -8.9625704765 0.1423048305
3.4121621959 -9.3403667663 0.0805078443
3.2576244135 -9.7183090462 0.0169008663
3.1029101921 -10.0961020010 -0.0483501137
2.9483373149 -10.4741627400 -0.1153670137
9.5320042638 4.4967629343 0.9521281117
9.3758101640 4.1195266157 0.9672082811
9.2197356501 3.7422671845 0.9796869366
9.0637578986 3.3649862976 0.9895908852
8.9080979173 2.9872645876 0.9968939538
8.7525051660 2.6096422681 1.0016759713
8.5971220061 2.2317467646 1.0039215375
8.4418942253 1.8536848259 1.0036641076
8.2867865088 1.4755104203 1.0009331226
8.1317690556 1.0971125029 0.9957467627
7.9763704313 0.7183149130 0.9881817607
7.8210153242 0.3395162495 0.9782258101
7.6657033482 -0.0392829624 0.9659030421
7.5104341176 -0.4180822158 0.9512375863
7.3552072467 -0.7968810227 0.9342535703
7.2000223500 -1.1756789133 0.9149751185
7.0448790419 -1.5544754354 0.8934263528
6.8897769370 -1.9332701541 0.8696313914
6.7347156499 -2.3120626514 0.8436143481
6.5796947956 -2.6908525257 0.8153993323
6.4247139893 -3.0696393913 0.7850104488
6.2697728458 -3.4484228779 0.7524717971
6.1148709808 -3.8272026301 0.7178074709
5.9600080098 -4.2059783072 0.6810415583
5.8050070916 -4.5844157973 0.6422836826
5.6500553657 -4.9629086892 0.6014643144
5.4950388341 -5.3411698126 0.5586766305
5.3400700684 -5.7195085564 0.5138726453
5.1850769033 -6.0976707014 0.4671347054
5.0301278136 -6.4759197680 0.4184271583
4.8751775939 -6.8540222235 0.3678258258
4.7202674825 -7.2322160476 0.3153020172
4.5653789286 -7.6100063523 0.2609815064
4.4105284170 -7.9877502378 0.2048160611
4.2556934960 -8.3655047886 0.1468218661
4.1010444223 -8.7434273902 0.0869595329
3.9462774040 -9.1211983629 0.0253726924
3.7915093499 -9.4989990339 -0.0379732460
3.6369927080 -9.8769881530 -0.1031345240
9.9100811031 4.3385957932 0.8864096710
9.7539516431 3.9613750752 0.8999382430
9.5979374237 3.5841244912 0.9108655510
9.4420160292 3.2068469583 0.9192184156
9.2864314413 2.8291221082 0.9249646003
9.1309078831 2.4514919542 0.9281907680
8.9756010644 2.0735813798 0.9288772120
8.8204503253 1.6954978170 0.9270588632
8.6654168397 1.3172953233 0.9227659248
8.5104584268 0.9388620420 0.9160179809
8.3550778702 0.5600530719 0.9068999525
8.1997407353 0.1812432086 0.8953911553
8.0444466396 -0.1975670308 0.8815157227
7.8891952005 -0.5763771476 0.8652977860
7.7339860356 -0.9551866615 0.8467614740
7.5788187624 -1.3339951107 0.8259309129
7.4236929985 -1.7128020505 0.8028302255
7.2686083618 -2.0916070540 0.7774835303
7.1135644699 -2.4704097106 0.7499149421
6.9585609407 -2.8492096262 0.7201485706
6.8035973923 -3.2280064223 0.6882085207
6.6486734426 -3.6067997360 0.6541188918
6.4937887101 -3.9855892190 0.6179037774
6.3389428131 -4.3643745375 0.5795872649
6.1839432824 -4.7428122909 0.5392854881
6.0289958913 -5.1213087793 0.4969211106
5.8739788032 -5.4995690493 0.4525917116
5.7190128074 -5.8779106434 0.4062446408
5.5640227516 -6.2560713274 0.3579655620
5.4090798936 -6.6343225642 0.3077154861
5.2541388498 -7.0124204063 0.2555733768
5.0992404672 -7.3906130653 0.2015075174
4.9443572848 -7.7684867164 0.1456305221
4.7896942343 -8.1464085036 0.0878560739
4.6348791380 -8.5241875276 0.0283144328
4.4800910631 -8.9019727367 -0.0330333842
4.3254863899 -9.2799400456 -0.0962303559
10.2882238954 4.1804138762 0.8160327751
10.1321644093 3.8032076890 0.8280090006
9.9762151133 3.4259646624 0.8373842633
9.8203541357 3.0486890768 0.8441853902
9.6648525169 2.6709564158 0.8483731202
9.5094051619 2.2933144239 0.8500419247
9.3541827662 1.9153825057 0.8491672362
9.1991167694 1.5372696205 0.8457857453
9.0441637733 1.1590303566 0.8399286180
8.8892627889 0.7805518210 0.8316179532
8.7338995950 0.4017319201 0.8209470483
8.5785797292 0.0229113008 0.8078855621
8.4233028125 -0.3559095278 0.7924576294
8.2680684658 -0.7347300751 0.7746873834
8.1128763099 -1.1135498691 0.7545989540
7.9577259658 -1.4923684556 0.7322164684
7.8026170543 -1.8711853981 0.7075640501
7.6475491964 -2.2500002772 0.6806658184
7.4925220130 -2.6288126901 0.6515458884
7.3375351252 -3.0076222501 0.6202283697
7.1825881542 -3.3864285864 0.5867373674
7.0276807208 -3.7652313429 0.5510969802
6.8728124466 -4.1440301789 0.5133313014
6.7179829526 -4.5228247672 0.4734644177
6.5629809898 -4.9012580935 0.4316205480
6.4080346707 -5.2797544671 0.3877126871
