-2.2864024491 9.5304772195 1.1318187279
-2.4439701463 9.1511523308 1.1954572686
-2.6011926756 8.7719165240 1.2565099369
-2.7581688896 8.3927626685 1.3149901434
-2.9153603673 8.0134772289 1.3709003689
-3.0723079667 7.6343490502 1.4242725679
-3.2292651885 7.2552158809 1.4751273760
-3.3861202633 6.8761403336 1.5234930467
-3.5428197098 6.4971412915 1.5693983601
-3.6991899764 6.1172363674 1.6130565715
-3.8554049653 5.7361336878 1.6545026718
-4.0108446147 5.3540041457 1.6937966882
-4.1662156260 4.9718782015 1.7306939603
-4.3215185579 4.5897573214 1.7652185925
-4.4767539756 4.2076429457 1.7973947096
-4.6319224501 3.8255364887 1.8272464557
-4.7870245575 3.4434393378 1.8547979928
-4.9420608794 3.0613528535 1.8800735007
-5.0970320015 2.6792783691 1.9030971756
-5.2519385145 2.2972171898 1.9238932291
-5.4067810126 1.9151705932 1.9424858877
-5.5615600939 1.5331398284 1.9588993914
-5.7162763595 1.1511261162 1.9731579929
-5.8709304137 0.7691306492 1.9852859568
-6.0255228631 0.3871545909 1.9953075587
-6.1800543170 0.0051990769 2.0032470842
-6.3345253860 -0.3767347864 2.0091288278
-6.4889366829 -0.7586459205 2.0129770925
-6.6432888212 -1.1405332759 2.0148161885
-6.7975824158 -1.5223958311 2.0146704324
-6.9518180823 -1.9042325928 2.0125641465
-7.1059964364 -2.2860425953 2.0085216580
-7.2602062684 -2.6676831931 2.0025550646
-7.4146474431 -3.0490872039 1.9946703862
-7.5692939149 -3.4304562126 1.9849016875
-7.7241251890 -3.8116171743 1.9732750400
-7.8790345697 -4.1921823994 1.9598273090
-8.0340509670 -4.5732667352 1.9445866746
-8.1895794697 -4.9534189460 1.9275398404
-8.3452643145 -5.3338460816 1.9087453482
-8.5011635441 -5.7146102377 1.8882171465
-1.9044896856 9.3725539885 1.2229659288
-2.0617148920 8.9927413834 1.2851855291
-2.2195372019 8.6136208520 1.3445781847
-2.3769518794 8.2344788844 1.4014377923
-2.5344850408 7.8551430374 1.4557527527
-2.6916967782 7.4759450083 1.5075419870
-2.8488671408 7.0967316207 1.5568221790
-3.0058942670 6.7175771312 1.6036177396
-3.1626164591 6.3379153388 1.6480692808
-3.3184061181 5.9567324429 1.6904392809
-3.4738782981 5.5745557775 1.7305630383
-3.6292816955 5.1923822836 1.7682655617
-3.7846168663 4.8102134524 1.8035709608
-3.9398843730 4.4280507492 1.8365033667
-4.0950847838 4.0458956126 1.8670869303
-4.2502186724 3.6637494539 1.8953458215
-4.4052866177 3.2816136570 1.9213042283
-4.5602892038 2.8994895778 1.9449863561
-4.7152270185 2.5173785437 1.9664164262
-4.8701006545 2.1352818539 1.9856186756
-5.0249107075 1.7532007785 2.0026173550
-5.1796577770 1.3711365587 2.0174367287
-5.3343424654 0.9890904067 2.0301010735
-5.4889653777 0.6070635051 2.0406346775
-5.6435271215 0.2250570077 2.0490618393
-5.7980283060 -0.1569279612 2.0554068669
-5.9524695426 -0.5388903066 2.0596940772
-6.1068514434 -0.9208289623 2.0619477948
-6.2611746223 -1.3027428915 2.0621923509
-6.4154396933 -1.6846310860 2.0604520828
-6.5696472713 -2.0664925661 2.0567513328
-6.7237979712 -2.4483263811 2.0511144477
-6.8780142829 -2.8300576922 2.0435531424
-7.0325025548 -3.2116071428 2.0340737365
-7.1872368289 -3.5931760887 2.0227078877
-7.3422270501 -3.9746150067 2.0094792648
-7.4974293941 -4.3555808862 1.9944202054
-7.6528027181 -4.7372093280 1.9775546343
-7.8082411762 -5.1177119698 1.9589328407
-7.9637914336 -5.4985199451 1.9385629054
-8.1194822671 -5.8796764366 1.9164609960
-1.5220359201 9.2143565167 1.3088066663
-1.6798584640 8.8346579106 1.3693711256
-1.8373069857 8.4550191996 1.4273512590
-1.9944714494 8.0754807359 1.4827544519
-2.1518288755 7.6958287408 1.5355874214
-2.3089107999 7.3163723968 1.5858750906
-2.4659763964 6.9369483587 1.6336408248
-2.6227359791 6.5569166679 1.6790499698
-2.7784574698 6.1755160664 1.7223271295
-2.9338832686 5.7937805144 1.7632237252
-3.0893091190 5.4115520961 1.8017451754
-3.2446667419 5.0293281457 1.8378448388
-3.3999566980 4.6471101552 1.8715468578
-3.5551795536 4.2648995895 1.9028753951
-3.7103358809 3.8826978851 1.9318546334
-3.8654262572 3.5005064511 1.9585087743
-4.0204512646 3.1183266669 1.9828620371
-4.1754114897 2.7361598836 2.0049386583
-4.3303075232 2.3540074222 2.0247628900
-4.4851399595 1.9718705747 2.0423589993
-4.6399093966 1.5897506031 2.0577512670
-4.7946164352 1.2076487390 2.0709639872
-4.9492616790 0.8255661845 2.0820214655
-5.1038457338 0.4435041113 2.0909480187
-5.2583692077 0.0614636609 2.0977679734
-5.4128327102 -0.3205540553 2.1025056652
-5.5672368524 -0.7025479556 2.1051854379
-5.7215822466 -1.0845169885 2.1058316425
-5.8758695053 -1.4664601323 2.1044686359
-6.0300992421 -1.8483763945 2.1011207807
-6.1842720704 -2.2302648121 2.0958124437
-6.3383886037 -2.6121244510 2.0885679954
-6.4925697965 -2.9938757213 2.0794011972
-6.6470237996 -3.3754422874 2.0683211863
-6.8017245852 -3.7570264050 2.0553576661
-6.9566823670 -4.1384790281 2.0405356808
-7.1118538361 -4.5194582642 2.0238899678
-7.2671957804 -4.9010973231 2.0054345748
-7.4226053601 -5.2816126868 1.9852335086
-7.5781266781 -5.6624317165 1.9632834772
-7.7337885329 -6.0435973204 1.9396006200
-1.1399624648 9.0564784827 1.3891341446
-1.2974400977 8.6761865704 1.4482930970
-1.4546601114 8.2960955119 1.5048214587
-1.6116639984 7.9161984067 1.5587432847
-1.7689040530 7.5362524084 1.6100776204
-1.9258963060 7.1565504337 1.6588521058
-2.0822115466 6.7753436592 1.7054279974
-2.2382037629 6.3939448651 1.7495582737
-2.3938790351 6.0125032641 1.7912399961
-2.5492580414 5.6307239888 1.8305361338
-2.7046390098 5.2484458957 1.8674540213
-2.8599523263 4.8661735883 1.9019496161
-3.0151985554 4.4839085578 1.9340470928
-3.1703782673 4.1016522668 1.9637706468
-3.3254920369 3.7194061492 1.9911444930
-3.4805404445 3.3371716087 2.0161928650
-3.6355240744 2.9549500199 2.0389400139
-3.7904435154 2.5727427265 2.0594102072
-3.9452993600 2.1905510423 2.0776277283
-4.1000922040 1.8083762502 2.0936168747
-4.2548226463 1.4262196021 2.1074019575
-4.4094912883 1.0440823192 2.1190073000
-4.5640987343 0.6619655916 2.1284572371
-4.7186455901 0.2798705784 2.1357761140
-4.8731324635 -0.1022015924 2.1409882852
-5.0275599638 -0.4842498235 2.1441181140
-5.1819287008 -0.8662730487 2.1451899706
-5.3362392858 -1.2482702320 2.1442282322
-5.4904923301 -1.6302403682 2.1412572811
-5.6446884455 -2.0121824821 2.1363015048
-5.7988282435 -2.3940956282 2.1293852940
-5.9529123352 -2.7759788911 2.1205330429
-6.1070600716 -3.1577479689 2.1097606032
-6.2614813083 -3.5393296178 2.0970799085
-6.4161499927 -3.9209269249 2.0825186930
-6.5710765764 -4.3023913730 2.0661033692
-6.7262182218 -4.6833822939 2.0478710593
-6.8815298653 -5.0650301249 2.0278259527
-7.0369114005 -5.4455567621 2.0060457201
-7.1924046010 -5.8263853304 1.9825157345
-7.3480382823 -6.2075584550 1.9572521135
-0.7565221601 8.8968965268 1.4645440543
-0.9138991089 8.5161763403 1.5222241344
-1.0710443967 8.1357556315 1.5772485985
-1.2279891056 7.7555948148 1.6296502562
-1.3848092515 7.3742541471 1.6796890426
-1.5413535216 6.9935503647 1.7270935631
-1.6976249285 6.6123062856 1.7720802075
-1.8535724375 6.2308691346 1.8146170151
-2.0092027534 5.8493884060 1.8547022553
-2.1645363858 5.4675674150 1.8923968328
-2.3198739593 5.0852417737 1.9277099974
-2.4751444758 4.7029232549 1.9606004112
-2.6303485029 4.3206133474 1.9910922819
-2.7854866130 3.9383135102 2.0192098378
-2.9405593841 3.5560251719 2.0449773266
-3.0955673978 3.1737497306 2.0684190142
-3.2505112407 2.7914885531 2.0895591834
-3.4053915025 2.4092429752 2.1084221335
-3.5602087767 2.0270143009 2.1250321787
-3.7149636597 1.6448038028 2.1394136472
-3.8696567508 1.2626127216 2.1515908801
-4.0242886514 0.8804422658 2.1615882304
-4.1788599651 0.4982936124 2.1694300617
-4.3333712974 0.1161679062 2.1751407477
-4.4878232547 -0.2659337396 2.1787446707
-4.6422164453 -0.6480102436 2.1802662210
-4.7965514773 -1.0300605559 2.1797297951
-4.9508289601 -1.4120836580 2.1771597961
-5.1050495030 -1.7940785621 2.1725806313
-5.2592137150 -2.1760443118 2.1660167123
-5.4133222053 -2.5579799805 2.1574924538
-5.5673755819 -2.9398846722 2.1470322724
-5.7214915241 -3.3216694165 2.1346541518
-5.8758814944 -3.7032641289 2.1203727952
-6.0305194618 -4.0848726591 2.1042139554
-6.1854160841 -4.4663470702 2.0862054048
-6.3405289519 -4.8473480213 2.0663866304
-6.4958113674 -5.2290028009 2.0447519996
-6.6511656853 -5.6095392814 2.0213927694
-6.8066315836 -5.9903758926 1.9962830355
-6.9622378885 -6.3715549696 1.9694388998
-0.3720879600 8.7339630550 1.5352597274
-0.5294238444 8.3532092168 1.5913620419
-0.6865291258 7.9727550537 1.6448094272
-0.8434347625 7.5925609609 1.6956346756
-1.0002120016 7.2111852510 1.7440869119
-1.1567153150 6.8304472951 1.7899077606
-1.3129439297 6.4491676636 1.8333042372
-1.4688479129 6.0676940091 1.8742466236
-1.6244345688 5.6861760619 1.9127344214
-1.7797242808 5.3043154022 1.9488264300
-1.9350199824 4.9219443829 1.9825338098
-2.0902492391 4.5395818396 2.0138180303
-2.2454126206 4.1572292569 2.0427033330
-2.4005107018 3.7748880883 2.0692139792
-2.5555440618 3.3925597559 2.0933742497
-2.7105132835 3.0102456497 2.1152084428
-2.8654189544 2.6279471280 2.1347408734
-3.0202616648 2.2456655162 2.1519958725
-3.1750420082 1.8634021077 2.1669977851
-3.3297605809 1.4811581627 2.1797709701
-3.4844179816 1.0989349089 2.1903397987
-3.6390148111 0.7167335410 2.1987286529
-3.7935516716 0.3345552211 2.2049619254
-3.9480291671 -0.0475989215 2.2090640178
-4.1024479025 -0.4297277901 2.2110593399
-4.2568084836 -0.8118303206 2.2109723083
-4.4111115166 -1.1939054807 2.2088273461
-4.5653576080 -1.5759522705 2.2046488813
-4.7195473641 -1.9579697215 2.1984613457
-4.8736813911 -2.3399568969 2.1902891750
-5.0277602943 -2.7219128903 2.1801568065
-5.1817846785 -3.1038368264 2.1680886793
-5.3358704827 -3.4856351124 2.1541049462
-5.4902306799 -3.8672408875 2.1382230487
-5.6448393065 -4.2488586956 2.1204667499
-5.7997071956 -4.6303412295 2.1008651700
-5.9547923238 -5.0113505774 2.0794601381
-6.1100465743 -5.3930105086 2.0562362515
-6.2653744932 -5.7735554230 2.0312982544
-6.4208138943 -6.1543986054 2.0046090405
-6.5763936094 -6.5355820931 1.9761847022
0.0124396050 8.5709234833 1.6005726192
-0.1448558676 8.1901374922 1.6550963623
-0.3019218151 7.8096513053 1.7069659087
-0.4587890670 7.4294253057 1.7562140274
-0.6155243101 7.0480162992 1.8030788495
-0.7719875606 6.6672457523 1.8473152498
-0.9281744536 6.2859323517 1.8891207134
-1.0840361224 5.9044240797 1.9284678085
-1.2395804449 5.5228708552 1.9653572915
-1.3948277211 5.1409726087 1.9998458189
-1.5500831044 4.7585584203 2.0319464531
-1.7052726704 4.3761540752 2.0616235710
-1.8603969905 3.9937610523 2.0889014477
-2.0154566406 3.6113807979 2.1138043782
-2.1704522004 3.2290147255 2.1363566761
-2.3253842537 2.8466642160 2.1565826723
-2.4802533875 2.4643306168 2.1745067141
-2.6350601920 2.0820152420 2.1901531636
-2.7898052602 1.6997193719 2.2035463972
-2.9444891873 1.3174442534 2.2147108040
-3.0991125707 0.9351910994 2.2236707849
-3.2536760094 0.5529610893 2.2304507510
-3.4081801039 0.1707553688 2.2350751236
-3.5626254557 -0.2114249499 2.2375683317
-3.7170126675 -0.5935787880 2.2379548123
-3.8713423419 -0.9757050997 2.2362590082
-4.0256150821 -1.3578028723 2.2325053679
-4.1798314913 -1.7398711255 2.2267183441
-4.3339921720 -2.1219089114 2.2189223926
-4.4880977266 -2.5039153138 2.2091419721
-4.6421487564 -2.8858894481 2.1974015424
-4.7961458616 -3.2678304606 2.1837255640
-4.9502031732 -3.6496401845 2.1681363929
-5.1045350792 -4.0312550450 2.1506541734
-5.2591157290 -4.4128802111 2.1313006726
-5.4139561011 -4.7943690543 2.1101063457
-5.5690145156 -5.1753851910 2.0871153361
-5.7242416507 -5.5570485070 2.0623025397
-5.8795439775 -5.9376004703 2.0357860660
-6.0349576744 -6.3184487792 2.0075177010
-6.1905115729 -6.6996351664 1.9775135335
0.3970547686 8.4077822647 1.6605032533
0.2397990298 8.0269656460 1.7134476763
0.0827717195 7.6464488907 1.7637386792
-0.0740578576 7.2661923778 1.8114090027
-0.2307520424 6.8847518487 1.8566856179
-0.3871761478 6.5039503182 1.8993368602
-0.5433224159 6.1226049593 1.9395505429
-0.6991430081 5.7410639834 1.9773015616
-0.8546463495 5.3594774513 2.0125919475
-1.0098527009 4.9775437293 2.0454761798
-1.1650693456 4.5950886137 2.0759692121
-1.3202208144 4.2126447203 2.1040384233
-1.4753076794 3.8302135199 2.1297081227
-1.6303305166 3.4477964502 2.1530026388
-1.7852899059 3.0653949147 2.1739463183
-1.9401864306 2.6830102829 2.1925635246
-2.0950206769 2.3006438900 2.2088786371
-2.2497932340 1.9182970368 2.2229160494
-2.4045046933 1.5359709895 2.2347001685
-2.5591556481 1.1536669796 2.2442554138
-2.7137466939 0.7713862038 2.2516062154
-2.8682784272 0.3891298248 2.2567770135
-3.0227514458 0.0068989703 2.2597922568
-3.1771663482 -0.3753052662 2.2606764021
-3.3315237334 -0.7574818248 2.2594539125
-3.4858242009 -1.1396296801 2.2561492567
-3.6400683497 -1.5217478394 2.2507869078
-3.7942567790 -1.9038353438 2.2433913429
-3.9483900871 -2.2858912669 2.2339870407
-4.1024688714 -2.6679147148 2.2225984825
-4.2564937289 -3.0499048252 2.2092501495
-4.4104652544 -3.4318607676 2.1939665232
-4.5644957031 -3.8136798521 2.1767721931
-4.7188007836 -4.1953018491 2.1576899657
-4.8733548045 -4.5769324834 2.1367396099
-5.0281688595 -4.9584258532 2.1139529004
-5.1832015714 -5.3394471994 2.0893762640
-5.3384026246 -5.7211121676 2.0629749784
-5.4936801518 -6.1016698221 2.0348803762
-5.6490689227 -6.4825218429 2.0050332475
-5.8045977625 -6.8637096518 1.9734496835
0.7817517508 8.2445439126 1.7150724235
0.6245350442 7.8636982147 1.7664368362
0.4675456528 7.4831523685 1.8151486490
0.3107530200 7.1028667566 1.8612405683
0.1540989322 6.7213965025 1.9049282575
-0.0022869673 6.3405656177 1.9459937009
-0.1583937294 5.9591901342 1.9846149150
-0.3141745052 5.5776183916 2.0207691589
-0.4696382399 5.1960005448 2.0544597574
-0.6248051991 4.8140334834 2.0857389819
-0.7799847061 4.4315397104 2.1146236620
-0.9350996904 4.0490585469 2.1410842698
-1.0901507238 3.6665914542 2.1651451486
-1.2451383820 3.2841398593 2.1868306606
-1.4000632438 2.9017051539 2.2061651856
-1.5549258914 2.5192886949 2.2231731193
-1.7097269092 2.1368918033 2.2378788730
-1.8644668847 1.7545157651 2.2503068715
-2.0191464068 1.3721618305 2.2604815523
-2.1737660664 0.9898312143 2.2684273644
-2.3283264560 0.6075250955 2.2741687670
-2.4828281689 0.2252446182 2.2777302284
-2.6372717992 -0.1570091089 2.2791362251
-2.7916579419 -0.5392350123 2.2784112403
-2.9459871917 -0.9214320530 2.2755797629
-3.1002601438 -1.3035992264 2.2706662868
-3.2544773927 -1.6857355620 2.2636953091
-3.4086395326 -2.0678401230 2.2546913301
-3.5627471569 -2.4499120058 2.2436788513
-3.7168008577 -2.8319503397 2.2306823754
-3.8708012263 -3.2139542863 2.2157264044
-4.0247488521 -3.5959230386 2.1988354396
-4.1787540471 -3.9777494380 2.1800363310
-4.3330337476 -4.3593766550 2.1593545031
-4.4875624672 -4.7410109021 2.1368077267
-4.6423513856 -5.1225070502 2.1124290784
-4.7973593880 -5.5035320590 2.0862672344
-4.9525353733 -5.8851969848 2.0582779526
-5.1077888772 -6.2657590032 2.0286056261
-5.2631534828 -6.6466133544 1.9971801774
-5.4186580039 -7.0278011435 1.9640177060
1.1665247721 8.0812129896 1.7643011961
1.0093463753 7.7003397803 1.8140849689
0.8523941653 7.3197663391 1.8612170042
0.6956377283 6.9394530603 1.9057299688
0.5390227554 6.5579548989 1.9478280882
0.3826741049 6.1770963068 1.9873071626
0.2266057109 5.7956925512 2.0243353016
0.0708634726 5.4140919981 2.0588921612
-0.0845620472 5.0324448480 2.0909823761
-0.2396911639 4.6504466024 2.1206559821
-0.3948351504 4.2679164639 2.1479316676
-0.5499152770 3.8854003279 2.1727830838
-0.7049321149 3.5028996447 2.1952346084
-0.8598862379 3.1204158284 2.2153106367
-1.0147782236 2.7379502577 2.2330355814
-1.1696086517 2.3555042746 2.2484338709
-1.3243781045 1.9730791848 2.2615299474
-1.4790871666 1.5906762576 2.2723482669
-1.6337364238 1.2082967257 2.2809132967
-1.7883264636 0.8259417854 2.2872495153
-1.9428578749 0.4436125970 2.2913814103
-2.0973312467 0.0613102843 2.2933334777
-2.2517471692 -0.3209640646 2.2931302207
-2.4061062325 -0.7032093974 2.2907961486
-2.5604090267 -1.0854246971 2.2863557755
-2.7146561417 -1.4676089815 2.2798336193
-2.8688481671 -1.8497613033 2.2712542008
-3.0229856912 -2.2318807490 2.2606420425
-3.1770693017 -2.6139664393 2.2480216678
-3.3310995849 -2.9960175274 2.2334175998
-3.4850771260 -3.3780331995 2.2168543606
-3.6390025081 -3.7600126738 2.1983564703
-3.7929840335 -4.1418443781 2.1779530629
-3.9472397751 -4.5234749358 2.1556721316
-4.1017444969 -4.9051109789 2.1315294532
-4.2565094363 -5.2866081958 2.1055593870
-4.4114937018 -5.6676353555 2.0778128206
-4.5666456105 -6.0492985857 2.0482361052
-4.7218758487 -6.4298636734 2.0169865117
-4.8772170308 -6.8107190094 1.9839832405
-5.0326979529 -7.1919053765 1.9492424047
1.5513680677 7.9177940954 1.8082109109
1.3942272402 7.5368949584 1.8564134768
1.2373114572 7.1562954337 1.9019652081
1.0805904523 6.7759559347 1.9448987271
0.9240135946 6.3944316989 1.9854067102
0.7677012212 6.0135470605 2.0232989170
0.6116700422 5.6321168999 2.0587334575
0.4559650481 5.2504895066 2.0916924132
0.3005763382 4.8688150780 2.1221817429
0.1454835021 4.4867878176 2.1502492236
-0.0096265921 4.1042236223 2.1759153811
-0.1646734973 3.7216748254 2.1991571274
-0.3196577826 3.3391428640 2.2199988739
-0.4745800199 2.9566291386 2.2384650494
-0.6294407839 2.5741350122 2.2545800992
-0.7842406516 2.1916618108 2.2683684833
-0.9389802021 1.8092108230 2.2798546755
-1.0936600162 1.4267832997 2.2890631615
-1.2482806761 1.0443804547 2.2960184388
-1.4028427650 0.6620034646 2.3007450140
-1.5573468668 0.2796534689 2.3032674030
-1.7117935666 -0.1026684300 2.3036101286
-1.8661834490 -0.4849611659 2.3017977201
-2.0205170990 -0.8672237091 2.2978547121
-2.1747951011 -1.2494550658 2.2918056430
-2.3290180395 -1.6316542776 2.2836750540
-2.4831864975 -2.0138204214 2.2734874886
-2.6373010577 -2.3959526083 2.2612674909
-2.7913623012 -2.7780499836 2.2470396048
-2.9453708076 -3.1601117263 2.2308283732
-3.0993271555 -3.5421370479 2.2126583372
-3.2532319210 -3.9241251927 2.1925540348
-3.4071913314 -4.3059602325 2.1705469037
-3.5614245071 -4.6875922926 2.1466674529
-3.7159065072 -5.0692283569 2.1209294727
-3.8706485992 -5.4507249750 2.0933685828
-4.0256100767 -5.8317528127 2.0640378423
-4.1807388753 -6.2134127386 2.0328743218
-4.3359465846 -6.5939796365 2.0000479699
-4.4912650634 -6.9748346503 1.9654674247
-4.6467230844 -7.3560182347 1.9291488189
1.9362759026 7.7542918552 1.8468231823
1.7791718878 7.3733683870 1.8934440378
1.6222917632 6.9927443017 1.9374150011
1.4656054136 6.6123800401 1.9787686443
1.3090656579 6.2308315744 2.0176860023
1.1527885775 5.8499225611 2.0539909162
0.9967934488 5.4684678723 2.0878314184
0.8411243955 5.0868156183 2.1191920413
0.6857710815 4.7051159450 2.1480800801
0.5307129566 4.3230618481 2.1745410329
0.3756351201 3.9404659154 2.1985972388
0.2206197960 3.5578867770 2.2202289467
0.0656664179 3.1753258555 2.2394606017
-0.0892255831 2.7927845354 2.2563166659
-0.2440567782 2.4102641628 2.2708216164
-0.3988277408 2.0277660459 2.2829999449
-0.5535390459 1.6452914543 2.2928761555
-0.7081912698 1.2628416194 2.3004747640
-0.8627849899 0.8804177345 2.3058202964
-1.0173207848 0.4980209547 2.3089372878
-1.1717992332 0.1156523975 2.3098502809
-1.3262209143 -0.2666868571 2.3085838248
-1.4805864071 -0.6489957667 2.3051624741
-1.6348962905 -1.0312733251 2.2996107879
-1.7891511430 -1.4135185631 2.2919533279
-1.9433515422 -1.7957305472 2.2822146580
-2.0974980649 -2.1779083793 2.2704193429
-2.2515912866 -2.5600511965 2.2565919477
-2.4056317815 -2.9421581699 2.2407570357
-2.5596201223 -3.3242285045 2.2229391688
-2.7135568798 -3.7062614387 2.2031629057
-2.8674426231 -4.0882562430 2.1814528013
-3.0213814398 -4.4700926939 2.1578426133
-3.1755934105 -4.8517244630 2.1323653104
-3.3300539340 -5.2333588197 2.1050327058
-3.4847742810 -5.6148532164 2.0758816570
-3.6397138937 -5.9958803006 2.0449673508
-3.7948205208 -6.3775353611 2.0122177167
-3.9500064157 -6.7581028478 1.9778151627
-4.1053028884 -7.1389562726 1.9416579405
-4.2607386824 -7.5201357580 1.9037622070
2.3212425843 7.5907109078 1.8801598976
2.1641746127 7.2097647136 1.9251986039
2.0073293664 6.8291175991 1.9675883980
1.8506768854 6.4487300406 2.0073617969
1.6941732072 6.0671591964 2.0446881202
1.5379304273 5.6862274855 2.0794053891
1.3819701767 5.3047501508 2.1116514978
1.2263357539 4.9230750210 2.1414134506
1.0710164174 4.5413521404 2.1686998888
0.9159914317 4.1592733886 2.1935540156
0.7609442171 3.7766480433 2.2159999557
0.6059588346 3.3940408856 2.2360213669
0.4510347211 3.0114533214 2.2536427273
0.2961713118 2.6288867178 2.2688885314
0.1413680396 2.2463424025 2.2817832883
-0.0133756644 1.8638216640 2.2923515201
-0.1680603701 1.4813257516 2.3006177613
-0.3226866489 1.0988558756 2.3066065566
-0.4772550728 0.7164132071 2.3103424602
-0.6317662144 0.3339988787 2.3118500345
-0.7862206464 -0.0483860156 2.3111538484
-0.9406189420 -0.4307404200 2.3082784765
-1.0949616736 -0.8130633163 2.3032484980
-1.2492494136 -1.1953537237 2.2960884949
-1.4034827334 -1.5776106984 2.2868230518
-1.5576622035 -1.9598333328 2.2754767540
-1.7117883936 -2.3420207553 2.2620741870
-1.8658618716 -2.7241721294 2.2466399348
-2.0198832042 -3.1062866533 2.2291985801
-2.1738529564 -3.4883635591 2.2097747020
-2.3277716912 -3.8704021120 2.1883928759
-2.4816399695 -4.2524016104 2.1650776727
-2.6355596762 -4.6342375960 2.1398651825
-2.7897517677 -5.0158673292 2.1127907742
-2.9441920257 -5.3974982984 2.0838642964
-3.0988916983 -5.7789888995 2.0531238201
-3.2538103415 -6.1600138425 2.0206266134
-3.4088957056 -6.5416625268 1.9862916164
-3.5640604760 -6.9222294207 1.9503134624
-3.7193356150 -7.3030800327 1.9125802050
-3.8747498309 -7.6842541486 1.8731080314
2.7062624780 7.4270558944 1.9082432153
2.5492297694 7.0460885844 1.9516993988
2.3924186123 6.6654199767 1.9925076864
2.2357992054 6.2850105913 2.0307005345
2.0793305733 5.9034192229 2.0664354931
1.9231210958 5.5224664943 2.0995648389
1.7671945466 5.1409683972 2.1302162834
1.6115934422 4.7592723758 2.1583793199
1.4563066645 4.3775283244 2.1840639437
1.3013132480 3.9954270978 2.2073110506
1.1462950232 3.6127746645 2.2281465207
0.9913379481 3.2301418063 2.2465574860
0.8364414644 2.8475299110 2.2625684578
0.6816050117 2.4649403265 2.2762039621
0.5268280280 2.0823743604 2.2874885394
0.3721099498 1.6998332803 2.2964467420
0.2174502127 1.3173183133 2.3031031333
0.0628482513 0.9348306472 2.3074822866
-0.0916965002 0.5523714297 2.3096087834
-0.2461846079 0.1699417692 2.3095072125
-0.4006166381 -0.2124572649 2.3072021682
-0.5549931566 -0.5948246419 2.3027182496
-0.7093147291 -0.9771593697 2.2960800592
-0.8635819204 -1.3594604936 2.2873122016
-1.0177952943 -1.7417270963 2.2764392827
-1.1719554139 -2.1239582973 2.2634859084
-1.3260628409 -2.5061532521 2.2484766833
-1.4801181351 -2.8883111518 2.2314362104
-1.6341218553 -3.2704312223 2.2123890895
-1.7880745581 -3.6525127237 2.1913599163
-1.9419767982 -4.0345549492 2.1683732820
-2.0958291283 -4.4165572249 2.1434537719
-2.2497311678 -4.7983909215 2.1166398178
-2.4039046675 -5.1800169251 2.0879691259
-2.5583258342 -5.5616428794 2.0574495962
-2.7130058688 -5.9431281615 2.0251204866
-2.8679044072 -6.3241496217 1.9910410978
-3.0229693852 -6.7057904717 1.9551215442
-3.1781136953 -7.0863556324 1.9175684346
-3.3333681467 -7.4672022524 1.8782598264
-3.4887614064 -7.8483697765 1.8372119417
3.0913300189 7.2633314460 1.9310955610
2.9343317856 6.8823446323 1.9729689142
2.7775539224 6.5016560687 2.0121954219
2.6209667899 6.1212263273 2.0488074754
2.4645321683 5.7396162872 2.0829508186
2.3083549930 5.3586442191 2.1144920373
2.1524609681 4.9771272399 2.1435486312
1.9968918714 4.5954123069 2.1701125965
1.8416362379 4.2136491152 2.1941952878
1.6866728271 3.8315275868 2.2158352839
1.5316819685 3.4488503840 2.2350601883
1.3767515776 3.0661941355 2.2518606672
1.2218811012 2.6835602093 2.2662612643
1.0670699844 2.3009499326 2.2782865369
0.9123176711 1.9183645909 2.2879610556
0.7576236039 1.5358054295 2.2953094021
0.6029872248 1.1532736522 2.3003561686
0.4484079750 0.7707704225 2.3031259556
0.2938852958 0.3882968635 2.3036433712
0.1394186280 0.0058540582 2.3019330295
-0.0149925873 -0.3765569499 2.2980195493
-0.1693489082 -0.7589351567 2.2919275530
-0.3236508927 -1.1412795968 2.2836816656
-0.4778990975 -1.5235893429 2.2733065131
-0.6320940785 -1.9058635052 2.2608267216
-0.7862363906 -2.2881012312 2.2462669164
-0.9403265867 -2.6703017046 2.2296517205
-1.0943652186 -3.0524641447 2.2110057540
-1.2483528361 -3.4345878060 2.1903536331
-1.4022899872 -3.8166719769 2.1677199690
-1.5561772177 -4.1987159796 2.1431293671
-1.7100150715 -4.5807191688 2.1166064261
-1.8639008430 -4.9625488076 2.0881919253
-2.0180569968 -5.3441694430 2.0579258428
-2.1724602073 -5.7257888094 2.0258141479
-2.3271216038 -6.1072673023 1.9918972578
-2.4820008702 -6.4882839866 1.9562364555
-2.6370463046 -6.8699155985 1.9187332032
-2.7921707915 -7.2504779293 1.8796058217
-2.9474051738 -7.6313194240 1.8387225860
-3.1027780712 -8.0124791836 1.7960997580
3.4764397259 7.0995421723 1.9487396240
3.3194751752 6.7185374648 1.9890299052
3.1627298068 6.3378304805 2.0266744239
3.0061741466 5.9573818518 2.0617055011
2.8497724993 5.5757549872 2.0942570579
2.6936266264 5.1947652521 2.1242100185
2.5377639520 4.8132312633 2.1516716598
2.3822255582 4.4314993893 2.1766364891
2.2269996622 4.0497190775 2.1991172238
2.0720647050 3.6675794081 2.2191501211
1.9170996022 3.2848797432 2.2367644713
1.7621942871 2.9022024007 2.2519545303
1.6073482125 2.5195487271 2.2647448727
1.4525608300 2.1369200270 2.2751600869
1.2978315898 1.7543175631 2.2832247728
1.1431599417 1.3717425562 2.2889635408
0.9885453345 0.9891961857 2.2924010104
0.8339872170 0.6066795896 2.2935618087
0.6794850378 0.2241938648 2.2924705692
0.5250382457 -0.1582599322 2.2891519304
0.3706462900 -0.5406807851 2.2836305345
0.2163086205 -0.9230677173 2.2759310264
0.0620246877 -1.3054197912 2.2660780521
-0.0922060568 -1.6877361077 2.2540962579
-0.2463841601 -2.0700158059 2.2400102892
-0.4005101679 -2.4522580618 2.2238447891
-0.5545846248 -2.8344620881 2.2056243980
-0.7086080734 -3.2166271333 2.1853737521
-0.8625810543 -3.5987524808 2.1631174828
-1.0165041065 -3.9808374484 2.1388802150
-1.1703777665 -4.3628813875 2.1126865676
-1.3242025688 -4.7448836819 2.0845611514
-1.4780734240 -5.1267075528 2.0545470953
-1.6322134343 -5.5083212382 2.0226865815
-1.7865997815 -5.8899325010 1.9889836693
-1.9412435016 -6.2714027899 1.9534799067
-2.0961042951 -6.6524134551 1.9162385054
-2.2511309931 -7.0340344825 1.8771524601
-2.4062362656 -7.4145929308 1.8364515265
-2.5614511684 -7.7954282147 1.7939944223
-2.7168042685 -8.1765790876 1.7497974541
3.8615862140 6.9356926510 1.9611983503
3.7046545501 6.5546716539 1.9999053841
3.5479408764 6.1739477781 2.0359677683
3.3914158870 5.7934817252 2.0694177498
3.2350461802 5.4118398731 2.1003774277
3.0789306141 5.0308341345 2.1287420728
2.9230981229 4.6492849971 2.1546087421
2.7675891364 4.2675381388 2.1779744598
2.6123915835 3.8857427116 2.1988533073
2.4574835434 3.5035870453 2.2172792181
2.3025426034 3.1208672091 2.2332831315
2.1476607754 2.7381710494 2.2468629416
1.9928375189 2.3554998897 2.2580432540
1.8380722923 1.9728550110 2.2668486865
1.6833645533 1.5902376510 2.2733038677
1.5287137591 1.2076490051 2.2774334355
1.3741193665 0.8250902266 2.2792620360
1.2195808322 0.4425624268 2.2788143218
1.0650976132 0.0600666754 2.2761149507
0.9106691666 -0.3223959989 2.2711885846
0.7562949503 -0.7048246080 2.2640598879
0.6019744229 -1.0872182039 2.2547535265
0.4477070438 -1.4695758778 2.2432941667
0.2934922738 -1.8518967600 2.2297064737
0.1393295748 -2.2341800188 2.2140151108
-0.0147815897 -2.6164248596 2.1962447382
-0.1688417548 -2.9986305250 2.1764200120
-0.3228514536 -3.3807962931 2.1545655833
-0.4768112173 -3.7629214773 2.1307060972
-0.6307215753 -4.1450054249 2.1048661917
-0.7845830545 -4.5270475171 2.0770704974
-0.9383961801 -4.9090471672 2.0473436363
-1.0922534211 -5.2908636211 2.0157310859
-1.2463784441 -5.6724688340 1.9822771617
-1.4007489775 -6.0540705368 1.9469840369
-1.5553759422 -6.4355312643 1.9098943600
-1.7102190271 -6.8165347188 1.8710732168
-1.8652277588 -7.1981438727 1.8304053280
-2.0203143963 -7.5786974320 1.7881315953
-2.1755103796 -7.9595254681 1.7441014143
-2.3308442174 -8.3406663844 1.6983311402
4.2467642053 6.7717874157 1.9684949375
4.0898646333 6.3907517237 2.0056186135
3.9331818559 6.0100124771 2.0400987814
3.7766867379 5.6295304542 2.0719676093
3.6203479436 5.2478754378 2.1013353938
3.4642616954 4.8668553462 2.1281117375
3.3084582301 4.4852929045 2.1523834975
3.1529773686 4.1035330010 2.1741502159
2.9978067807 3.7217244433 2.1934273368
2.8429241406 3.3395549022 2.2102464721
2.6880057930 2.9568171638 2.2246401694
2.5331458874 2.5741044395 2.2366100045
2.3783438907 2.1914180286 2.2461806128
2.2235992693 1.8087591863 2.2533766407
2.0689114889 1.4261291245 2.2582227445
1.9142800146 1.0435290118 2.2607435887
1.7597043119 0.6609599741 2.2609638447
1.6051838463 0.2784230947 2.2589081895
1.4507180834 -0.1040805849 2.2546013041
1.2963064895 -0.4865500651 2.2480678726
1.1419485315 -0.8689843868 2.2393325804
0.9876436774 -1.2513826316 2.2284201133
0.8333913962 -1.6337439205 2.2153551564
0.6791911579 -2.0160674137 2.2001623928
0.5250424342 -2.3983523096 2.1828665023
0.3709446983 -2.7805978443 2.1634921609
0.2168974250 -3.1628032902 2.1420640392
0.0629000909 -3.5449679558 2.1186068019
-0.0910478254 -3.9270911848 2.0931451065
-0.2449468433 -4.3091723549 2.0657036030
-0.3987974799 -4.6912108771 2.0363069321
-0.5526002503 -5.0732061949 2.0049797255
-0.7064451278 -5.4550136457 1.9717698060
-0.8605562715 -5.8366089252 1.9367235496
-1.0149119952 -6.2181996725 1.8998412688
-1.1695230841 -6.5996495399 1.8611666823
-1.3243491882 -6.9806446450 1.8207666932
-1.4793406856 -7.3622406963 1.7785179497
-1.6344092372 -7.7427884065 1.7346722008
-1.7895868308 -8.1236082074 1.6890697639
-1.9449019105 -8.5047381499 1.6417270469
4.6319685417 6.6078309460 1.9706528259
4.4751002690 6.2267821417 2.0061930985
4.3184475934 5.8460290322 2.0390910312
4.1619815528 5.4655324813 2.0693787082
4.0056726519 5.0838661058 2.0971546614
3.8496147426 4.7028332952 2.1223427889
3.6938391593 4.3212593740 2.1450197824
3.5383851571 3.9394883416 2.1651876991
3.3832401756 3.5576686145 2.1828633436
3.2283814425 3.1754872944 2.1980760106
3.0734841429 2.7927338961 2.2108598136
2.9186446229 2.4100068306 2.2212200474
2.7638623579 2.0273073712 2.2291813762
2.6091368223 1.6446367464 2.2347684741
2.4544674908 1.2619961407 2.2380060239
2.2998538374 0.8793866947 2.2389187154
2.1452953366 0.4968095057 2.2375312445
1.9907914629 0.1142656280 2.2338683113
1.8363416917 -0.2682439266 2.2279546187
1.6819454985 -0.6507181880 2.2198148718
1.5276023602 -1.0331562275 2.2094737757
1.3733117546 -1.4155571569 2.1969560349
1.2190731602 -1.7979201279 2.1822863521
1.0648860574 -2.1802443314 2.1654894267
0.9107499278 -2.5625289967 2.1465899540
0.7566642546 -2.9447733904 2.1256126244
0.6026285228 -3.3269768162 2.1025821215
0.4486422193 -3.7091386133 2.0775231225
0.2947048327 -4.0912581560 2.0504602962
0.1408158540 -4.4733348525 2.0214183024
-0.0130252240 -4.8553681446 1.9904217917
-0.1668189062 -5.2373575056 1.9574954038
-0.3206526163 -5.6191544325 1.9226892992
-0.4747509393 -6.0007383807 1.8860518410
-0.6290928103 -6.3823168396 1.8475815086
-0.7836888598 -6.7637546083 1.8073230588
-0.9384986739 -7.1447402792 1.7653451546
-1.0934736301 -7.5263220590 1.7215165811
-1.2485246143 -7.9068630076 1.6760996255
-1.4036843166 -8.2876736362 1.6289257792
-1.5589811115 -8.6687916408 1.5800115075
5.0171941942 6.4438276572 1.9676956906
4.8603564337 6.0627673069 2.0016525784
4.7037330718 5.6820018269 2.0329683181
4.5472953221 5.3014921752 2.0616749069
4.3910153072 4.9198162242 2.0878591658
4.2349847700 4.5387723086 2.1114592315
4.0792359413 4.1571887086 2.1325416797
3.9238075528 3.7754084373 2.1511110766
3.7686868428 3.3935794733 2.1671855814
3.6138505514 3.0113884390 2.1807921808
3.4589727856 2.6286215917 2.1919665091
3.3041521465 2.2458823747 2.2007176120
3.1493881182 1.8631720336 2.2070701813
2.9946801847 1.4804917689 2.2110489175
2.8400278293 1.0978427366 2.2126785290
2.6854305360 0.7152260479 2.2119837299
2.5308877886 0.3326427705 2.2089892387
2.3763990717 -0.0499060713 2.2037197779
2.2219638704 -0.4324194961 2.1962000709
2.0675816704 -0.8148965649 2.1864548423
1.9132519587 -1.1973363795 2.1745088158
1.7589742231 -1.5797380833 2.1603867134
1.6047479528 -1.9621008590 2.1441132537
1.4505726382 -2.3444239290 2.1257131514
1.2964477717 -2.7267065540 2.1052111159
1.1423728466 -3.1089480320 2.0826318502
0.9883473586 -3.4911476979 2.0580000505
0.8343708048 -3.8733049222 2.0313404042
0.6804426846 -4.2554191103 2.0026775905
0.5265624991 -4.6374897013 1.9720362781
0.3727297518 -5.0195161675 1.9394411253
0.2189439480 -5.4014980129 1.9049167792
0.0651202642 -5.7832829620 1.8685157275
-0.0889662454 -6.1648542454 1.8302882451
-0.2432951727 -6.5464191465 1.7902310081
-0.3978769757 -6.9278436389 1.7483897793
-0.5526711523 -7.3088188455 1.7048349222
-0.7076302205 -7.6903852460 1.6594275745
-0.8626641244 -8.0709185686 1.6124402451
-1.0178064028 -8.4517191384 1.5636958591
-1.1730853543 -8.8328242953 1.5132109420
5.4024362735 6.2797818905 1.9596474321
5.2456282455 5.8987115411 1.9920210158
5.0890334182 5.5179351647 2.0217546655
4.9326231824 5.1374138210 2.0488802871
4.7763710608 4.7557300527 2.0734730622
4.6203669443 4.3746766227 2.0954852878
4.4646437623 3.9930851170 2.1149734881
4.3092397653 3.6112974666 2.1319447278
4.1541420184 3.2294611665 2.1464185143
3.9993267346 2.8472624474 2.1584195371
3.8444670223 2.4644843262 2.1679849052
3.6896637950 2.0817351088 2.1751274408
3.5349165460 1.6990160122 2.1798718623
3.3802247690 1.3163282075 2.1822428955
3.2255879573 0.9336728210 2.1822652729
3.0710056050 0.5510509335 2.1799637315
2.9164772059 0.1684635821 2.1753630119
2.7620022548 -0.2140882400 2.1684878567
2.6075802475 -0.5966035829 2.1593630092
2.4532106798 -0.9790815388 2.1480132120
2.2988930496 -1.3615212416 2.1344632060
2.1446268552 -1.7439218663 2.1187377291
1.9904115964 -2.1262826278 2.1008615147
1.8362467747 -2.5086027803 2.0808592913
1.6821318927 -2.8908816162 2.0587557811
1.5280664548 -3.2731184656 2.0345756987
1.3740499671 -3.6553126950 2.0083437507
1.2200819378 -4.0374637065 1.9800846343
1.0661618767 -4.4195709368 1.9498230370
0.9122892956 -4.8016338561 1.9175836353
0.7584637085 -5.1836519674 1.8833910942
0.6046846313 -5.5656248052 1.8472700667
0.4508698898 -5.9473963908 1.8092753548
0.2967942385 -6.3289537413 1.7694590682
0.1424773950 -6.7105038798 1.7278161120
-0.0120909093 -7.0919139801 1.6843932214
-0.1668700628 -7.4728777475 1.6392624008
-0.3221458487 -7.8532631756 1.5925054162
-0.4768311352 -8.2349526027 1.5437205129
-0.6319564250 -8.6157422782 1.4934064758
-0.7872179433 -8.9968337314 1.4413518415
5.7876900384 6.1156979034 1.9465321660
5.6309109733 5.7346190800 1.9773225877
5.4743439123 5.3538332593 2.0054743092
5.3179604255 4.9733016117 2.0310191415
5.1617352217 4.5916117556 2.0540207143
5.0057565923 4.2105503753 2.0744453872
4.8500579714 3.8289527059 2.0923397108
4.6946771701 3.4471595022 2.1077132346
4.5396011079 3.0653177303 2.1205868048
4.3848054321 2.6831133172 2.1309828293
4.2299623306 2.3003260569 2.1389398425
4.0751750847 1.9175689479 2.1444744639
3.9204431979 1.5348431774 2.1476114371
3.7657661740 1.1521498861 2.1483755119
3.6111435169 0.7694901692 2.1467914437
3.4565747309 0.3868650765 2.1428839912
3.3020593208 0.0042756131 2.1366779152
3.1475967919 -0.3782772594 2.1281979777
2.9931866507 -0.7607926235 2.1174689400
2.8388284044 -1.1432696036 2.1045155618
2.6845215613 -1.5257073659 2.0893625993
2.5302656310 -1.9081051180 2.0720348052
2.3760601241 -2.2904621073 2.0525569266
2.2219045531 -2.6727776202 2.0309537042
2.0677984317 -3.0550509817 2.0072498712
1.9137412753 -3.4372815539 1.9814701528
1.7597326010 -3.8194687354 1.9536392646
1.6057719277 -4.2016119599 1.9237819121
1.4518587761 -4.5837106956 1.8919227901
1.2979926688 -4.9657644443 1.8580865814
1.1441731306 -5.3477727395 1.8222979564
0.9903996880 -5.7297351466 1.7845815724
0.8365928626 -6.1114920519 1.7449945304
0.6825271675 -6.4930342676 1.7035906976
0.5282215975 -6.8745685039 1.6603632410
0.3732811717 -7.2552925185 1.6155135337
0.2185323834 -7.6360348172 1.5688445925
0.0636454771 -8.0172925178 1.5203307044
-0.0910287855 -8.3989628024 1.4699669428
-0.2461374905 -8.7797407991 1.4180841601
-0.4013819538 -9.1608177465 1.3644607517
6.1729509045 5.9515798622 1.9283742123
6.0162000447 5.5704940641 1.9575816737
5.8596599949 5.1897002271 1.9841516859
5.7033025063 4.8091596399 2.0081159619
5.5471032649 4.4274653931 2.0295266830
5.3911492086 4.0463975974 2.0483641535
5.2354740884 3.6647954717 2.0646650428
5.0801153161 3.2829985032 2.0784413673
4.9250596930 2.9011530845 2.0897153014
4.7702822633 2.5189449249 2.0985069889
4.6154543704 2.1361506161 2.1048563399
4.4606817177 1.7533876781 2.1087837857
4.3059638194 1.3706572671 2.1103140937
4.1513001899 0.9879604924 2.1094720367
3.9966903442 0.6052984171 2.1062823912
3.8421337974 0.2226720588 2.1007699363
3.6876300653 -0.1599176097 2.0929594520
3.5331786647 -0.5424696598 2.0828757180
3.3787791128 -0.9249832064 2.0705435124
3.2244309284 -1.3074574073 2.0559876099
3.0701336309 -1.6898914616 2.0392327817
2.9158867410 -2.0722846098 2.0203037933
2.7616897810 -2.4546361321 1.9992254038
2.6075422743 -2.8369453480 1.9760223648
2.4534437459 -3.2192116148 1.9507194198
2.2993937224 -3.6014343272 1.9233413025
2.1453917319 -3.9836129160 1.8939127364
1.9914373046 -4.3657468469 1.8624584340
1.8375299719 -4.7478356198 1.8290030958
1.6836692675 -5.1298787673 1.7935714097
1.5298547269 -5.5118758544 1.7561880502
1.3760858873 -5.8938264766 1.7168776779
1.2218746116 -6.2751773412 1.6758098305
1.0678263501 -6.6566445310 1.6328308940
0.9135415104 -7.0380760274 1.5880361058
0.7587761361 -7.4184807696 1.5416508501
0.6042762139 -7.8000554368 1.4932354833
0.4490291053 -8.1803539972 1.4433641436
0.2940272105 -8.5606535942 1.3917197115
0.1389052375 -8.9411543960 1.3383327785
-0.0163739535 -9.3218637213 1.2832277790
6.5582144512 5.7874318325 1.9051980842
6.4014910533 5.4063405310 1.9328228443
6.2449772748 5.0255400786 1.9578114217
6.0886450495 4.6449918901 1.9801954277
5.9324708370 4.2632949145 2.0000157138
5.7765404624 3.8822222056 2.0172663935
5.6208878097 3.5006172938 2.0319743586
5.4655499316 3.1188183080 2.0441540726
5.3105135375 2.7369710251 2.0538290251
5.1557530330 2.3547610203 2.0610171163
5.0009389899 1.9719617055 2.0657595809
4.8461795869 1.5891949513 2.0680806709
4.6914743495 1.2064618814 2.0680051762
4.5368228032 0.8237635729 2.0655578909
4.3822244742 0.4411010560 2.0607636118
4.2276788890 0.0584753152 2.0536471367
4.0731855750 -0.3241127097 2.0442332632
3.9187440603 -0.7066621240 2.0325467876
3.7643538738 -1.0891720759 2.0186125028
3.6100145456 -1.4716417563 2.0024551980
3.4557256066 -1.8540703982 1.9840996569
3.3014865893 -2.2364572754 1.9635706569
3.1472970272 -2.6188017012 1.9408929677
2.9931564552 -3.0011030285 1.9160913506
2.8390644098 -3.3833606472 1.8891905575
2.6850204288 -3.7655739849 1.8602153294
2.5310240517 -4.1477425044 1.8291903965
2.3770748194 -4.5298657038 1.7961404768
2.2231722750 -4.9119431142 1.7610902754
2.0693159627 -5.2939743000 1.7240644838
1.9150891687 -5.6756022921 1.6851946676
1.7613245486 -6.0575408837 1.6442942182
1.6075394397 -6.4392345802 1.6015331583
1.4532140089 -6.8201257761 1.5571015005
1.2989622778 -7.2014289431 1.5107447305
1.1438020124 -7.5812276987 1.4629520229
0.9886624711 -7.9610992684 1.4133570181
0.8333681529 -8.3411578264 1.3619843809
0.6782769931 -8.7211619738 1.3088548452
0.5230074945 -9.1012837237 1.2540092482
0.3674802488 -9.4814892858 1.1974868738
6.9434764283 5.6232577725 1.8770284761
6.7867797651 5.2421624086 1.9030708493
6.6302915351 4.8613567118 1.9264783194
6.4739838557 4.4808022318 1.9472823932
6.3178337635 4.0991041512 1.9655127246
6.1619262032 3.7180279967 1.9811770827
6.0062950148 3.3364219282 1.9942926991
5.8509769300 2.9546226292 2.0048764603
5.6959585929 2.5727752185 2.0129531562
5.5412137356 2.1905652202 2.0185384673
5.3864122296 1.8077628911 2.0216749001
5.2316647804 1.4249942801 2.0223905306
5.0769709248 1.0422604783 2.0207101704
4.9223302001 0.6595625291 2.0166586333
4.7677421439 0.2769014293 2.0102607347
4.6132062946 -0.1057218702 2.0015412897
4.4587221914 -0.4883064640 1.9905251124
4.3042893740 -0.8708514910 1.9772370137
4.1499073833 -1.2533561336 1.9617018005
3.9955757609 -1.6358196166 1.9439442744
3.8412940497 -2.0182412070 1.9239892306
3.6870617937 -2.4006202122 1.9018614568
3.5328785381 -2.7829559791 1.8775857320
3.3787438295 -3.1652478936 1.8511868256
3.2246572157 -3.5474953793 1.8226894963
3.0706182460 -3.9296978959 1.7921184917
2.9166264713 -4.3118549390 1.7594985469
2.7622679060 -4.6936105093 1.7249592668
2.6083697578 -5.0756762390 1.6883181309
2.4545174847 -5.4576952136 1.6497021481
2.3007106430 -5.8396670580 1.6091359970
2.1466359177 -6.2211545683 1.5667599044
1.9928694937 -6.6027897882 1.5224188399
1.8379584257 -6.9827544994 1.4766557976
1.6828182694 -7.3622898297 1.4291666920
1.5275861693 -7.7419138624 1.3798660422
1.3723358118 -8.1215707712 1.3287769603
1.2168721134 -8.5013622154 1.2759303808
1.0615019416 -8.8810429558 1.2213536890
0.9066883850 -9.2611760113 1.1648980621
0.7517501440 -9.6415049212 1.1067268621
7.3287327619 5.4590615267 1.8438902509
7.1720621238 5.0779635077 1.8683506052
7.0155987382 4.6971539060 1.8901773468
6.8593149069 4.3165944134 1.9094018750
6.7031880525 3.9348968106 1.9260427924
6.5473024655 3.5538186405 1.9401213538
6.3916917697 3.1722130018 1.9516452588
6.2363924141 2.7904150473 1.9606337897
6.0813910019 2.4085691969 1.9671130208
5.9266605594 2.0263610045 1.9710964390
5.7718703265 1.6435575976 1.9726277684
5.6171335846 1.2607890334 1.9717389084
5.4624498825 0.8780563688 1.9684546897
5.3078187692 0.4953606131 1.9627999450
5.1532397947 0.1127027288 1.9547995066
4.9987125091 -0.2699163678 1.9444782058
4.8442364638 -0.6524958056 1.9318608711
4.6898112105 -1.0350347581 1.9169723269
4.5354363018 -1.4175324421 1.8998373926
4.3811112916 -1.7999881168 1.8804808807
4.2268357346 -2.1824010832 1.8589275965
4.0726091867 -2.5647706828 1.8352023365
3.9184312047 -2.9470962963 1.8093298876
3.7643013471 -3.3293773430 1.7813350256
3.6102191730 -3.7116132796 1.7512425154
3.4557740045 -4.0934500793 1.7191824344
3.3017864682 -4.4755953200 1.6849714086
3.1478453204 -4.8576940639 1.6487369190
2.9939501257 -5.2397459044 1.6105036759
2.8397891504 -5.6213145568 1.5704119185
2.6859855908 -6.0032732044 1.5282578326
2.5312820181 -6.3841104237 1.4845027116
2.3764451670 -6.7641334159 1.4390227487
2.2213296461 -7.1434486898 1.3918526314
2.0660610356 -7.5228388826 1.3428608481
1.9106481017 -7.9022804338 1.2920735489
1.7551263762 -8.2817126029 1.2395202699
1.6000484576 -8.6614874393 1.1850775029
1.4451588221 -9.0412060932 1.1288805815
1.2900901937 -9.4210399583 1.0709724555
1.1347269406 -9.8010156843 1.0113869283
7.7106199084 5.2938276116 1.8062051125
7.5538341438 4.9130545675 1.8290941077
7.3973182706 4.5325560069 1.8493474109
7.2410193033 4.1522781911 1.8669985562
7.0852816524 3.7710419438 1.8820160932
6.9297139445 3.3902887876 1.8944851404
6.7743000506 3.0089016553 1.9044088763
6.6191324216 2.6272543862 1.9118020946
6.4642244177 2.2455117555 1.9166885554
6.3095475722 1.8633602990 1.9190792702
6.1547656350 1.4805562244 1.9190180642
6.0000367951 1.0977878891 1.9165372625
5.8453606112 0.7150563194 1.9116617109
5.6907366422 0.3323624945 1.9044162555
5.5361644478 -0.0502926539 1.8948257413
5.3816435881 -0.4329082398 1.8829150109
5.2271736238 -0.8154834226 1.8687089032
5.0727541165 -1.1980174060 1.8522322519
4.9183846287 -1.5805094369 1.8335098848
4.7640647234 -1.9629588047 1.8125666217
4.6097939651 -2.3453648400 1.7894272743
4.4555719190 -2.7277269136 1.7641166447
4.3013981512 -3.1100444354 1.7366595241
4.1472722293 -3.4923168536 1.7070806923
3.9931937218 -3.8745436531 1.6754049170
3.8391621985 -4.2567243545 1.6416569521
3.6851772303 -4.6388585133 1.6058615380
3.5308599789 -5.0204646005 1.5681750405
3.3769679869 -5.4025063183 1.5283618539
3.2224825299 -5.7836426174 1.4868159243
3.0678537109 -6.1644096515 1.4434161021
2.9131243209 -6.5448260335 1.3981818306
2.7584333777 -6.9244968747 1.3511924737
2.6035393785 -7.3038041489 1.3024448949
2.4485406670 -7.6831850473 1.2518695152
2.2934587057 -8.0626250452 1.1994890110
2.1383518572 -8.4420774610 1.1453268396
1.9830247404 -8.8216463302 1.0894155127
1.8277295877 -9.2011389442 1.0317781617
1.6730058523 -9.5808733316 0.9722937277
1.5181250372 -9.9607430245 0.9111148800
8.0915257078 5.1293761608 1.7637563679
7.9347995650 4.7490028885 1.7850648430
7.7783530789 4.3688375432 1.8037406984
7.6221268292 3.9888362169 1.8198170686
7.4664936508 3.6078573445 1.8332490374
7.3110248453 3.2273119540 1.8441373257
7.1559690459 2.8462207991 1.8524492185
7.0010220487 2.4647629062 1.8582434498
6.8462614608 2.0831429784 1.8615372155
6.6916631378 1.7010551656 1.8623387338
6.5368885524 1.3182505144 1.8606915987
6.3821667345 0.9354823708 1.8566254350
6.2274972516 0.5527517338 1.8501651004
6.0728796719 0.1700595541 1.8413354515
5.9183135640 -0.2125932642 1.8301613435
5.7637984970 -0.5952058628 1.8166676280
5.6093340408 -0.9777774290 1.8008791517
5.4549197658 -1.3603071937 1.7828207558
5.3005552432 -1.7427944313 1.7625172739
5.1462400449 -2.1252384583 1.7399935316
4.9919737441 -2.5076386320 1.7152743448
4.8377559144 -2.8899943497 1.6883845193
4.6835861305 -3.2723050476 1.6593488493
4.5294639684 -3.6545701996 1.6281921170
4.3753890048 -4.0367893162 1.5949390910
4.2213608175 -4.4189619429 1.5596145264
4.0673789855 -4.8010876599 1.5222431636
3.9130808535 -5.1826329740 1.4829925428
3.7585848062 -5.5637065104 1.4418606333
3.6039634460 -5.9443592824 1.3988587623
3.4493771957 -6.3251727045 1.3538882673
3.2947079951 -6.7056576919 1.3070784920
3.1400431738 -7.0848692178 1.2586199438
2.9852769312 -7.4641574844 1.2083098705
2.8304333695 -7.8435061130 1.1561708773
2.6755374377 -8.2229030717 1.1022246952
2.5206548791 -8.6023055845 1.0464928315
2.3656201401 -8.9818115039 0.9890052110
2.2107043239 -9.3612461662 0.9297777763
2.0555240817 -9.7407676244 0.8688621777
1.9009733305 -10.1205031094 0.8061148684
8.4722409973 4.9655096153 1.7165010295
8.3156195911 4.5855021981 1.7362317309
8.1592746689 4.2056337913 1.7533326917
8.0031449469 3.8258740460 1.7678364853
7.8476391285 3.4451158468 1.7796846585
7.6922871910 3.0647452324 1.7889933741
7.5373597912 2.6838033103 1.7957197525
7.3827580094 2.3025576184 1.7999025196
7.2282114933 1.9210642380 1.8015975480
7.0737192737 1.5390381316 1.8008087049
6.9189509322 1.1562335333 1.7975786243
6.7642350486 0.7734661471 1.7919300761
6.6095711997 0.3907369449 1.7838879284
6.4549589629 0.0080468511 1.7734770476
6.3003979158 -0.3746032573 1.7607222970
6.1458876369 -0.7572125487 1.7456485359
5.9914277047 -1.1397802366 1.7282806177
5.8370176987 -1.5223055785 1.7086433893
5.6826571989 -1.9047878748 1.6867616894
5.5283457862 -2.2872264676 1.6626603477
5.3740830418 -2.6696207399 1.6363641836
5.2198685483 -3.0519701140 1.6078980054
5.0657018887 -3.4342740512 1.5772866093
4.9115826471 -3.8165320497 1.5445547786
4.7575104085 -4.1987436441 1.5097272825
4.6034847587 -4.5809084036 1.4728288760
4.4491421069 -4.9624210575 1.4340403678
4.2946063081 -5.3433950312 1.3933587084
4.1401254962 -5.7245037726 1.3506600375
3.9855307580 -6.1052149818 1.3060879626
3.8308687621 -6.4855348019 1.2596633710
3.6762291717 -6.8660347225 1.2112940950
3.5216177964 -7.2452707368 1.1612755712
3.3669443029 -7.6245484198 1.1094063133
3.2122153558 -8.0038721756 1.0557078717
3.0574562494 -8.3832322009 1.0002015194
2.9027352234 -8.7625886872 0.9429076781
2.7479085788 -9.1420316302 0.8838549461
2.5932529836 -9.5214007731 0.8230546640
2.4384426865 -9.9008356275 0.7605546700
2.2833449765 -10.2803958824 0.6963870585
8.8527916597 4.8024346783 1.6644798444
8.6963020791 4.4227286747 1.6826358873
8.5400779125 4.0431002079 1.6981645451
8.3840587532 3.6635325013 1.7110978970
8.2286957431 3.2829463667 1.7213638828
8.0734725857 2.9027088625 1.7290940957
7.9186856254 2.5218764382 1.7342355553
7.7642256010 2.1407153485 1.7368299326
7.6100179951 1.7593590567 1.7369122003
7.4556796840 1.3773931614 1.7345291270
