-8.0174210329 -5.5098440582 2.5360540188
-8.1731699092 -5.8939153120 2.5138845405
-1.5909126493 9.3291054824 1.8936901343
-1.7492842302 8.9467928957 1.9546965121
-1.9070822857 8.5645942840 2.0131197358
-2.0644505309 8.1825740452 2.0689574468
-2.2221519708 7.8003899674 2.1222062177
-2.3794368354 7.4185365769 2.1728917502
-2.5367195752 7.0367523558 2.2210372538
-2.6935364653 6.6540132044 2.2668931068
-2.8487159530 6.2691009443 2.3108045005
-3.0034456507 5.8836697463 2.3523595338
-3.1581985207 5.4974667791 2.3915527012
-3.3128650889 5.1112876116 2.4282952020
-3.4674460246 4.7251344655 2.4626114886
-3.6219420066 4.3390095188 2.4945260465
-3.7763537229 3.9529149044 2.5240633928
-3.9306818694 3.5668527107 2.5512480752
-4.0849271502 3.1808249794 2.5761046697
-4.2390902760 2.7948337063 2.5986577793
-4.3931719646 2.4088808394 2.6189320326
-4.5471729394 2.0229682803 2.6369520819
-4.7010939297 1.6370978819 2.6527426015
-4.8549356690 1.2512714497 2.6663282867
-5.0086988956 0.8654907410 2.6777338517
-5.1623843515 0.4797574648 2.6869840282
-5.3159927819 0.0940732818 2.6941035637
-5.4695249345 -0.2915601953 2.6991172204
-5.6229815596 -0.6771414019 2.7020497732
-5.7763634091 -1.0626688211 2.7029260084
-5.9296712357 -1.4481409839 2.7017707225
-6.0829057936 -1.8335564680 2.6986087203
-6.2360678366 -2.2189138984 2.6934648137
-6.3891581187 -2.6042119464 2.6863638206
-6.5423699397 -2.9893234336 2.6773135841
-6.6960361132 -3.3741263889 2.6663145487
-6.8501147672 -3.7589445873 2.6534000650
-7.0046220162 -4.1435397207 2.6385960285
-7.1594883381 -4.5273649270 2.6219438441
-7.3146443664 -4.9122335076 2.6034518129
-7.4699253297 -5.2952919992 2.5832081710
-7.6254015650 -5.6788243457 2.5611934761
-7.7811189224 -6.0628993659 2.5374193763
-1.2041112991 9.1693946424 1.9749112933
-1.3619458696 8.7861435794 2.0345937550
-1.5193931594 8.4032320253 2.0916190388
-1.6765193287 8.0206487736 2.1460114576
-1.8340478214 7.6380051042 2.1977873092
-1.9912040589 7.2557695183 2.2469766425
-2.1473010762 6.8711437325 2.2941432928
-2.3029050272 6.4862280295 2.3388778509
-2.4580254122 6.1012609838 2.3811614396
-2.6126950891 5.7157706420 2.4210806349
-2.7673909948 5.3294990086 2.4586329970
-2.9220015198 4.9432532836 2.4937338827
-3.0765273396 4.5570356871 2.5264077964
-3.2309691386 4.1708483936 2.5566792758
-3.3853276096 3.7846935315 2.5845728896
-3.5396034532 3.3985731812 2.6101132366
-3.6937973770 3.0124893759 2.6333249436
-3.8479100954 2.6264441004 2.6542326636
-4.0019423288 2.2404392907 2.6728610748
-4.1558948029 1.8544768335 2.6892348783
-4.3097682484 1.4685585666 2.7033787967
-4.4635634003 1.0826862778 2.7153175725
-4.6172809976 0.6968617058 2.7250759663
-4.7709217821 0.3110865392 2.7326787556
-4.9244864988 -0.0746375828 2.7381507325
-5.0779758948 -0.4603090704 2.7415167031
-5.2313907187 -0.8459263831 2.7428014848
-5.3847317206 -1.2314880294 2.7420299062
-5.5379996513 -1.6169925664 2.7392268039
-5.6911952619 -2.0024385996 2.7344170227
-5.8443193034 -2.3878247822 2.7276254130
-5.9973725260 -2.7731498149 2.7188768302
-6.1505456638 -3.1582789805 2.7081824622
-6.3041742581 -3.5430952547 2.6955472276
-6.4582163973 -3.9279237427 2.6810013261
-6.6126885764 -4.3125269826 2.6645728429
-6.7675220274 -4.6963600710 2.6463069982
-6.9226444215 -5.0812318732 2.6261963201
-7.0778953605 -5.4642975889 2.6043509068
-7.2333414550 -5.8478343835 2.5807331800
-7.3890285818 -6.2319106233 2.5553547529
-0.8151738523 9.0069945719 2.0514327997
-0.9728621752 8.6230690837 2.1096739605
-1.1302047504 8.2396409028 2.1652179029
-1.2872510821 7.8566465264 2.2181029474
-1.4441225678 7.4717821996 2.2687308149
-1.6005768796 7.0879545348 2.3166530991
-1.7566186101 6.7032798753 2.3622018488
-1.9121658765 6.3183136148 2.4053117517
-2.0672291785 5.9332947786 2.4459658637
-2.2218411041 5.5477485052 2.4842474575
-2.3764824251 5.1614116083 2.5201571578
-2.5310393172 4.7751027586 2.5536146487
-2.6855124606 4.3888241726 2.5846444878
-2.8399025441 4.0025780187 2.6132712651
-2.9942102644 3.6163664172 2.6395196020
-3.1484363250 3.2301914390 2.6634141487
-3.3025814365 2.8440551056 2.6849795830
-3.4566463152 2.4579593883 2.7042406086
-3.6106316830 2.0719062080 2.7212219532
-3.7645382666 1.6858974350 2.7359483669
-3.9183667973 1.2999348886 2.7484446204
-4.0721180098 0.9140203369 2.7587355033
-4.2257926425 0.5281554970 2.7668458228
-4.3793914364 0.1423420352 2.7728004015
-4.5329151345 -0.2434184333 2.7766240761
-4.6863644821 -0.6291243438 2.7783416959
-4.8397402250 -1.0147741824 2.7779781206
-4.9930431105 -1.4003664850 2.7755582197
-5.1462738859 -1.7858998372 2.7711068703
-5.2994332982 -2.1713728740 2.7646489557
-5.4525220944 -2.5567842791 2.7562093644
-5.6055410200 -2.9421327843 2.7458129880
-5.7586781340 -3.3272762028 2.7334744253
-5.9122715492 -3.7121025650 2.7192030266
-6.0662793882 -4.0969381964 2.7030258211
-6.2207184760 -4.4815465634 2.6849730697
-6.3755207301 -4.8653848864 2.6650937766
-6.5306112064 -5.2502569929 2.6433647546
-6.6858334449 -5.6333276443 2.6199178401
-6.8412507027 -6.0168664940 2.5946974108
-6.9969088743 -6.4009414439 2.5677150549
-0.4246968248 8.8392689676 2.1235988916
-0.5823342917 8.4553004504 2.1802405222
-0.7396277038 8.0718295562 2.2341860334
-0.8966263669 7.6887927515 2.2854737178
-1.0534440488 7.3038831706 2.3344880000
-1.2098476771 6.9200116420 2.3808013042
-1.3658357871 6.5352909121 2.4247306802
-1.5213282591 6.1502770597 2.4662144040
-1.6763365523 5.7652094872 2.5052375030
-1.8308930523 5.3796105577 2.5418798816
-1.9854822253 4.9932118695 2.5761452209
-2.1399879486 4.6068433943 2.6079576974
-2.2944109064 4.2205073415 2.6373419224
-2.4487517905 3.8342058710 2.6643225391
-2.6030113001 3.4479410924 2.6889242215
-2.7571901405 3.0617150641 2.7111716719
-2.9112890240 2.6755297934 2.7310896192
-3.0653086674 2.2893872356 2.7487028180
-3.2192497930 1.9032892940 2.7640360453
-3.3731131272 1.5172378196 2.7771141002
-3.5268994003 1.1312346106 2.7879618016
-3.6806093461 0.7452814130 2.7966039858
-3.8342437008 0.3593799205 2.8030655059
-3.9878032029 -0.0264682260 2.8073712297
-4.1412885929 -0.4122614373 2.8095460375
-4.2947006124 -0.7979981766 2.8096148213
-4.4480400039 -1.1836769581 2.8076024827
-4.6013075102 -1.5692963475 2.8035339314
-4.7545038738 -1.9548549611 2.7974340836
-4.9076298371 -2.3403514655 2.7893278610
-5.0606861411 -2.7257845765 2.7792401885
-5.2136735258 -3.1111530592 2.7671959937
-5.3667772661 -3.4963073308 2.7532133458
-5.5203378914 -3.8811405798 2.7373059765
-5.6743136322 -4.2659802422 2.7194977313
-5.8287215940 -4.6505907921 2.6998210281
-5.9834943117 -5.0344317365 2.6783286178
-6.1385545709 -5.4193012718 2.6549816815
-6.2937494181 -5.8023746039 2.6299336346
-6.4491391276 -6.1859131539 2.6031109322
-6.6047696026 -6.5699843475 2.5745251470
-0.0341208554 8.6714103418 2.1902628046
-0.1917085104 8.2874011937 2.2453036160
-0.3489538354 7.9038898749 2.2976494797
-0.5059059298 7.5208128329 2.3473386514
-0.6626712652 7.1358607913 2.3947379657
-0.8190256399 6.7519479305 2.4394410474
-0.9749618423 6.3671839838 2.4817496973
-1.1304014583 5.9821255568 2.5216058499
-1.2853568650 5.5970123544 2.5589965401
-1.4398603148 5.2113640994 2.5939982434
-1.5943998256 4.8249071542 2.6266176848
-1.7488568909 4.4384826098 2.6567836919
-1.9032321974 4.0520926663 2.6845209302
-2.0575264388 3.6657394720 2.7098540965
-2.2117403152 3.2794251231 2.7328079176
-2.3658745331 2.8931516630 2.7534071478
-2.5199298043 2.5069210820 2.7716765678
-2.6739068454 2.1207353169 2.7876409822
-2.8278063777 1.7345962504 2.8013252179
-2.9816291260 1.3485057119 2.8127541225
-3.1353758185 0.9624654762 2.8219525623
-3.2890471861 0.5764772648 2.8289454205
-3.4426439621 0.1905427448 2.8337575955
-3.5961668815 -0.1953364698 2.8364139993
-3.7496166807 -0.5811588187 2.8369395555
-3.9029940965 -0.9669227944 2.8353591981
-4.0562998666 -1.3526269423 2.8316978693
-4.2095347284 -1.7382698596 2.8259805184
-4.3626994185 -2.1238501954 2.8182321000
-4.5157946730 -2.5093666495 2.8084775727
-4.6688212265 -2.8948179722 2.7967418971
-4.8217798120 -3.2802029636 2.7830500352
-4.9748528112 -3.6653647221 2.7674235813
-5.1283830175 -4.0502016942 2.7498805917
-5.2823288425 -4.4350423158 2.7304417181
-5.4367076240 -4.8196521470 2.7091415145
-5.5914524469 -5.2034931400 2.6860364348
-5.7464841687 -5.5883572775 2.6610721376
-5.9016529154 -5.9714310742 2.6344234229
-6.0570163452 -6.3549670129 2.6059989736
-6.2126203609 -6.7390320321 2.5758103565
0.3565450401 8.5034256665 2.2514442838
0.1990061120 8.1193783278 2.3048830777
0.0418077595 7.7358289132 2.3556281669
-0.1150989024 7.3527138635 2.4037177610
-0.2718133914 6.9677221992 2.4495008392
-0.4281199810 6.5837705783 2.4925925628
-0.5840060307 6.1989663119 2.5332792582
-0.7393947711 5.8138663722 2.5715065832
-0.8942994552 5.4287106913 2.6072636130
-1.0487522722 5.0430164892 2.6406233389
-1.2032446484 4.6565048742 2.6715955121
-1.3576556053 4.2700278659 2.7001137634
-1.5119858306 3.8835876520 2.7262028128
-1.6662360185 3.4971863668 2.7498874108
-1.8204068692 3.1108260904 2.7711923373
-1.9744990884 2.7245088483 2.7901423986
-2.1285133866 2.3382366111 2.8067624266
-2.2824504788 1.9520112942 2.8210772761
-2.4363110839 1.5658347578 2.8331118236
-2.5900959236 1.1797088066 2.8428909645
-2.7438057230 0.7936351897 2.8504396125
-2.8974412091 0.4076156015 2.8557826964
-3.0510031107 0.0216516806 2.8589451596
-3.2044921579 -0.3642549888 2.8599519577
-3.3579090817 -0.7501028770 2.8588280565
-3.5112546135 -1.1358905088 2.8555984311
-3.6645294845 -1.5216164618 2.8502880635
-3.8177344255 -1.9072793675 2.8429219416
-3.9708701663 -2.2928779092 2.8335250569
-4.1239374356 -2.6784108225 2.8221224040
-4.2769369604 -3.0638768935 2.8087389781
-4.4298694654 -3.4492749590 2.7933997743
-4.5829143310 -3.8344408810 2.7761299609
-4.7364164636 -4.2192784578 2.7569518535
-4.8903345294 -4.6041170150 2.7358829067
-5.0446860506 -4.9887232751 2.7129597857
-5.1994045964 -5.3725617896 2.6882425979
-5.3544094342 -5.7574177571 2.6616616128
-5.5095533487 -6.1404898462 2.6334127875
-5.6648917438 -6.5240209104 2.6033872111
-5.8204705126 -6.9080773906 2.5715964544
0.7472918237 8.3353220100 2.3071635064
0.5898005001 7.9512389580 2.3589991786
0.4326479709 7.5676538117 2.4081424583
0.2757855727 7.1845030171 2.4546315006
0.1191203918 6.7994746065 2.4987971921
-0.0371399152 6.4154868322 2.5402765322
-0.1929776024 6.0306451800 2.5793401727
-0.3483174837 5.6455068273 2.6159375530
-0.5031736441 5.2603118565 2.6500598178
-0.6575782807 4.8745751247 2.6817764260
-0.8120260836 4.4880124715 2.7111001305
-0.9663935124 4.1014866446 2.7379695111
-1.1206812542 3.7149998166 2.7624093424
-1.2748900026 3.3285541048 2.7844444288
-1.4290204564 2.9421515702 2.8040996027
-1.5830733192 2.5557942181 2.8213997228
-1.7370492989 2.1694839966 2.8363696716
-1.8909491077 1.7832227972 2.8490343539
-2.0447734603 1.3970124547 2.8594186948
-2.1985230748 1.0108547470 2.8675476375
-2.3521986713 0.6247513949 2.8734461418
-2.5058009717 0.2387040631 2.8771391820
-2.6593306992 -0.1472856404 2.8786517455
-2.8127885779 -0.5332161633 2.8780088301
-2.9661753321 -0.9190860092 2.8752354434
-3.1194916864 -1.3048937364 2.8703566002
-3.2727383645 -1.6906379578 2.8633973213
-3.4259160895 -2.0763173404 2.8543826318
-3.5790255834 -2.4619306041 2.8433375594
-3.7320675660 -2.8474765215 2.8302871329
-3.8850427557 -3.2329539166 2.8152563810
-4.0379518682 -3.6183616645 2.7982703305
-4.1909711750 -4.0035284767 2.7793577664
-4.3444475465 -4.3883635919 2.7585451929
-4.4983399773 -4.7731971160 2.7358468680
-4.6526661271 -5.1577970080 2.7113015398
-4.8073599848 -5.5416305689 2.6849729147
-4.9623395609 -5.9264756550 2.6567760306
-5.1174598852 -6.3095439126 2.6269277411
-5.2727744630 -6.6930678920 2.5953017475
-5.4283291687 -7.0771135269 2.5619096339
1.1381104584 8.1671065193 2.3574410854
0.9806655836 7.7829902626 2.4076726288
0.8235576975 7.3993717779 2.4552131592
0.6667383656 7.0161875299 2.5001007689
0.5101209214 6.6311252811 2.5426480435
0.3539053657 6.2471039887 2.5825140880
0.1981142205 5.8622279148 2.6199537033
0.0428211521 5.4770542790 2.6549201634
-0.1119887115 5.0918232363 2.6874067092
-0.2663476472 4.7060474235 2.7174792227
-0.4207534642 4.3194373991 2.7451534307
-0.5750799678 3.9328664299 2.7703729997
-0.7293278437 3.5463366705 2.7931627589
-0.8834977830 3.1598502181 2.8135475662
-1.0375904820 2.7734091126 2.8315523068
-1.1916066407 2.3870153356 2.8472018906
-1.3455469635 2.0006708105 2.8605212509
-1.4994121578 1.6143774022 2.8715353416
-1.6532029337 1.2281369177 2.8802691358
-1.8069200036 0.8419511051 2.8867476237
-1.9605640818 0.4558216552 2.8909958106
-2.1141358836 0.0697502002 2.8930387153
-2.2676361256 -0.3162616844 2.8929013677
-2.4210655243 -0.7022124808 2.8906088075
-2.5744247966 -1.0881007275 2.8861860824
-2.7277146587 -1.4739250188 2.8796582460
-2.8809358261 -1.8596840045 2.8710503566
-3.0340890129 -2.2453763892 2.8603874751
-3.1871749318 -2.6310009311 2.8476946640
-3.3401942934 -3.0165564415 2.8329969851
-3.4931478060 -3.4020417841 2.8163194989
-3.6460361756 -3.7874558735 2.7976872624
-3.7990324581 -4.1726203599 2.7771327150
-3.9524853425 -4.5574500067 2.7546864708
-4.1063542239 -4.9422755907 2.7303595978
-4.2606568544 -5.3268663791 2.7041928956
-4.4153275800 -5.7106925681 2.6762536095
-4.5702834807 -6.0955241275 2.6464417263
-4.7253814269 -6.4785864825 2.6149947047
-4.8806733740 -6.8621012240 2.5817690899
-5.0362051684 -7.2461337700 2.5467764881
1.5289919310 7.9987864008 2.4022980720
1.3715923198 7.6146394734 2.4509245791
1.2145278699 7.2309900686 2.4968615181
1.0577503823 6.8477746819 2.5401469096
0.9011790755 6.4626815277 2.5810748608
0.7450067161 6.0786293750 2.6193268122
0.5892602678 5.6937218665 2.6551415645
0.4340119431 5.3085160998 2.6884762733
0.2792461283 4.9232522251 2.7193262976
0.1249303945 4.5374408023 2.7477539055
-0.0294360420 4.1507871006 2.7737777634
-0.1837242383 3.7641746874 2.7973467554
-0.3379348772 3.3776056967 2.8184857645
-0.4920686464 2.9910822032 2.8372197022
-0.6461262377 2.6046062223 2.8535735057
-0.8001083470 2.2181797097 2.8675721359
-0.9540156730 1.8318045612 2.8792405759
-1.1078489176 1.4454826129 2.8886038280
-1.2616087848 1.0592156409 2.8956869128
-1.4152959801 0.6730053623 2.9005148663
-1.5689112105 0.2868534341 2.9031127385
-1.7224551840 -0.0992385450 2.9035055910
-1.8759286088 -0.4852690352 2.9017184958
-2.0293321934 -0.8712365547 2.8977765330
-2.1826666454 -1.2571396791 2.8917047891
-2.3359326718 -1.6429770406 2.8835283552
-2.4891309787 -2.0287473279 2.8732723255
-2.6422622703 -2.4144492848 2.8609617958
-2.7953272489 -2.8000817093 2.8466218612
-2.9483266146 -3.1856434534 2.8302776155
-3.1012610652 -3.5711334216 2.8119541493
-3.2541312953 -3.9565505701 2.7916765482
-3.4071070410 -4.3417095799 2.7694809377
-3.5605386669 -4.7265308169 2.7454019572
-3.7143860406 -5.1113456213 2.7194474960
-3.8686669622 -5.4959246380 2.6916603708
-4.0233160742 -5.8797410982 2.6621113010
-4.1782498457 -6.2645565571 2.6306854246
-4.3333265927 -6.6476109949 2.5976404841
-4.4885970617 -7.0311144071 2.5628161258
-4.6441070615 -7.4151316873 2.5262239868
1.9199272752 7.8303689016 2.4417559561
1.7625717173 7.4461938580 2.4887766214
1.6055494738 7.0625159698 2.5331092264
1.4488125878 6.6792717766 2.5747917115
1.2922857970 6.2941506681 2.6140995574
1.1361550593 5.9100703291 2.6507367348
0.9804514446 5.5251343891 2.6849259208
0.8252457780 5.1398996591 2.7166281920
0.6705217496 4.7546062065 2.7458410457
0.5162467067 4.3687626587 2.7726231038
0.3619170355 3.9820689908 2.7969959338
0.2076645219 3.5954188449 2.8189137592
0.0534884875 3.2088143316 2.8384015170
-0.1006117506 2.8222575001 2.8554841713
-0.2546368789 2.4357503388 2.8701867108
-0.4085875869 2.0492947749 2.8825341468
-0.5624645673 1.6628926740 2.8925515111
-0.7162685147 1.2765458407 2.9002638539
-0.8700001254 0.8902560185 2.9056962419
-1.0236600974 0.5040248899 2.9088737560
-1.1772491292 0.1178540771 2.9098214895
-1.3307679199 -0.2682548577 2.9085645462
-1.4842171685 -0.6543004122 2.9051280384
-1.6375975736 -1.0402811424 2.8995370853
-1.7909098332 -1.4261956632 2.8918168108
-1.9441546441 -1.8120426468 2.8819923422
-2.0973327013 -2.1978208219 2.8700888079
-2.2504446984 -2.5835289736 2.8561313369
-2.4034913264 -2.9691659414 2.8401450559
-2.5564732740 -3.3547306192 2.8221550884
-2.7093912273 -3.7402219539 2.8021865536
-2.8622458689 -4.1256389442 2.7802645642
-3.0152035115 -4.5107893979 2.7564289575
-3.1686160566 -4.8955993558 2.7307183085
-3.3224439148 -5.2804006143 2.7031373431
-3.4767048914 -5.6649652633 2.6737308585
-3.6313338668 -6.0487697042 2.6425729784
-3.7862470109 -6.4335665650 2.6095342150
-3.9413037019 -6.8166111312 2.5748922461
-4.0965538082 -7.2001011875 2.5384700994
-4.2520430919 -7.5841010957 2.5002794509
2.3109075936 7.6618612912 2.4758366648
2.1535948578 7.2776606995 2.5212507860
1.9966135725 6.8939567781 2.5639784152
1.8399160291 6.5106861234 2.6040574042
1.6834321153 6.1255400229 2.6417444894
1.5273414114 5.7414341815 2.6767663298
1.3716787545 5.3564728217 2.7093293809
1.2165136497 4.9712123038 2.7393986747
1.0618291384 4.5858925331 2.7669738622
0.9075922711 4.2000203512 2.7921098936
0.7532967478 3.8132904367 2.8148311934
0.5990772937 3.4266062735 2.8350974387
0.4449332356 3.0399699454 2.8529336199
0.2908638971 2.6533834740 2.8683647531
0.1368685985 2.2668488179 2.8814158775
-0.0170533428 1.8803678731 2.8921120537
-0.1709026114 1.4939424725 2.9004783618
-0.3246798936 1.1075743871 2.9065398983
-0.4783858773 0.7212653247 2.9103217751
-0.6320212510 0.3350169319 2.9118491166
-0.7855867038 -0.0511692068 2.9111470583
-0.9390829247 -0.4372915676 2.9082407446
-1.0925106025 -0.8233486873 2.9031553270
-1.2458704251 -1.2093391624 2.8959159618
-1.3991630794 -1.5952616482 2.8865478092
-1.5523892508 -1.9811148588 2.8750760307
-1.7055496229 -2.3668975650 2.8615257881
-1.8586448771 -2.7526085941 2.8459222410
-2.0116756925 -3.1382468291 2.8282905462
-2.1646427455 -3.5238112070 2.8086558557
-2.3175467093 -3.9093007182 2.7870433150
-2.4703882541 -4.2947144053 2.7634780623
-2.6233301678 -4.6798533012 2.7380036669
-2.7767257532 -5.0646491879 2.7106625441
-2.9305360336 -5.4494342130 2.6814562765
-3.0847787783 -5.8339819754 2.6504316027
-3.2393890494 -6.2177721767 2.6176659766
-3.3942830199 -6.6025480220 2.5830155273
-3.5493207588 -6.9855808260 2.5467774933
-3.7045515782 -7.3690555683 2.5087585852
-3.8600211839 -7.7530360718 2.4689705273
2.7019240804 7.4932708420 2.5045625584
2.5446529184 7.1090472787 2.5483695382
2.3877113288 6.7253197818 2.5894916517
2.2310518569 6.3420250176 2.6279666543
2.0746091698 5.9568568920 2.6640324508
1.9185569026 5.5727282357 2.6974385091
1.7629333209 5.1877444697 2.7283749922
1.6078066785 4.8024613390 2.7568109149
1.4531594142 4.4171185085 2.7827480943
1.2989582105 4.0312211805 2.8062377885
1.1446942239 3.6444587387 2.8273072311
0.9905052148 3.2577442682 2.8459216580
0.8363905172 2.8710798240 2.8621061121
0.6823494623 2.4844673968 2.8758856605
0.5283813782 2.0979089131 2.8872853923
0.3744855910 1.7114062352 2.8963304166
0.2206614253 1.3249611609 2.9030458597
0.0669082037 0.9385754248 2.9074568639
-0.0867747512 0.5522506978 2.9095885846
-0.2403881178 0.1659885872 2.9094661887
-0.3939325745 -0.2202093615 2.9071148521
-0.5474087993 -0.6063416650 2.9025597585
-0.7008174694 -0.9924069015 2.8958260965
-0.8541592611 -1.3784037093 2.8869390590
-1.0074348492 -1.7643307864 2.8759238400
-1.1606449068 -2.1501868898 2.8628056339
-1.3137901050 -2.5359708341 2.8476096333
-1.4668711123 -2.9216814907 2.8303610278
-1.6198885949 -3.3073177867 2.8110850020
-1.7728432158 -3.6928787040 2.7898067342
-1.9257356353 -4.0783632777 2.7665513951
-2.0785665097 -4.4637705950 2.7413441462
-2.2314950031 -4.8488950147 2.7142323034
-2.3848756887 -5.2336741207 2.6852620217
-2.5386702701 -5.6184403082 2.6544317659
-2.6928964411 -6.0029687465 2.6217901735
-2.8474893915 -6.3867425619 2.5874179509
-3.0023655912 -6.7714950586 2.5511571060
-3.1573854406 -7.1545142760 2.5133240378
-3.3125980070 -7.5379718175 2.4737094632
-3.4680489298 -7.9219309605 2.4323251625
3.0929680423 7.3246048106 2.5279564256
2.9357371938 6.9403608550 2.5701557717
2.7788340273 6.5566122422 2.6096719322
2.6222113474 6.1732957221 2.6465425582
2.4658082300 5.7881085355 2.6809866650
2.3097927992 5.4039597494 2.7127766146
2.1542064094 5.0189565857 2.7420862317
1.9991161324 4.6336540099 2.7688885352
1.8445038516 4.2482913687 2.7931875173
1.6903358100 3.8623723713 2.8150307293
1.5361007623 3.4755811120 2.8344481615
1.3819396007 3.0888400306 2.8514107051
1.2278516679 2.7021511506 2.8659434545
1.0738363033 2.3155164293 2.8780715268
0.9198928448 1.9289377583 2.8878200597
0.7660206283 1.5424169639 2.8952142092
0.6122189882 1.1559558067 2.9002791475
0.4584872583 0.7695559826 2.9030400605
0.3048247719 0.3832191225 2.9035221460
0.1512308621 -0.0030532060 2.9017506116
-0.0022951378 -0.3892594996 2.8977506724
-0.1557538934 -0.7753983172 2.8915475492
-0.3091460698 -1.1614682798 2.8831664671
-0.4624723303 -1.5474680694 2.8726326524
-0.6157333368 -1.9333964284 2.8599713321
-0.7689297493 -2.3192521582 2.8452077314
-0.9220622252 -2.7050341186 2.8283670723
-1.0751314198 -3.0907412263 2.8094745719
-1.2281379851 -3.4763724539 2.7885554410
-1.3810825704 -3.8619268290 2.7656348826
-1.5339658216 -4.2474034324 2.7407380901
-1.6867883811 -4.6328013978 2.7138902466
-1.8397056926 -5.0179085115 2.6851424240
-1.9930734719 -5.4026682147 2.6545444120
-2.1468541702 -5.7874130481 2.6220915867
-2.3010653674 -6.1719198100 2.5878344406
-2.4556423297 -6.5556751703 2.5518568512
-2.6105021067 -6.9404020727 2.5139869831
-2.7655050862 -7.3234059486 2.4745599746
-2.9207003890 -7.7068444760 2.4333508909
-3.0761335792 -8.0907803822 2.3903715757
3.4840309197 7.1558704197 2.5460414759
3.3268391160 6.7716086476 2.5866328018
3.1699730942 6.3878413752 2.6245426745
3.0133859231 6.0045054491 2.6598086334
2.8570207174 5.6193021566 2.6926307767
2.7010405236 5.2351359171 2.7228044083
2.5454894475 4.8501163517 2.7504869961
2.3904334480 4.4647974839 2.7756555768
2.2358539002 4.0794182640 2.7983163233
2.0817165374 3.6934810547 2.8185130720
1.9275078517 3.3066646696 2.8362785123
1.7733719644 2.9199006514 2.8515892786
1.6193082274 2.5331909890 2.8644705156
1.4653159907 2.1465376040 2.8749473893
1.3113946022 1.7599423509 2.8830450846
1.1575434090 1.3734070174 2.8887888032
1.0037617570 0.9869333247 2.8922037612
0.8500489916 0.6005229278 2.8933151871
0.6964044583 0.2141774161 2.8921483193
0.5428275026 -0.1721016857 2.8887284044
0.3893174709 -0.5583129172 2.8830806950
0.2358737104 -0.9444548817 2.8752304478
0.0824955697 -1.3305262448 2.8652029214
-0.0708176013 -1.7165257337 2.8530233749
-0.2240664504 -2.1024521365 2.8387170657
-0.3772516233 -2.4883043006 2.8223092481
-0.5303737635 -2.8740811321 2.8038251716
-0.6834335118 -3.2597815941 2.7832900790
-0.8364315056 -3.6454047062 2.7607292054
-0.9893683797 -4.0309495424 2.7361677759
-1.1422447651 -4.4164152305 2.7096310054
-1.2950612893 -4.8018009505 2.6811440965
-1.4479695818 -5.1868880221 2.6507618803
-1.6013263785 -5.5716257916 2.6185376730
-1.7550949427 -5.9563468456 2.5844637948
-1.9092927045 -6.3408296677 2.5485925475
-2.0638549574 -6.7245645838 2.5110108945
-2.2186996031 -7.1092637372 2.4715334526
-2.3736866866 -7.4922505875 2.4305136556
-2.5288656692 -7.8756683641 2.3877112771
-2.6842820308 -8.2595792381 2.3431382323
3.8751043064 6.9870748402 2.5588413306
3.7179502748 6.6027978182 2.5978243552
3.5611201175 6.2190143332 2.6341277078
3.4045671725 5.8356613419 2.6677888083
3.2482382247 5.4504448831 2.6989888402
3.0922916746 5.0662638516 2.7275460617
2.9367740445 4.6812308617 2.7536015892
2.7817502496 4.2958988328 2.7771364863
2.6272012039 3.9105062418 2.7981591080
2.4730920612 3.5245542511 2.8167095731
2.3189071892 3.1377164055 2.8328232093
2.1647940341 2.7509330934 2.8464824724
2.0107519589 2.3642062670 2.8577125561
1.8567803247 1.9775378097 2.8665386738
1.7028784910 1.5909295364 2.8729860565
1.5490458171 1.2043831942 2.8770799497
1.3952816614 0.8179004622 2.8788456120
1.2415853821 0.4314829530 2.8783083126
1.0879563379 0.0451322124 2.8754933291
0.9343938880 -0.3411502795 2.8704259454
0.7808973924 -0.7273631075 2.8631314495
0.6274662122 -1.1135049203 2.8536351319
0.4740997103 -1.4995744299 2.8419622835
0.3207972514 -1.8855704102 2.8281381937
0.1675582021 -2.2714916962 2.8121881488
0.0143819315 -2.6573371826 2.7941374299
-0.1387321889 -3.0431058231 2.7740113120
-0.2917847845 -3.4287966283 2.7518350618
-0.4447764779 -3.8144086654 2.7276339361
-0.5977078883 -4.1999410560 2.7014331812
-0.7505796316 -4.5853929756 2.6732580306
-0.9033923199 -4.9707636511 2.6431337045
-1.0562936769 -5.3558280417 2.6111187922
-1.2096413408 -5.7405414418 2.5772700233
-1.3633994502 -6.1252363861 2.5415766997
-1.5175852505 -6.5096930964 2.5040928843
-1.6721340165 -6.8934056618 2.4649085392
-1.8269647633 -7.2780750041 2.4238250423
-1.9819368777 -7.6610432185 2.3812136617
-2.1371004362 -8.0444385850 2.3368192551
-2.2925008252 -8.4283227146 2.2906538158
4.2661799685 6.8182251730 2.5663800125
4.1090624368 6.4339354529 2.6037545594
3.9522668666 6.0501381881 2.6384512609
3.7957468687 5.6667704583 2.6705074104
3.6394525339 5.2815437502 2.7000853077
3.4835380455 4.8973505674 2.7270261420
3.3280520098 4.5123071044 2.7514547093
3.1730583678 4.1269650166 2.7733561021
3.0185376189 3.7415622306 2.7927408562
2.8644542693 3.3555988538 2.8096453753
2.7102906979 2.9687431782 2.8241075607
2.5561977717 2.5819441764 2.8361157586
2.4021748652 2.1952037615 2.8456952105
2.2482213521 1.8085237762 2.8528711758
2.0943366050 1.4219059935 2.8576689294
1.9405199960 1.0353521179 2.8601137596
1.7867708972 0.6488637849 2.8602309656
1.6330886807 0.2624425619 2.8580458555
1.4794727193 -0.1239100503 2.8535837439
1.3259223866 -0.5101926180 2.8468699503
1.1724370572 -0.8964037725 2.8379297964
1.0190161073 -1.2825422100 2.8267886045
0.8656589149 -1.6686066900 2.8134716957
0.7123648597 -2.0545960343 2.7980043877
0.5591333239 -2.4405091262 2.7804119935
0.4059636920 -2.8263449091 2.7607198195
0.2528553514 -3.2121023847 2.7389531635
0.0998076922 -3.5977806124 2.7151373143
-0.0531798924 -3.9833787076 2.6892975488
-0.2061080057 -4.3688958405 2.6614591316
-0.3589772478 -4.7543312346 2.6316473134
-0.5117882151 -5.1396841649 2.5998873295
-0.6646846371 -5.5247233370 2.5662415213
-0.8180249415 -5.9094100300 2.5307699157
-0.9717742022 -6.2940766319 2.4934588375
-1.1259494482 -6.6785051525 2.4543640614
-1.2804858921 -7.0621935453 2.4135784577
-1.4353039111 -7.4468311098 2.3708904883
-1.5902619352 -7.8297791520 2.3266887765
-1.7454109171 -8.2131505286 2.2807036552
-1.9007961403 -8.5970062866 2.2329472022
4.6572498628 6.6493284323 2.5686819334
4.5001675631 6.2650285460 2.6044479300
4.3434053086 5.8812199142 2.6375379497
4.1869169876 5.4978397533 2.6679891527
4.0306556351 5.1126056843 2.6959450146
3.8747716418 4.7284029647 2.7212695978
3.7193153702 4.3433519480 2.7440714337
3.5643498561 3.9580028675 2.7643396387
3.4098552305 3.5725930240 2.7820869253
3.2557952850 3.1866216143 2.7973459899
3.1016505434 2.7997516964 2.8101572392
2.9475753872 2.4129405625 2.8205149698
2.7935692042 2.0261900836 2.8284444695
2.6396313814 1.6395020599 2.8339710416
2.4857613056 1.2528782207 2.8371200036
2.3319583628 0.8663202253 2.8379166844
2.1782219399 0.4798296638 2.8363864221
2.0245514235 0.0934080571 2.8325545620
1.8709462017 -0.2929431415 2.8264464538
1.7174056632 -0.6792225456 2.8180874504
1.5639291983 -1.0654288349 2.8075029051
1.4105161988 -1.4515607543 2.7947181702
1.2571660584 -1.8376171120 2.7797585946
1.1038781729 -2.2235967792 2.7626495227
0.9506519406 -2.6094986885 2.7434162918
0.7974867620 -2.9953218324 2.7220842314
0.6443820408 -3.3810652622 2.6986786605
0.4913371834 -3.7667280867 2.6732248874
0.3383515994 -4.1523094702 2.6457482070
0.1854247016 -4.5378086319 2.6162739004
0.0325559062 -4.9232248439 2.5848272332
-0.1202553668 -5.3085574298 2.5514334541
-0.2731487683 -5.6935689502 2.5161586447
-0.4264834066 -6.0782266995 2.4790660109
-0.5802253500 -6.4628628264 2.4401389449
-0.7343913802 -6.8472611753 2.3994348825
-0.8889166070 -7.2309236599 2.3570495094
-1.0437230071 -7.6155275764 2.3127587067
-1.1986677704 -7.9984539865 2.2669679592
-1.3538029734 -8.3817998738 2.2193934778
-1.5091737877 -8.7656257177 2.1700474319
5.0483061534 6.4803915295 2.5657718808
4.8912578261 6.0960839831 2.5999293564
4.7345276265 5.7122663722 2.6314127622
4.5780697238 5.3288760635 2.6602591189
4.4218397418 4.9436374873 2.6865931649
4.2659846969 4.5594278133 2.7103017439
4.1105563857 4.1743721241 2.7314772021
3.9556170065 3.7890190751 2.7501126702
3.8011463681 3.4036052662 2.7662230282
3.6471074823 3.0176291273 2.7798372795
3.4929791477 2.6307485047 2.7909982641
3.3389193538 2.2439287417 2.7997062802
3.1849275027 1.8571716657 2.8059866594
3.0310029960 1.4704790318 2.8098647477
2.8771452351 1.0838525236 2.8113659033
2.7233536214 0.6972937535 2.8105154938
2.5696275569 0.3108042642 2.8073388940
2.4159664443 -0.0756144715 2.8018614845
2.2623696873 -0.4619610489 2.7941086480
2.1088366908 -0.8482341311 2.7841057688
1.9553668612 -1.2344324471 2.7718782298
1.8019596068 -1.6205547918 2.7574514110
1.6486143378 -2.0066000234 2.7408506872
1.4953304665 -2.3925670635 2.7221014271
1.3421074080 -2.7784548947 2.7012289905
1.1889445795 -3.1642625599 2.6782587273
1.0358414012 -3.5499891603 2.6532159762
0.8827972964 -3.9356338547 2.6261260623
0.7298116915 -4.3211958573 2.5970142970
0.5768840158 -4.7066744366 2.5659059754
0.4240137025 -5.0920689137 2.5328263757
0.2712001877 -5.4773786609 2.4978007583
0.1183079813 -5.8623602032 2.4608989284
-0.0350226025 -6.2469868752 2.4221871508
-0.1887586831 -6.6315904961 2.3816459323
-0.3429167657 -7.0159567894 2.3393343181
-0.4974318198 -7.3995917175 2.2953507152
-0.6522276462 -7.7841602135 2.2494587687
-0.8071599280 -8.1670636084 2.2020803179
-0.9622820997 -8.5503825880 2.1529178678
-1.1176392118 -8.9341770620 2.1019836843
5.4393412273 6.3114212574 2.5576750024
5.2823256250 5.9271085263 2.5902240864
5.1256262335 5.5432842945 2.6201010430
4.9691975061 5.1598860922 2.6473427470
4.8129973064 4.7746458220 2.6720553137
4.6571696876 4.3904317386 2.6941482434
4.5017675640 4.0053742139 2.7136977999
4.3468523642 3.6200201718 2.7307011114
4.1924036197 3.2346054386 2.7451752147
4.0383834989 2.8486278178 2.7571454385
3.8842692030 2.4617399705 2.7666569814
3.7302224208 2.0749150205 2.7737161846
3.5762425695 1.6881547493 2.7783484222
3.4223290664 1.3014608649 2.7805790805
3.2684813283 0.9148350035 2.7804335564
3.1146987730 0.5282787290 2.7779372541
2.9609808187 0.1417935348 2.7731155837
2.8073268844 -0.2446191557 2.7659939581
2.6537363907 -0.6309579883 2.7565977916
2.5002087589 -1.0172216764 2.7449524974
2.3467434128 -1.4034090000 2.7310834860
2.1933397772 -1.7895188046 2.7150161627
2.0399972797 -2.1755499999 2.6967759264
1.8867153498 -2.5615015583 2.6763881674
1.7334934194 -2.9473725135 2.6538782660
1.5803309232 -3.3331619592 2.6292715909
1.4272272985 -3.7188690477 2.6025934974
1.2741819859 -4.1044929880 2.5738693261
1.1211944284 -4.4900330444 2.5431244019
0.9682640727 -4.8754885353 2.5103840322
0.8153903687 -5.2608588311 2.4756735062
0.6625727696 -5.6461433526 2.4390180932
0.5096800237 -6.0310926997 2.4004913018
0.3563519661 -6.4156862656 2.3601623324
0.2026203726 -6.8002554527 2.3180088580
0.0484690407 -7.1845879051 2.2740914800
-0.1060368233 -7.5681937167 2.2285112302
-0.2613542450 -7.9508618434 2.1813847595
-0.4157435861 -8.3356041919 2.1320550852
-0.5708534232 -8.7188949270 2.0813060882
-0.7261974892 -9.1026566614 2.0287852519
5.8303477090 6.1424242752 2.5444167905
5.6733636002 5.7581087991 2.5753577101
5.5166937878 5.3742802701 2.6036284765
5.3602930117 4.9908763951 2.6292658123
5.2041210335 4.6056371979 2.6523573503
5.0483193468 4.2214212077 2.6728350904
4.8929416741 3.8363646347 2.6907593390
4.7380487403 3.4510125210 2.7061311999
4.5836198442 3.0655998464 2.7189698520
4.4296162492 2.6796239287 2.7292969733
4.2755136835 2.2927322725 2.7371600433
4.1214776246 1.9059055095 2.7425714786
3.9675075057 1.5191453736 2.7455566937
3.8136027605 1.1324535243 2.7461411134
3.6597628226 0.7458315480 2.7443501711
3.5059871265 0.3592809586 2.7402093059
3.3522751074 -0.0271968011 2.7337439600
3.1986262017 -0.4136003588 2.7249795776
3.0450398468 -0.7999284117 2.7139416017
2.8915154820 -1.1861797248 2.7006554726
2.7380525482 -1.5723531301 2.6851466258
2.5846504881 -1.9584475250 2.6674404899
2.4313087466 -2.3444618711 2.6475624855
2.2780267708 -2.7303951926 2.6255380228
2.1248040104 -3.1162465751 2.6013925000
1.9716399176 -3.5020151637 2.5751513021
1.8185339472 -3.8877001619 2.5468397991
1.6654855570 -4.2733008295 2.5164833450
1.5124942077 -4.6588164812 2.4841072761
1.3595593632 -5.0442464854 2.4497369101
1.2066804904 -5.4295902619 2.4133975445
1.0538570595 -5.8148472806 2.3751144561
0.9009621323 -6.1997623255 2.3349648313
0.7476351577 -6.5843208621 2.2930206826
0.5939067546 -6.9688537923 2.2492569025
0.4391451813 -7.3520776938 2.2039815125
0.2846730545 -7.7353183420 2.1568651647
0.1299629930 -8.1193712911 2.1078525433
-0.0244235568 -8.5040721979 2.0569215905
-0.1795217052 -8.8873334334 2.0045874953
-0.3348533303 -9.2710611450 1.9504815152
6.2213184735 5.9734070954 2.5260230642
6.0643646460 5.5890912734 2.5553561420
5.9077232045 5.2052607320 2.5820210684
5.7513491785 4.8218533672 2.6060544090
5.5952038930 4.4366179585 2.6275254791
5.4394266764 4.0524025172 2.6463885904
5.2840717576 3.6673496277 2.6626882387
5.1291992231 3.2820023038 2.6764294756
4.9747881826 2.8965946082 2.6876336049
4.8207989345 2.5106235097 2.6963186816
4.6667058554 2.1237313893 2.7025343871
4.5126782985 1.7369061136 2.7062992362
4.3587157141 1.3501493665 2.7076386818
4.2048175529 0.9634627572 2.7065781854
4.0509832662 0.5768478211 2.7031432143
3.8972123058 0.1903060205 2.6973592401
3.7435041246 -0.1961612539 2.6892517358
3.5898581769 -0.5825526820 2.6788461739
3.4362739180 -0.9688670136 2.6661680240
3.2827508051 -1.3551030664 2.6512427512
3.1292882971 -1.7412597252 2.6340958138
2.9758858548 -2.1273359402 2.6147526619
2.8225429412 -2.5133307256 2.5932387350
2.6692590212 -2.8992431582 2.5695794606
2.5160335626 -3.2850723756 2.5438002533
2.3628660353 -3.6708175750 2.5159265119
2.2097559120 -4.0564780113 2.4859836191
2.0567026683 -4.4420529955 2.4539969399
1.9037057823 -4.8275418929 2.4199918200
1.7507647352 -5.2129441219 2.3839935850
1.5978790115 -5.5982591517 2.3460275391
1.4450480983 -5.9834865010 2.3061189642
1.2914912037 -6.3677410673 2.2645249455
1.1381772757 -6.7521687489 2.2209855259
0.9844671941 -7.1365264814 2.1756389100
0.8299708561 -7.5192287337 2.1288315374
0.6758820681 -7.9037903579 2.0798458035
0.5205808359 -8.2862978690 2.0295861543
0.3656552275 -8.6687948622 1.9775310235
0.2105210033 -9.0516017721 1.9237151828
0.0551189669 -9.4347304748 1.8681635518
6.6122466579 5.8043760702 2.5025199518
6.4553219225 5.4200622565 2.5302456023
6.2987076681 5.0362319440 2.5553051278
6.1423592162 4.6528232307 2.5777349313
5.9862391300 4.2675942696 2.5975862002
5.8304849570 3.8833817808 2.6148353409
5.6751511392 3.4983352470 2.6295112054
5.5202971883 3.1129955091 2.6416227604
5.3659020672 2.7275956442 2.6511934139
5.2119250522 2.3416324069 2.6582376315
5.0578392858 1.9547430907 2.6628072136
4.9038180815 1.5679225226 2.6649267882
4.7498609075 1.1811723349 2.6646218443
4.5959672322 0.7944940852 2.6619178775
4.4421365252 0.4078892560 2.6568403875
4.2883682564 0.0213592571 2.6494148757
4.1346618970 -0.3650945742 2.6396668436
3.9810169198 -0.7514709713 2.6276217897
3.8274327982 -1.1377687376 2.6133052081
3.6739090083 -1.5239867441 2.5967425863
3.5204450270 -1.9101239295 2.5779594032
3.3670403337 -2.2961792973 2.5569811275
3.2136944097 -2.6821519148 2.5338332160
3.0604067383 -3.0680409120 2.5085411115
2.9071768053 -3.4538454789 2.4811302420
2.7540040990 -3.8395648651 2.4516260182
2.6008881099 -4.2251983771 2.4200538335
2.4478283314 -4.6107453771 2.3864390614
2.2948242595 -4.9962052812 2.3508070552
2.1418753928 -5.3815775577 2.3131831462
1.9883152166 -5.7662912219 2.2737636643
1.8354762076 -6.1514885087 2.2322358609
1.6825863328 -6.5362807925 2.1888575972
1.5288140869 -6.9197760701 2.1439187184
1.3751421319 -7.3039176620 2.0969978263
1.2199991211 -7.6856395221 2.0488634256
1.0648720955 -8.0674653767 1.9989151657
0.9094804809 -8.4495780705 1.9471783352
0.7543972015 -8.8315915307 1.8936719335
0.5990120891 -9.2137811441 1.8384471251
0.4431983182 -9.5960930120 1.7815525893
7.0031256723 5.6353373798 2.4739338712
6.8462288653 5.2510278797 2.5000525977
6.6896406414 4.8671999898 2.5235072464
6.5333166160 4.4837920238 2.5443340532
6.3772202751 4.0985721082 2.5625662893
6.2214877580 3.7143649199 2.5782022103
6.0661734359 3.3293273490 2.5912552119
5.9113363074 2.9439979236 2.6017381371
5.7569552304 2.5586086679 2.6096764749
5.6029884039 2.1726562547 2.6150811392
5.4489078499 1.7857729290 2.6180059650
5.2948909245 1.3989602036 2.6184816995
5.1409371143 1.0122196585 2.6165338656
4.9870459066 0.6255527973 2.6121879906
4.8332167890 0.2389610491 2.6054696042
4.6794492506 -0.1475542303 2.5964042356
4.5257427815 -0.5339917581 2.5850174121
4.3720968728 -0.9203503221 2.5713346562
4.2185110175 -1.3066287798 2.5553814840
4.0649847098 -1.6928260570 2.5371834029
3.9115174459 -2.0789411463 2.5167659103
3.7581087237 -2.4649731052 2.4941544915
3.6047580430 -2.8509210548 2.4693746177
3.4514649059 -3.2367841781 2.4424517451
3.2982288165 -3.6225617185 2.4134113127
3.1450492812 -4.0082529774 2.3822787412
2.9919258090 -4.3938573134 2.3490794322
2.8381962505 -4.7788052935 2.3140065784
2.6851843657 -5.1642356947 2.2767539718
2.5322271145 -5.5495776197 2.2375106516
2.3793240149 -5.9348306340 2.1963019288
2.2259739906 -6.3192953773 2.1533379911
2.0730991645 -6.7039832849 2.1083566149
1.9183750520 -7.0859853735 2.0622124155
1.7632667698 -7.4672876131 2.0144046814
1.6079939763 -7.8487191029 1.9647824680
1.4526747978 -8.2301906866 1.9133685796
1.2969973278 -8.6118651845 1.8601983363
1.1414527821 -8.9933503799 1.8053013798
0.9867823299 -9.3755472687 1.7484254183
0.8318961195 -9.7580456796 1.6898176563
7.3939492083 5.4662970219 2.4402915107
7.2370791946 5.0819940874 2.4648039017
7.0805158747 4.6981707631 2.4866542797
6.9242151592 4.3147655905 2.5058787083
6.7681411518 3.9295572531 2.5224927769
6.6124289447 3.5453576535 2.5365163181
6.4571325639 3.1603315839 2.5479474762
6.3023105550 2.7750151232 2.5568029276
6.1479417109 2.3896391776 2.5631102167
5.9939831009 2.0037004673 2.5668767470
5.8399057368 1.6168262309 2.5681583025
5.6858910961 1.2300243940 2.5669917467
5.5319386844 0.8432964819 2.5634026342
5.3780480079 0.4566439438 2.5574165219
5.2242185739 0.0700681541 2.5490589667
5.0704498904 -0.3164295871 2.5383555236
4.9167414669 -0.7028480517 2.5253317431
4.7630928136 -1.0891860829 2.5100131693
4.6095034426 -1.4754425932 2.4924253380
4.4559728675 -1.8616165635 2.4725937745
4.3025006032 -2.2477070408 2.4505439921
4.1490861668 -2.6337131373 2.4263014902
3.9957290769 -3.0196340279 2.3998917526
3.8424288542 -3.4054689491 2.3713402460
3.6891850213 -3.7912171973 2.3406724188
3.5353407209 -4.1763124956 2.3080822201
3.3822091831 -4.5618871342 2.2732620763
3.2291326456 -4.9473733784 2.2364017821
3.0761106391 -5.3327707434 2.1975266987
2.9226446175 -5.7173813392 2.1568470341
2.7697319223 -6.1026024251 2.1140225105
2.6153608950 -6.4860158892 2.0697770221
2.4607585385 -6.8681134188 2.0238983033
2.3056924544 -7.2490655940 1.9764276789
2.1503637983 -7.6301248001 1.9271405551
1.9947868238 -8.0112535059 1.8760645977
1.8390186094 -8.3923546925 1.8232328886
1.6839435401 -8.7739918045 1.7684336403
1.5291530054 -9.1555268478 1.7118692111
1.3740595913 -9.5372342184 1.6535941460
1.2184785144 -9.9191567214 1.5936483552
7.7793358068 5.2956300704 2.4022545035
7.6222667435 4.9118579091 2.4251776147
7.4656045964 4.5285430643 2.4454353860
7.3092648163 4.1455993882 2.4630672968
7.1537986874 3.7611400330 2.4780088516
6.9985802399 3.3774712692 2.4903820649
6.8435838950 2.9928056234 2.5001778471
6.6889578017 2.6077410731 2.5074056934
6.5347235637 2.2225410925 2.5120894447
6.3808358619 1.8367039733 2.5142325446
6.2267569237 1.4498394822 2.5138909380
6.0727400792 1.0630488250 2.5111021705
5.9187848497 0.6763334785 2.5058918202
5.7648907571 0.2896948432 2.4982854656
5.6110573242 -0.0968657555 2.4883086839
5.4572840750 -0.4833470660 2.4759870483
5.3035705340 -0.8697479090 2.4613461258
5.1499162275 -1.2560671760 2.4444114755
4.9963206827 -1.6423038279 2.4252086466
4.8427834284 -2.0284568936 2.4037631760
4.6893039950 -2.4145254674 2.3801005874
4.5358819143 -2.8005087087 2.3542463889
4.3825167200 -3.1864058390 2.3262260715
4.2292079476 -3.5722161410 2.2960651080
4.0759551342 -3.9579389563 2.2637889514
3.9227578190 -4.3435736838 2.2294230333
3.7696155432 -4.7291197777 2.1929927630
3.6159223929 -5.1138069576 2.1547341510
3.4628906637 -5.4991773126 2.1142560530
3.3088906243 -5.8830853296 2.0721746077
3.1546426669 -6.2663890202 2.0282818008
3.0002154848 -6.6491183310 1.9825945665
2.8458317341 -7.0306416055 1.9352257119
2.6911052376 -7.4115701677 1.8861560439
2.5361935728 -7.7926036892 1.8352600610
2.3811313074 -8.1737190962 1.7825598701
2.2260120491 -8.5548418638 1.7280788282
2.0705234156 -8.9361386145 1.6718547788
1.9150692064 -9.3173011805 1.6139105572
1.7605127740 -9.6988385732 1.5540382940
1.6056887509 -10.0805806096 1.4924680852
8.1631062216 5.1262485854 2.3594630476
8.0061177061 4.7431268725 2.3807822216
7.8495517314 4.3603559857 2.3994409712
7.6933134523 3.9778655065 2.4154781368
7.5379996324 3.5938287647 2.4288076773
7.3829245818 3.2105032396 2.4395765712
7.2284863410 2.8263219713 2.4477182993
7.0741984114 2.4415712364 2.4533126612
6.9201851920 2.0565783941 2.4563729952
6.7664082792 1.6708539185 2.4568982754
6.6123262570 1.2839993183 2.4549440773
6.4583058005 0.8972197816 2.4505436254
6.3043464455 0.5105167407 2.4437225169
6.1504477287 0.1238915515 2.4345063477
5.9966091872 -0.2626545055 2.4229207108
5.8428303593 -0.6491202227 2.4089911938
5.6891107842 -1.0355044654 2.3927433764
5.5354500022 -1.4218061690 2.3742028295
5.3818475547 -1.8080243381 2.3533951119
5.2283029846 -2.1941580448 2.3303457693
5.0748158360 -2.5802064265 2.3050803324
4.9213856547 -2.9661686848 2.2776243153
4.7680119876 -3.3520440833 2.2480032138
4.6146943838 -3.7378319458 2.2162425042
4.4614323935 -4.1235316549 2.1823676415
4.3082255689 -4.5091426492 2.1464040587
4.1550734640 -4.8946644227 2.1083771653
4.0013960575 -5.2792435519 2.0685408508
3.8473829929 -5.6630540032 2.0268776909
3.6931506613 -6.0461775633 1.9833916342
3.5389559669 -6.4295446612 1.9379106457
3.3846102407 -6.8123729269 1.8906275001
3.2302534379 -7.1931504832 1.8418328344
3.0757165049 -7.5740378198 1.7911880699
2.9210382329 -7.9550088959 1.7387152002
2.7662587677 -8.3360446265 1.6844348195
2.6114835261 -8.7170767357 1.6283671648
2.4564478500 -9.0982619533 1.5705459404
2.3015857321 -9.4793209830 1.5109824798
2.1462840419 -9.8605068753 1.4497452481
1.9919732738 -10.2420233656 1.3865903955
8.5465260024 4.9578363197 2.3118352705
8.3896902186 4.5753107886 2.3315549014
8.2332718990 4.1930258170 2.3486187145
8.0771732171 3.8109326808 2.3630646523
7.9220483262 3.4272598298 2.3747850147
7.7671454174 3.0442247601 2.3839514871
7.6128977690 2.6602930779 2.3904812870
7.4591473369 2.2758926781 2.3944222010
7.3054617854 1.8911131252 2.3958494501
7.1518397910 1.5054981934 2.3947550470
6.9977529119 1.1186544915 2.3911930308
6.8437271032 0.7318869801 2.3851856586
6.6897619156 0.3451970488 2.3767585441
6.5358569002 -0.0414139896 2.3659372986
6.3820116092 -0.4279448971 2.3527475283
6.2282255950 -0.8143945092 2.3372148332
6.0744984113 -1.2007617331 2.3193648036
5.9208296127 -1.5870455466 2.2992230195
5.7672187548 -1.9732449960 2.2768150479
5.6136653943 -2.3593591943 2.2521664411
5.4601690891 -2.7453873203 2.2253027354
5.3067293986 -3.1313286153 2.1962494488
5.1533458833 -3.5171823830 2.1650320803
5.0000181052 -3.9029479863 2.1316761082
4.8467456279 -4.2886248462 2.0962069882
4.6935280163 -4.6742124395 2.0586501531
4.5397837525 -5.0587424985 2.0192807219
4.3857112323 -5.4423966695 1.9780796405
4.2317076972 -5.8262526351 1.9348345572
4.0775031137 -6.2094588812 1.8897610691
3.9231723793 -6.5920254021 1.8428784208
3.7688591825 -6.9748667474 1.7940249689
3.6145730461 -7.3556726717 1.7436592371
3.4601696647 -7.7365322608 1.6914446723
3.3056599290 -8.1174527270 1.6374015799
3.1510845372 -8.4984185505 1.5815498217
2.9965529009 -8.8793662037 1.5239078976
2.8418353287 -9.2604398456 1.4645073896
2.6873747175 -9.6413832306 1.4033522679
2.5326500923 -10.0224197433 1.3405048985
2.3774493431 -10.4036450516 1.2760024572
8.9296367722 4.7907238452 2.2594232745
8.7729970623 4.4086913895 2.2775483465
8.6167571044 4.0268011356 2.2930213697
8.4608204760 3.6450260749 2.3058794957
8.3059092312 3.2616393409 2.3159932530
8.1511975234 2.8788280611 2.3235590159
7.9971597311 2.4950823888 2.3284778406
7.8436212639 2.1108281662 2.3308022257
7.6904631216 1.7262787686 2.3305739526
7.5370725337 1.3407709882 2.3278536760
7.3829801731 0.9539383679 2.3226894047
7.2289484209 0.5671829508 2.3150806433
7.0749768427 0.1805060854 2.3050530192
6.9210650041 -0.2060909556 2.2926321561
6.7672124716 -0.5926069744 2.2778436717
6.6134188119 -0.9790408465 2.2607131757
6.4596835930 -1.3653915189 2.2412662672
6.3060063833 -1.7516580084 2.2195285334
6.1523867525 -2.1378394005 2.1955255473
5.9988242707 -2.5239348465 2.1692828662
5.8453185095 -2.9099435632 2.1408260301
5.6918690416 -3.2958648296 2.1101805598
5.5384754405 -3.6816979863 2.0773719558
5.3851372811 -4.0674424322 2.0424256968
5.2318541397 -4.4530976242 2.0053672383
5.0780116604 -4.8375304776 1.9665054358
4.9242542170 -5.2220793728 1.9255567812
4.7701756428 -5.6057927864 1.8827740491
4.6159042150 -5.9887385964 1.8381611128
4.4616842548 -6.3719451618 1.7915250811
4.3073477943 -6.7545138810 1.7430814051
4.1530473864 -7.1373621541 1.6926621680
3.9987843213 -7.5182283645 1.6407266416
3.8444649394 -7.8990773825 1.5869464432
3.6900672799 -8.2799632681 1.5313384146
3.5356283840 -8.6608748840 1.4739221791
3.3812554209 -9.0417532223 1.4147155195
3.2267429065 -9.4227298952 1.3537493214
3.0725287408 -9.8035682630 1.2910230926
2.9181536085 -10.1844586697 1.2265978373
2.7644553292 -10.5660663272 1.1602118597
9.3123920702 4.6254523384 2.2023012868
9.1559622366 4.2437453119 2.2188370690
8.9999088790 3.8621116477 2.2327236531
8.8441390197 3.4805400603 2.2439976401
8.6894509610 3.0973333625 2.2525079482
8.5349365095 2.7146572650 2.2584753933
8.3811163983 2.3310167682 2.2617851612
8.2277971213 1.9468362478 2.2624945960
8.0748502630 1.5623289073 2.2606477880
7.9218368481 1.1769339089 2.2562869041
7.7677409523 0.7901108215 2.2495275370
7.6137052447 0.4033658104 2.2403244694
7.4597293044 0.0167001882 2.2287033404
7.3058127108 -0.3698848088 2.2146897838
7.1519550438 -0.7563880189 2.1983094261
6.9981558837 -1.1428083531 2.1795878846
6.8444148117 -1.5291447939 2.1585507652
6.6907314091 -1.9153963934 2.1352236604
6.5371052587 -2.3015622714 2.1096321477
6.3835359433 -2.6876416139 2.0818017877
6.2300230474 -3.0736336710 2.0517581227
6.0765661556 -3.4595377553 2.0195266749
5.9231648539 -3.8453532398 1.9851329453
5.7698187292 -4.2310795559 1.9486024122
5.6165273694 -4.6167161919 1.9099605300
5.4626634976 -5.0011737301 1.8695192970
5.3084600336 -5.3846423678 1.8272518855
5.1543362650 -5.7683402815 1.7829113382
5.0000191241 -6.1512697328 1.7367452970
4.8457678640 -6.5344672915 1.6885516772
4.6914086863 -6.9170230913 1.6385531896
4.5371010215 -7.2998658136 1.5865743200
4.3828191274 -7.6808363913 1.5330672525
4.2285386542 -8.0616955167 1.4777246595
4.0742016562 -8.4425655842 1.4205562270
3.9198374685 -8.8234419594 1.3615816124
3.7655451173 -9.2042709640 1.3008187402
3.6111334978 -9.5851726519 1.2382990601
3.4577756027 -9.9665974178 1.1737467445
3.3036294974 -10.3473648295 1.1077548779
3.1499674528 -10.7291441522 1.0397649125
9.6954848225 4.4597629883 2.1403642460
9.5392780475 4.0784116004 2.1553108888
9.3834250656 3.6970584760 2.1676103129
9.2278357209 3.3157094139 2.1772988699
9.0733951822 2.9326861164 2.1842009927
8.9191024270 2.5501486086 2.1885651225
8.7655280373 2.1666057644 2.1902587825
8.6124563032 1.7824837499 2.1893449181
8.4597471021 1.3979976098 2.1858704194
