-7.4709628117 1.8438140654 0.6249967666
-7.6272177469 1.4679968223 0.6441743874
-7.7834395089 1.0921554181 0.6612854802
-7.9396284768 0.7162901289 0.6763536704
-8.0957850299 0.3404012308 0.6894025828
-8.2519095473 -0.0355109997 0.7004558425
-8.4080024085 -0.4114462867 0.7095370746
-8.5640639924 -0.7874043537 0.7166699041
-8.7200946785 -1.1633849247 0.7218779560
-8.8760948461 -1.5393877234 0.7251848555
-9.0320648742 -1.9154124735 0.7266142274
-9.1880051422 -2.2914588990 0.7261896969
-9.3439160294 -2.6675267235 0.7239348890
-9.4997979149 -3.0436156708 0.7198734288
-9.6556511780 -3.4197254648 0.7140289413
-9.8114761980 -3.7958558291 0.7064250515
-9.9672733541 -4.1720064876 0.6970853844
-10.1230430255 -4.5481771640 0.6860335653
-10.2787855916 -4.9243675822 0.6732932189
-3.6506033591 9.9507375347 -0.2511451678
-3.8076593118 9.5755036987 -0.1820682912
-3.9646737477 9.2002396246 -0.1155776933
-4.1216470462 8.8249455889 -0.0516497490
-4.2785795864 8.4496218675 0.0097391666
-4.4354717477 8.0742687368 0.0686126786
-4.5923239091 7.6988864730 0.1249944120
-4.7491364501 7.3234753523 0.1789079920
-4.9059097498 6.9480356510 0.2303770434
-5.0626441874 6.5725676451 0.2794251915
-5.2193401424 6.1970716110 0.3260760610
-5.3759979937 5.8215478249 0.3703532773
-5.5326181209 5.4459965628 0.4122804653
-5.6892009029 5.0704181013 0.4518812500
-5.8457467192 4.6948127163 0.4891792564
-6.0022559489 4.3191806843 0.5241981097
-6.1587289714 3.9435222812 0.5569614348
-6.3151661658 3.5678377833 0.5874928569
-6.4715679113 3.1921274670 0.6158160009
-6.6279345873 2.8163916084 0.6419544919
-6.7842665730 2.4406304836 0.6659319549
-6.9405642476 2.0648443691 0.6877720149
-7.0968279905 1.6890335409 0.7074982972
-7.2530581807 1.3131982752 0.7251344264
-7.4092551976 0.9373388483 0.7407040280
-7.5654194204 0.5614555364 0.7542307267
-7.7215512283 0.1855486158 0.7657381477
-7.8776510007 -0.1903816375 0.7752499161
-8.0337191167 -0.5663349471 0.7827896568
-8.1897559556 -0.9423110368 0.7883809949
-8.3457618967 -1.3183096305 0.7920475554
-8.5017373191 -1.6943304517 0.7938129635
-8.6576826022 -2.0703732246 0.7937008441
-8.8135981251 -2.4464376727 0.7917348222
-8.9694842671 -2.8225235198 0.7879385229
-9.1253414076 -3.1986304898 0.7823355713
-9.2811699257 -3.5747583063 0.7749495924
-9.4369702005 -3.9509066933 0.7658042113
-9.5927426116 -4.3270753745 0.7549230528
-9.7484875379 -4.7032640736 0.7423297422
-9.9042053589 -5.0794725145 0.7280479045
-3.2769257073 9.7962899815 -0.1401643383
-3.4339569149 9.4210381229 -0.0726289530
-3.5909466058 9.0457560262 -0.0076798465
-3.7478951592 8.6704439677 0.0547066063
-3.9048029543 8.2951022237 0.1145540306
-4.0616703704 7.9197310705 0.1718860512
-4.2184977868 7.5443307840 0.2267262932
-4.3752855827 7.1689016406 0.2790983818
-4.5320341373 6.7934439166 0.3290259419
-4.6887438299 6.4179578881 0.3765325985
-4.8454150397 6.0424438313 0.4216419767
-5.0020481460 5.6669020225 0.4643777015
-5.1586435280 5.2913327379 0.5047633981
-5.3152015650 4.9157362537 0.5428226915
-5.4717226362 4.5401128461 0.5785792065
-5.6282071208 4.1644627913 0.6120565685
-5.7846553982 3.7887863656 0.6432784022
-5.9410678475 3.4130838451 0.6722683329
-6.0974448480 3.0373555061 0.6990499855
-6.2537867789 2.6616016248 0.7236469851
-6.4100940195 2.2858224775 0.7460829566
-6.5663669490 1.9100183402 0.7663815253
-6.7226059467 1.5341894894 0.7845663162
-6.8788113919 1.1583362011 0.8006609540
-7.0349836637 0.7824587515 0.8146890643
-7.1911231414 0.4065574170 0.8266742716
-7.3472302043 0.0306324736 0.8366402013
-7.5033052316 -0.3453158023 0.8446104782
-7.6593486025 -0.7212871344 0.8506087275
-7.8153606964 -1.0972812468 0.8546585742
-7.9713418923 -1.4732978631 0.8567836434
-8.1272925697 -1.8493367071 0.8570075600
-8.2832131077 -2.2253975026 0.8553539493
-8.4391038855 -2.6014799733 0.8518464359
-8.5949652825 -2.9775838431 0.8465086454
-8.7507976778 -3.3537088357 0.8393642023
-8.9066014508 -3.7298546749 0.8304367320
-9.0623769805 -4.1060210845 0.8197498595
-9.2181246465 -4.4822077884 0.8073272097
-9.3738448277 -4.8584145101 0.7931924077
-9.5295379036 -5.2346409736 0.7773690786
-2.9031611834 9.6417791565 -0.0345951988
-3.0601676459 9.2665092752 0.0313986951
-3.2171325917 8.8912091559 0.0948063102
-3.3740564000 8.5158790748 0.1556512716
-3.5309394500 8.1405193081 0.2139572045
-3.6877821210 7.7651301322 0.2697477336
-3.8445847923 7.3897118231 0.3230464843
-4.0013478430 7.0142646570 0.3738770815
-4.1580716526 6.6387889104 0.4222631502
-4.3147566001 6.2632848592 0.4682283155
-4.4714030648 5.8877527798 0.5117962023
-4.6280114260 5.5121929483 0.5529904357
-4.7845820630 5.1366056411 0.5918346410
-4.9411153548 4.7609911342 0.6283524429
-5.0976116809 4.3853497040 0.6625674666
-5.2540714206 4.0096816265 0.6945033371
-5.4104949528 3.6339871782 0.7241836794
-5.5668826570 3.2582666351 0.7516321188
-5.7232349125 2.8825202734 0.7768722800
-5.8795520982 2.5067483695 0.7999277881
-6.0358345938 2.1309511995 0.8208222684
-6.1920827783 1.7551290396 0.8395793457
-6.3482970309 1.3792821661 0.8562226451
-6.5044777310 1.0034108550 0.8707757917
-6.6606252577 0.6275153829 0.8832624104
-6.8167399903 0.2515960257 0.8937061264
-6.9728223081 -0.1243469403 0.9021305646
-7.1288725903 -0.5003132388 0.9085593503
-7.2848912161 -0.8763025936 0.9130161082
-7.4408785648 -1.2523147287 0.9155244635
-7.5968350157 -1.6283493676 0.9161080413
-7.7527609480 -2.0044062343 0.9147904665
-7.9086567409 -2.3804850524 0.9115953643
-8.0645227737 -2.7565855458 0.9065463597
-8.2203594255 -3.1327074382 0.8996670777
-8.3761670758 -3.5088504534 0.8909811433
-8.5319461037 -3.8850143154 0.8805121816
-8.6876968884 -4.2611987476 0.8682838177
-8.8434198093 -4.6374034741 0.8543196765
-8.9991152454 -5.0136282185 0.8386433831
-9.1547835762 -5.3898727047 0.8212785627
-2.5293101375 9.4872053148 0.0655840720
-2.6862918549 9.1119174108 0.1300364745
-2.8432320556 8.7365992689 0.1919025981
-3.0001311188 8.3612511651 0.2512060683
-3.1569894237 7.9858733758 0.3079705097
-3.3138073497 7.6104661772 0.3622195475
-3.4705852759 7.2350298454 0.4139768069
-3.6273235816 6.8595646568 0.4632659126
-3.7840226461 6.4840708875 0.5101104899
-3.9406828485 6.1085488136 0.5545341638
-4.0973045681 5.7329987116 0.5965605592
-4.2538881842 5.3574208574 0.6362133013
-4.4104340761 4.9818155276 0.6735160152
-4.5669426229 4.6061829980 0.7084923257
-4.7234142039 4.2305235452 0.7411658580
-4.8798491984 3.8548374451 0.7715602371
-5.0362479855 3.4791249741 0.7996990881
-5.1926109447 3.1033864083 0.8256060360
-5.3489384551 2.7276220240 0.8493047059
-5.5052308958 2.3518320974 0.8708187226
-5.6614886462 1.9760169048 0.8901717115
-5.8177120856 1.6001767222 0.9073872974
-5.9739015931 1.2243118261 0.9224891054
-6.1300575481 0.8484224924 0.9355007606
-6.2861803298 0.4725089975 0.9464458880
-6.4422703173 0.0965716177 0.9553481125
-6.5983278900 -0.2793893709 0.9622310594
-6.7543534271 -0.6553736921 0.9671183536
-6.9103473079 -1.0313810697 0.9700336202
-7.0663099115 -1.4074112272 0.9710004842
-7.2222416173 -1.7834638889 0.9700425705
-7.3781428045 -2.1595387781 0.9671835044
-7.5340138522 -2.5356356189 0.9624469108
-7.6898551399 -2.9117541349 0.9558564148
-7.8456670468 -3.2878940500 0.9474356414
-8.0014499519 -3.6640550879 0.9372082156
-8.1572042347 -4.0402369725 0.9251977626
-8.3129302743 -4.4164394274 0.9114279072
-8.4686284501 -4.7926621765 0.8959222747
-8.6242991412 -5.1689049436 0.8787044899
-8.7799427268 -5.5451674524 0.8597981780
-2.1553729200 9.3325687115 0.1603952955
-2.3123298924 8.9572627849 0.2233062065
-2.4692453480 8.5819266202 0.2836308390
-2.6261196660 8.2065604938 0.3413928176
-2.7829532259 7.8311646820 0.3966157677
-2.9397464068 7.4557394607 0.4493233142
-3.0964995879 7.0802851062 0.4995390820
-3.2532131485 6.7048018950 0.5472866964
-3.4098874678 6.3292901029 0.5925897824
-3.5665229252 5.9537500065 0.6354719648
-3.7231198998 5.5781818818 0.6759568689
-3.8796787708 5.2025860051 0.7140681196
-4.0361999176 4.8269626525 0.7498293421
-4.1926837192 4.4513121003 0.7832641612
-4.3491305552 4.0756346247 0.8143962021
-4.5055408046 3.6999305020 0.8432490899
-4.6619148467 3.3242000084 0.8698464495
-4.8182530608 2.9484434199 0.8942119060
-4.9745558260 2.5726610130 0.9163690845
-5.1308235217 2.1968530637 0.9363416098
-5.2870565270 1.8210198485 0.9541531073
-5.4432552214 1.4451616433 0.9698272019
-5.5994199838 1.0692787244 0.9833875185
-5.7555511936 0.6933713682 0.9948576823
-5.9116492302 0.3174398506 1.0042613183
-6.0677144726 -0.0585155518 1.0116220515
-6.2237473002 -0.4344945631 1.0169635070
-6.3797480923 -0.8104969069 1.0203093097
-6.5357172280 -1.1865223071 1.0216830850
-6.6916550865 -1.5625704874 1.0211084575
-6.8475620472 -1.9386411717 1.0186090525
-7.0034384893 -2.3147340836 1.0142084950
-7.1592847920 -2.6908489470 1.0079304100
-7.3151013347 -3.0669854857 0.9997984226
-7.4708884964 -3.4431434234 0.9898361578
-7.6266466564 -3.8193224840 0.9780672406
-7.7823761941 -4.1955223912 0.9645152962
-7.9380774886 -4.5717428688 0.9492039496
-8.0937509193 -4.9479836405 0.9321568255
-8.2493968654 -5.3242444302 0.9133975494
-8.4050157059 -5.7005249617 0.8929497461
-1.7813498812 9.1778696017 0.2498602932
-1.9382821084 8.8025456525 0.3112297129
-2.0951728190 8.4271914652 0.3700128539
-2.2520223920 8.0518073161 0.4262333412
-2.4088312067 7.6763934815 0.4799147999
-2.5655996426 7.3009502376 0.5310808549
-2.7223280786 6.9254778606 0.5797551315
-2.8790168941 6.5499766266 0.6259612544
-3.0356664684 6.1744468120 0.6697228490
-3.1922771806 5.7988886928 0.7110635401
-3.3488494101 5.4233025455 0.7500069528
-3.5053835360 5.0476886461 0.7865767121
-3.6618799377 4.6720472709 0.8207964431
-3.8183389944 4.2963786960 0.8526897709
-3.9747610853 3.9206831979 0.8822803205
-4.1311465895 3.5449610525 0.9095917168
-4.2874958865 3.1692125362 0.9346475850
-4.4438093555 2.7934379251 0.9574715502
-4.6000873756 2.4176374955 0.9780872372
-4.7563303263 2.0418115237 0.9965182713
-4.9125385865 1.6659602857 1.0127882774
-5.0687125357 1.2900840578 1.0269208805
-5.2248525531 0.9141831163 1.0389397057
-5.3809590178 0.5382577374 1.0488683781
-5.5370323093 0.1623081972 1.0567305227
-5.6930728067 -0.2136652278 1.0625497645
-5.8490808892 -0.5896622618 1.0663497286
-6.0050569361 -0.9656826282 1.0681540400
-6.1610013268 -1.3417260511 1.0679863239
-6.3169144402 -1.7177922541 1.0658702051
-6.4727966558 -2.0938809609 1.0618293087
-6.6286483529 -2.4699918955 1.0558872597
-6.7844699105 -2.8461247816 1.0480676834
-6.9402617080 -3.2222793429 1.0383942046
-7.0960241246 -3.5984553033 1.0268904484
-7.2517575396 -3.9746523865 1.0135800399
-7.4074623322 -4.3508703163 0.9984866040
-7.5631388817 -4.7271088166 0.9816337659
-7.7187875673 -5.1033676110 0.9630451506
-7.8744087682 -5.4796464234 0.9427443831
-8.0300028637 -5.8559449775 0.9207550885
-1.4072413714 9.0231082406 0.3340008865
-1.5641488536 8.6477662687 0.3938288148
-1.7210148190 8.2723940588 0.4510704644
-1.8778396469 7.8969918871 0.5057494604
-2.0346237166 7.5215600298 0.5578894276
-2.1913674072 7.1460987633 0.6075139913
-2.3480710982 6.7706083636 0.6546467764
-2.5047351687 6.3950891070 0.6993114081
-2.6613599979 6.0195412697 0.7415315112
-2.8179459650 5.6439651280 0.7813307109
-2.9744934494 5.2683609580 0.8187326322
-3.1310028303 4.8927290359 0.8537609001
-3.2874744869 4.5170696380 0.8864391398
-3.4439087984 4.1413830406 0.9167909762
-3.6003061442 3.7656695196 0.9448400343
-3.7566669034 3.3899293517 0.9706099393
-3.9129914554 3.0141628127 0.9941243161
-4.0692801792 2.6383701790 1.0154067898
-4.2255334543 2.2625517267 1.0344809855
-4.3817516597 1.8867077322 1.0513705282
-4.5379351750 1.5108384716 1.0660990429
-4.6940843791 1.1349442211 1.0786901546
-4.8501996513 0.7590252570 1.0891674885
-5.0062813710 0.3830818554 1.0975546696
-5.1623299175 0.0071142926 1.1038753228
-5.3183456697 -0.3688771552 1.1081530732
-5.4743290071 -0.7448922118 1.1104115459
-5.6302803091 -1.1209306009 1.1106743660
-5.7861999545 -1.4969920464 1.1089651583
-5.9420883229 -1.8730762720 1.1053075482
-6.0979457935 -2.2491830015 1.0997251604
-6.2537727453 -2.6253119587 1.0922416201
-6.4095695579 -3.0014628675 1.0828805524
-6.5653366104 -3.3776354515 1.0716655822
-6.7210742819 -3.7538294345 1.0586203346
-6.8767829518 -4.1300445404 1.0437684347
-7.0324629993 -4.5062804928 1.0271335074
-7.1881148037 -4.8825370157 1.0087391779
-7.3437387442 -5.2588138328 0.9886090713
-7.4993352000 -5.6351106678 0.9667668124
-7.6549045505 -6.0114272446 0.9432360264
-1.0330477408 8.8682848834 0.4128388967
-1.1899304778 8.4929248888 0.4711253337
-1.3467716982 8.1175346562 0.5268254919
-1.5035717811 7.7421144619 0.5799629964
-1.6603311057 7.3666645820 0.6305614723
-1.8170500513 6.9911852927 0.6786445446
-1.9737289971 6.6156768704 0.7242358383
-2.1303683226 6.2401395912 0.7673589785
-2.2869684066 5.8645737312 0.8080375903
-2.4435296287 5.4889795668 0.8462952987
-2.6000523680 5.1133573741 0.8821557285
-2.7565370038 4.7377074295 0.9156425052
-2.9129839152 4.3620300089 0.9467792534
-3.0693934817 3.9863253888 0.9755895984
-3.2257660824 3.6105938454 1.0020971652
-3.3821020966 3.2348356547 1.0263255788
-3.5384019034 2.8590510930 1.0482984643
-3.6946658821 2.4832404367 1.0680394466
-3.8508944122 2.1074039618 1.0855721508
-4.0070878726 1.7315419446 1.1009202021
-4.1632466427 1.3556546613 1.1141072254
-4.3193711017 0.9797423881 1.1251568458
-4.4754616289 0.6038054014 1.1340926883
-4.6315186035 0.2278439772 1.1409383780
-4.7875424048 -0.1481416083 1.1457175398
-4.9435334120 -0.5241510787 1.1484537989
-5.0994920044 -0.9001841580 1.1491707801
-5.2554185611 -1.2762405697 1.1478921088
-5.4113134615 -1.6523200378 1.1446414098
-5.5671770849 -2.0284222862 1.1394423083
-5.7230098104 -2.4045470383 1.1323184290
-5.8788120171 -2.7806940182 1.1232933975
-6.0345840846 -3.1568629496 1.1123908383
-6.1903263920 -3.5330535562 1.0996343767
-6.3460393184 -3.9092655619 1.0850476378
-6.5017232432 -4.2854986904 1.0686542465
-6.6573785457 -4.6617526655 1.0504778278
-6.8130056049 -5.0380272111 1.0305420070
-6.9686048004 -5.4143220508 1.0088704089
-7.1241765111 -5.7906369084 0.9854866586
-7.2797211165 -6.1669715079 0.9604143812
-0.6587693398 8.7133997851 0.4863961453
-0.8156273318 8.3380217678 0.5431410909
-0.9724438071 7.9626135126 0.5972997578
-1.1292191448 7.5871752957 0.6488957709
-1.2859537244 7.2117073931 0.6979527554
-1.4426479249 6.8362100812 0.7444943363
-1.5993021257 6.4606836362 0.7885441387
-1.7559167060 6.0851283343 0.8301257875
-1.9124920449 5.7095444517 0.8692629079
-2.0690285219 5.3339322646 0.9059791248
-2.2255265161 4.9582920493 0.9402980634
-2.3819864069 4.5826240820 0.9722433486
-2.5384085733 4.2069286388 1.0018386055
-2.6947933946 3.8312059960 1.0291074590
-2.8511412503 3.4554564299 1.0540735344
-3.0074525192 3.0796802165 1.0767604567
-3.1637275810 2.7038776323 1.0971918507
-3.3199668147 2.3280489533 1.1153913417
-3.4761705996 1.9521944557 1.1313825545
-3.6323393149 1.5763144158 1.1451891145
-3.7884733400 1.2004091100 1.1568346464
-3.9445730539 0.8244788142 1.1663427754
-4.1006388360 0.4485238048 1.1737371265
-4.2566710656 0.0725443579 1.1790413247
-4.4126701217 -0.3034592502 1.1822789951
-4.5686363839 -0.6794867433 1.1834737629
-4.7245702311 -1.0555378451 1.1826492528
-4.8804720428 -1.4316122796 1.1798290901
-5.0363421982 -1.8077097704 1.1750368997
-5.1921810764 -2.1838300413 1.1682963067
-5.3479890567 -2.5599728162 1.1596309362
-5.5037665185 -2.9361378187 1.1490644131
-5.6595138409 -3.3123247727 1.1366203626
-5.8152314031 -3.6885334020 1.1223224097
-5.9709195845 -4.0647634303 1.1061941793
-6.1265787642 -4.4410145815 1.0882592966
-6.2822093215 -4.8172865793 1.0685413867
-6.4378116358 -5.1935791475 1.0470640744
-6.5933860861 -5.5698920099 1.0238509849
-6.7489330518 -5.9462248902 0.9989257432
-6.9044529120 -6.3225775123 0.9723119744
-0.2844065187 8.5584532008 0.5546944538
-0.4412397656 8.1830571609 0.6098979080
-0.5980314957 7.8076308830 0.6625150834
-0.7547820884 7.4321746433 0.7125696052
-0.9114919228 7.0566887182 0.7600850983
-1.0681613783 6.6811733837 0.8050851879
-1.2247908340 6.3056289160 0.8475934989
-1.3813806692 5.9300555914 0.8876336563
-1.5379312631 5.5544536863 0.9252292852
-1.6944429950 5.1788234765 0.9604040108
-1.8509162442 4.8031652385 0.9931814580
-2.0073513898 4.4274792485 1.0235852518
-2.1637488111 4.0517657827 1.0516390173
-2.3201088874 3.6760251173 1.0773663795
-2.4764319979 3.3002575285 1.1007909635
-2.6327185218 2.9244632925 1.1219363944
-2.7889688385 2.5486426856 1.1408262970
-2.9451833271 2.1727959839 1.1574842966
-3.1013623670 1.7969234637 1.1719340181
-3.2575063372 1.4210254013 1.1841990866
-3.4136156171 1.0451020727 1.1943031272
-3.5696905860 0.6691537542 1.2022697648
-3.7257316230 0.2931807222 1.2081226245
-3.8817391075 -0.0828167474 1.2118853314
-4.0377134186 -0.4588383781 1.2135815104
-4.1936549356 -0.8348838939 1.2132347867
-4.3495640378 -1.2109530184 1.2108687852
-4.5054411044 -1.5870454755 1.2065071311
-4.6612865146 -1.9631609889 1.2001734493
-4.8171006478 -2.3392992825 1.1918913650
-4.9728838830 -2.7154600800 1.1816845031
-5.1286365997 -3.0916431051 1.1695764886
-5.2843591770 -3.4678480818 1.1555909468
-5.4400519941 -3.8440747338 1.1397515024
-5.5957154305 -4.2203227847 1.1220817807
-5.7513498651 -4.5965919586 1.1026054066
-5.9069556773 -4.9728819790 1.0813460053
-6.0625332465 -5.3491925697 1.0583272016
-6.2180829517 -5.7255234548 1.0335726207
-6.3736051722 -6.1018743578 1.0071058876
-6.5291002874 -6.4782450025 0.9789506275
0.0900403724 8.4034453857 0.6177556435
-0.0667681295 8.0280313231 0.6714176063
-0.2235351146 7.6525870226 0.7224932904
-0.3802609622 7.2771127603 0.7710063207
-0.5369460516 6.9016088125 0.8169803224
-0.6935907619 6.5260754553 0.8604389206
-0.8501954725 6.1505129650 0.9014057402
-1.0067605626 5.7749216178 0.9399044063
-1.1632864114 5.3993016899 0.9759585438
-1.3197733982 5.0236534575 1.0095917780
-1.4762219024 4.6479771969 1.0408277338
-1.6326323028 4.2722731842 1.0696900362
-1.7890049790 3.8965416958 1.0962023103
-1.9453403103 3.5207830078 1.1203881811
-2.1016386757 3.1449973963 1.1422712738
-2.2579004546 2.7691851377 1.1618752132
-2.4141260261 2.3933465081 1.1792236245
-2.5703157697 2.0174817838 1.1943401327
-2.7264700644 1.6415912409 1.2072483628
-2.8825892895 1.2656751559 1.2179719399
-3.0386738244 0.8897338046 1.2265344891
-3.1947240482 0.5137674635 1.2329596353
-3.3507403402 0.1377764087 1.2372710037
-3.5067230794 -0.2382390834 1.2394922191
-3.6626726455 -0.6142787368 1.2396469068
-3.8185894174 -0.9903422752 1.2377586917
-3.9744737745 -1.3664294224 1.2338511988
-4.1303260961 -1.7425399021 1.2279480534
-4.2861467612 -2.1186734382 1.2200728802
-4.4419361492 -2.4948297544 1.2102493045
-4.5976946395 -2.8710085746 1.1985009512
-4.7534226110 -3.2472096224 1.1848514454
-4.9091204432 -3.6234326217 1.1693244121
-5.0647885153 -3.9996772963 1.1519434763
-5.2204272066 -4.3759433699 1.1327322633
-5.3760368961 -4.7522305664 1.1117143978
-5.5316179633 -5.1285386095 1.0889135050
-5.6871707873 -5.5048672230 1.0643532100
-5.8426957475 -5.8812161306 1.0380571378
-5.9981932229 -6.2575850563 1.0100489133
-6.1536635930 -6.6339737236 0.9803521617
0.4645709829 8.2483765950 0.6756015357
0.3077872261 7.8729445097 0.7277220071
0.1510449862 7.4974821866 0.7772561999
-0.0056561164 7.1219899016 0.8242277388
-0.1623164607 6.7464679312 0.8686602492
-0.3189364259 6.3709165514 0.9105773560
-0.4755163914 5.9953360384 0.9500026841
-0.6320567365 5.6197266686 0.9869598588
-0.7885578402 5.2440887180 1.0214725051
-0.9450200819 4.8684224629 1.0535642478
-1.1014438409 4.4927281797 1.0832587122
-1.2578294963 4.1170061444 1.1105795232
-1.4141774275 3.7412566332 1.1355503060
-1.5704880136 3.3654799225 1.1581946854
-1.7267616339 2.9896762884 1.1785362867
-1.8829986677 2.6138460071 1.1965987347
-2.0391994942 2.2379893549 1.2124056546
-2.1953644926 1.8621066079 1.2259806714
-2.3514940423 1.4861980424 1.2373474102
-2.5075885224 1.1102639347 1.2465294959
-2.6636483121 0.7343045608 1.2535505537
-2.8196737908 0.3583201971 1.2584342085
-2.9756653377 -0.0176888803 1.2612040854
-3.1316233320 -0.3937223951 1.2618838095
-3.2875481529 -0.7697800711 1.2604970058
-3.4434401798 -1.1458616322 1.2570672993
-3.5992997918 -1.5219668020 1.2516183151
-3.7551273682 -1.8980953044 1.2441736783
-3.9109232883 -2.2742468631 1.2347570138
-4.0666879312 -2.6504212020 1.2233919466
-4.2224216764 -3.0266180448 1.2101021019
-4.3781249028 -3.4028371153 1.1949111047
-4.5337979899 -3.7790781373 1.1778425801
-4.6894413170 -4.1553408345 1.1589201529
-4.8450552631 -4.5316249308 1.1381674484
-5.0006402075 -4.9079301500 1.1156080916
-5.1561965296 -5.2842562157 1.0912657074
-5.3117246085 -5.6606028518 1.0651639210
-5.4672248237 -6.0369697821 1.0373263574
-5.6226975541 -6.4133567304 1.0077766416
-5.7781431790 -6.7897634204 0.9765383986
0.8391849627 8.0932470836 0.7282539520
0.6824259510 7.7177969758 0.7788329321
0.5257084561 7.3423166300 0.8268256334
0.3690320987 6.9668063224 0.8722556810
0.2123964995 6.5912663293 0.9151467000
0.0558012793 6.2156969268 0.9555223153
-0.1007539411 5.8400983911 0.9934061522
-0.2572695410 5.4644709986 1.0288218354
-0.4137458997 5.0888150254 1.0617929902
-0.5701833964 4.7131307478 1.0923432417
-0.7265824102 4.3374184419 1.1204962147
-0.8829433206 3.9616783840 1.1462755343
-1.0392665066 3.5859108501 1.1697048257
-1.1955523476 3.2101161168 1.1908077137
-1.3518012229 2.8342944600 1.2096078236
-1.5080135117 2.4584461561 1.2261287803
-1.6641895930 2.0825714812 1.2403942088
-1.8203298464 1.7066707116 1.2524277342
-1.9764346510 1.3307441234 1.2622529816
-2.1325043859 0.9547919930 1.2698935760
-2.2885394306 0.5788145965 1.2753731423
-2.4445401642 0.2028122101 1.2787153057
-2.6005069659 -0.1732148899 1.2799436913
-2.7564402151 -0.5492664273 1.2790819240
-2.9123402910 -0.9253421261 1.2761536289
-3.0682075728 -1.3014417098 1.2711824310
-3.2240424397 -1.6775649023 1.2641919555
-3.3798452710 -2.0537114273 1.2552058272
-3.5356164461 -2.4298810087 1.2442476712
-3.6913563439 -2.8060733702 1.2313411127
-3.8470653440 -3.1822882357 1.2165097766
-4.0027438253 -3.5585253288 1.1997772881
-4.1583921674 -3.9347843735 1.1811672720
-4.3140107493 -4.3110650933 1.1607033536
-4.4695999503 -4.6873672122 1.1384091577
-4.6251601497 -5.0636904540 1.1143083094
-4.7806917267 -5.4400345424 1.0884244339
-4.9361950606 -5.8163992012 1.0607811561
-5.0916705306 -6.1927841541 1.0314021011
-5.2471185159 -6.5691891251 1.0003108938
-5.4025393958 -6.9456138378 0.9675311596
1.2138819615 7.9380571069 0.7757347138
1.0571476949 7.5625889764 0.8247722024
0.9004549451 7.1870906079 0.8712234124
0.7438033327 6.8115622777 0.9151119686
0.5871924787 6.4360042619 0.9564614961
0.4306220035 6.0604168368 0.9952956202
0.2740915282 5.6848002785 1.0316379656
0.1176006734 5.3091548634 1.0655121575
-0.0388509402 4.9334808676 1.0969418210
-0.1952636918 4.5577785673 1.1259505810
-0.3516379606 4.1820482386 1.1525620626
-0.5079741258 3.8062901580 1.1767998908
-0.6642725668 3.4305046016 1.1986876908
-0.8205336627 3.0546918456 1.2182490875
-0.9767577929 2.6788521661 1.2355077059
-1.1329453365 2.3029858396 1.2504871712
-1.2890966728 1.9270931421 1.2632111084
-1.4452121811 1.5511743498 1.2737031424
-1.6012922406 1.1752297391 1.2819868984
-1.7573372304 0.7992595859 1.2880860013
-1.9133475301 0.4232641668 1.2920240763
-2.0693235186 0.0472437577 1.2938247483
-2.2252655753 -0.3288013650 1.2935116425
-2.3811740794 -0.7048709251 1.2911083839
-2.5370494102 -1.0809646464 1.2866385974
-2.6928919468 -1.4570822528 1.2801259081
-2.8487020687 -1.8332234679 1.2715939411
-3.0044801550 -2.2093880155 1.2610663215
-3.1602265848 -2.5855756196 1.2485666742
-3.3159417376 -2.9617860038 1.2341186243
-3.4716259925 -3.3380188919 1.2177457968
-3.6272797289 -3.7142740077 1.1994718169
-3.7829033258 -4.0905510749 1.1793203094
-3.9384971627 -4.4668498175 1.1573148995
-4.0940616186 -4.8431699591 1.1334792123
-4.2495970729 -5.2195112235 1.1078368727
-4.4051039048 -5.5958733345 1.0804115058
-4.5605824936 -5.9722560160 1.0512267366
-4.7160332185 -6.3486589916 1.0203061902
-4.8714564587 -6.7250819851 0.9876734916
-5.0268525935 -7.1015247205 0.9533522658
1.5886616289 7.7828069199 0.8180656424
1.4319521075 7.4073207668 0.8655616396
1.2752841028 7.0318043756 0.9104713581
1.1186572355 6.6562580228 0.9528184230
0.9620711265 6.2806819844 0.9926264592
0.8055253965 5.9050765365 1.0299190918
0.6490196663 5.5294419556 1.0647199458
0.4925535564 5.1537785178 1.0970526464
0.3361266880 4.7780864993 1.1269408185
0.1797386815 4.4023661764 1.1544080871
0.0233891578 4.0266178251 1.1794780772
-0.1329222624 3.6508417219 1.2021744142
-0.2891959582 3.2750381428 1.2225207227
-0.4454323092 2.8992073641 1.2405406280
-0.6016316942 2.5233496621 1.2562577551
-0.7577944928 2.1474653128 1.2696957290
-0.9139210840 1.7715545927 1.2808781748
-1.0700118471 1.3956177777 1.2898287174
-1.2260671616 1.0196551442 1.2965709820
-1.3820874064 0.6436669686 1.3011285936
-1.5380729608 0.2676535267 1.3035251773
-1.6940242043 -0.1083849050 1.3037843579
-1.8499415158 -0.4844480503 1.3019297607
-2.0058252750 -0.8605356331 1.2979850106
-2.1616758606 -1.2366473771 1.2919737328
-2.3174936522 -1.6127830060 1.2839195521
-2.4732790290 -1.9889422438 1.2738460937
-2.6290323702 -2.3651248142 1.2617769827
-2.7847540550 -2.7413304409 1.2477358440
-2.9404444627 -3.1175588477 1.2317463027
-3.0961039725 -3.4938097584 1.2138319839
-3.2517329638 -3.8700828969 1.1940165126
-3.4073318156 -4.2463779867 1.1723235137
-3.5629009074 -4.6226947519 1.1487766125
-3.7184406182 -4.9990329162 1.1233994338
-3.8739513274 -5.3753922033 1.0962156028
-4.0294334142 -5.7517723370 1.0672487445
-4.1848872580 -6.1281730410 1.0365224839
-4.3403132378 -6.5045940393 1.0040604462
-4.4957117329 -6.8810350555 0.9698862562
-4.6510831226 -7.2574958135 0.9340235391
1.9635236149 7.6274967777 0.8552685593
1.8068388385 7.2519926020 0.9012230651
1.6501955788 6.8764581882 0.9445912922
1.4935934566 6.5008938126 0.9853968657
1.3370320927 6.1252997515 1.0236634106
1.1805111078 5.7496762811 1.0594145518
1.0240301226 5.3740236776 1.0926739145
0.8675887580 4.9983422170 1.1234651236
0.7111866345 4.6226321760 1.1518118043
0.5548233731 4.2468938303 1.1777375814
0.3984985946 3.8711274564 1.2012660803
0.2422119194 3.4953333305 1.2224209258
0.0859629687 3.1195117288 1.2412257429
-0.0702486371 2.7436629275 1.2577041569
-0.2264232772 2.3677872028 1.2718797926
-0.3825613306 1.9918848309 1.2837762751
-0.5386631768 1.6159560881 1.2934172295
-0.6947291949 1.2400012505 1.3008262807
-0.8507597641 0.8640205944 1.3060270539
-1.0067552639 0.4880143961 1.3090431741
-1.1627160733 0.1119829316 1.3098982664
-1.3186425716 -0.2640735227 1.3086159557
-1.4745351382 -0.6401546908 1.3052198670
-1.6303941521 -1.0162602962 1.2997336256
-1.7862199927 -1.3923900628 1.2921808563
-1.9420130392 -1.7685437145 1.2825851844
-2.0977736709 -2.1447209749 1.2709702346
-2.2535022670 -2.5209215679 1.2573596322
-2.4091992067 -2.8971452173 1.2417770021
-2.5648648693 -3.2733916467 1.2242459694
-2.7204996341 -3.6496605801 1.2047901592
-2.8761038802 -4.0259517412 1.1834331964
-3.0316779870 -4.4022648538 1.1601987063
-3.1872223336 -4.7785996416 1.1351103136
-3.3427372994 -5.1549558285 1.1081916436
-3.4982232636 -5.5313331382 1.0794663212
-3.6536806053 -5.9077312946 1.0489579715
-3.8091097039 -6.2841500213 1.0166902195
-3.9645109387 -6.6605890422 0.9826866903
-4.1198846887 -7.0370480811 0.9469710090
-4.2752313334 -7.4135268617 0.9095668005
2.3384675688 7.4721269355 0.8873652857
2.1818075376 7.0966047371 0.9317783002
2.0251890229 6.7210523007 0.9736050360
1.8686116458 6.3454699024 1.0128691181
1.7120750270 5.9698578187 1.0495941715
1.5555787872 5.5942163256 1.0838038213
1.3991225471 5.2185456994 1.1155216926
1.2427059275 4.8428462163 1.1447714103
1.0863285492 4.4671181526 1.1715765997
0.9299900329 4.0913617842 1.1959608855
0.7736899993 3.7155773877 1.2179478929
0.6174280694 3.3397652392 1.2375612470
0.4612038636 2.9639256148 1.2548245728
0.3050170029 2.5880587908 1.2697614954
0.1488671081 2.2121650434 1.2823956398
-0.0072462004 1.8362446490 1.2927506308
-0.1633233014 1.4602978834 1.3008500938
-0.3193645745 1.0843250233 1.3067176537
-0.4753703986 0.7083263444 1.3103769355
-0.6313411533 0.3323021235 1.3118515643
-0.7872772176 -0.0437473637 1.3111651651
-0.9431789708 -0.4198218407 1.3083413631
-1.0990467923 -0.7959210313 1.3034037832
-1.2548810611 -1.1720446594 1.2963760503
-1.4106821566 -1.5481924486 1.2872817896
-1.5664504581 -1.9243641229 1.2761446262
-1.7221863447 -2.3005594060 1.2629881851
-1.8778901957 -2.6767780216 1.2478360912
-2.0335623903 -3.0530196936 1.2307119698
-2.1892033079 -3.4292841458 1.2116394458
-2.3448133275 -3.8055711018 1.1906421441
-2.5003928285 -4.1818802856 1.1677436900
-2.6559421903 -4.5582114208 1.1429677084
-2.8114617918 -4.9345642313 1.1163378244
-2.9669520125 -5.3109384408 1.0878776630
-3.1224132315 -5.6873337732 1.0576108492
-3.2778458283 -6.0637499522 1.0255610082
-3.4332501817 -6.4401867016 0.9917517648
-3.5886266714 -6.8166437452 0.9562067442
-3.7439756763 -7.1931208067 0.9189495714
-3.8992975759 -7.5696176100 0.8800038716
2.7134931406 7.3166976484 0.9143776434
2.5568578543 6.9411574273 0.9572491665
2.4002640848 6.5655869682 0.9975344108
2.2437114529 6.1899865473 1.0352570015
2.0871995791 5.8143564411 1.0704405635
1.9307280843 5.4386969253 1.1031087220
1.7742965894 5.0630082764 1.1332851019
1.6179047149 4.6872907706 1.1609933283
1.4615520817 4.3115446842 1.1862570261
1.3052383105 3.9357702933 1.2090998206
1.1489630220 3.5599678742 1.2295453367
0.9927258371 3.1841377030 1.2476171994
0.8365263764 2.8082800559 1.2633390338
0.6803642608 2.4323952092 1.2767344649
0.5242391110 2.0564834392 1.2878271179
0.3681505477 1.6805450221 1.2966406177
0.2120981918 1.3045802339 1.3031985892
0.0560816638 0.9285893510 1.3075246577
-0.0998994153 0.5525726497 1.3096424482
-0.2558454249 0.1765304060 1.3095755856
-0.4117567441 -0.1995371038 1.3073476951
-0.5676337523 -0.5756296034 1.3029824016
-0.7234768286 -0.9517468167 1.2965033302
-0.8792863524 -1.3278884675 1.2879341060
-1.0350627028 -1.7040542794 1.2772983540
-1.1908062592 -2.0802439763 1.2646196992
-1.3465174007 -2.4564572820 1.2499217667
-1.5021965066 -2.8326939203 1.2332281814
-1.6578439561 -3.2089536149 1.2145625687
-1.8134601285 -3.5852360898 1.1939485532
-1.9690454032 -3.9615410685 1.1714097602
-2.1246001592 -4.3378682748 1.1469698147
-2.2801247757 -4.7142174328 1.1206523417
-2.4356196322 -5.0905882658 1.0924809663
-2.5910851078 -5.4669804980 1.0624793135
-2.7465215818 -5.8433938530 1.0306710084
-2.9019294333 -6.2198280547 0.9970796759
-3.0573090418 -6.5962828268 0.9617289412
-3.2126607863 -6.9727578930 0.9246424292
-3.3679850462 -7.3492529772 0.8858437651
-3.5232822007 -7.7257678031 0.8453565738
3.0885999799 7.1612091716 0.9363274534
2.9319894387 6.7856509278 0.9776574851
2.7754204143 6.4100624460 1.0164012381
2.6188925275 6.0344440025 1.0525823374
2.4624053988 5.6587958735 1.0862244080
2.3059586491 5.2831183351 1.1173510751
2.1495518992 4.9074116636 1.1459859636
1.9931847697 4.5316761352 1.1721526986
1.8368568816 4.1559120261 1.1958749052
1.6805678554 3.7801196126 1.2171762082
1.5243173121 3.4042991708 1.2360802329
1.3681048723 3.0284509769 1.2526106042
1.2119301568 2.6525753072 1.2667909473
1.0557927862 2.2766724380 1.2786448870
0.8996923815 1.9007426453 1.2881960486
0.7436285633 1.5247862055 1.2954680569
0.5876009525 1.1488033947 1.3004845371
0.4316091695 0.7727944891 1.3032691142
0.2756528356 0.3967597650 1.3038454133
0.1197315711 0.0206994987 1.3022370594
-0.0361550031 -0.3553860337 1.2984676774
-0.1920072662 -0.7314965560 1.2925608925
-0.3478255975 -1.1076317919 1.2845403299
-0.5036103761 -1.4837914653 1.2744296142
-0.6593619814 -1.8599752999 1.2622523708
-0.8150807927 -2.2361830195 1.2480322247
-0.9707671891 -2.6124143478 1.2317928008
-1.1264215500 -2.9886690088 1.2135577241
-1.2820442544 -3.3649467261 1.1933506199
-1.4376356818 -3.7412472235 1.1711951131
-1.5931962113 -4.1175702248 1.1471148287
-1.7487262222 -4.4939154539 1.1211333918
-1.9042260937 -4.8702826344 1.0932744275
-2.0596962051 -5.2466714902 1.0635615607
-2.2151369356 -5.6230817450 1.0320184165
-2.3705486644 -5.9995131227 0.9986686199
-2.5259317710 -6.3759653470 0.9635357961
-2.6812866343 -6.7524381416 0.9266435700
-2.8366136338 -7.1289312306 0.8880155667
-2.9919131486 -7.5054443374 0.8476754111
-3.1471855579 -7.8819771860 0.8056467285
3.4637877364 7.0056617600 0.9532365374
3.3072019404 6.6300854936 0.9930250777
3.1506576611 6.2544789892 1.0302273394
2.9941545192 5.8788425230 1.0648669472
2.8376921356 5.5031763714 1.0969675265
2.6812701311 5.1274808104 1.1265527021
2.5248881262 4.7517561161 1.1536460993
2.3685457419 4.3760025651 1.1782713429
2.2122425989 4.0002204334 1.2004520581
2.0559783178 3.6244099972 1.2202118697
1.8997525196 3.2485715327 1.2375744030
1.7435648248 2.8727053162 1.2525632830
1.5874148543 2.4968116239 1.2652021346
1.4313022289 2.1208907320 1.2755145830
1.2752265691 1.7449429166 1.2835242531
1.1191874961 1.3689684541 1.2892547701
0.9631846303 0.9929676207 1.2927297589
0.8072175926 0.6169406926 1.2939728447
0.6512860036 0.2408879459 1.2930076524
0.4953894843 -0.1351903432 1.2898578070
0.3395276551 -0.5112938982 1.2845469337
0.1837001371 -0.8874224431 1.2770986575
0.0279065510 -1.2635757018 1.2675366033
-0.1278534826 -1.6397533978 1.2558843963
-0.2835803429 -2.0159552550 1.2421656616
-0.4392744091 -2.3921809972 1.2264040239
-0.5949360603 -2.7684303483 1.2086231087
-0.7505656762 -3.1447030318 1.1888465407
-0.9061636355 -3.5209987718 1.1670979451
-1.0617303178 -3.8973172919 1.1434009469
-1.2172661022 -4.2736583159 1.1177791711
-1.3727713680 -4.6500215675 1.0902562429
-1.5282464945 -5.0264067707 1.0608557871
-1.6836918607 -5.4028136491 1.0296014289
-1.8391078462 -5.7792419266 0.9965167933
-1.9944948300 -6.1556913270 0.9616255054
-2.1498531914 -6.5321615740 0.9249511902
-2.3051833096 -6.9086523913 0.8865174727
-2.4604855640 -7.2851635028 0.8463479780
-2.6157603337 -7.6616946323 0.8044663310
-2.7710079980 -8.0382455035 0.7608961571
3.8390560599 6.8500556689 0.9651267166
3.6824950089 6.4744613800 1.0033737655
3.5259754746 6.0988368529 1.0390345358
3.3694970779 5.7231823641 1.0721326523
3.2130594395 5.3474981897 1.1026917402
3.0566621799 4.9717846060 1.1307354245
2.9003049202 4.5960418893 1.1562873302
2.7439872809 4.2202703155 1.1793710825
2.5877088829 3.8444701612 1.2000103062
2.4314693470 3.4686417023 1.2182286265
2.2752682938 3.0927852152 1.2340496684
2.1191053441 2.7169009760 1.2474970570
1.9629801188 2.3409892610 1.2585944172
1.8068922385 1.9650503464 1.2673653742
1.6508413238 1.5890845085 1.2738335531
1.4948269958 1.2130920234 1.2780225787
1.3388488751 0.8370731673 1.2799560761
1.1829065824 0.4610282164 1.2796576704
1.0269997386 0.0849574471 1.2771509867
0.8711279643 -0.2911388645 1.2724596500
0.7152908803 -0.6672604423 1.2656072853
0.5594881074 -1.0434070099 1.2566175176
0.4037192663 -1.4195782911 1.2455139721
0.2479839778 -1.7957740098 1.2323202737
0.0922818626 -2.1719938897 1.2170600476
-0.0633874584 -2.5482376545 1.1997569186
-0.2190243647 -2.9245050282 1.1804345119
-0.3746292354 -3.3007957344 1.1591164526
-0.5302024497 -3.6771094970 1.1358263656
-0.6857443869 -4.0534460398 1.1105878760
-0.8412554262 -4.4298050864 1.0834246088
-0.9967359469 -4.8061863607 1.0543601892
-1.1521863282 -5.1825895866 1.0234182420
-1.3076069494 -5.5590144877 0.9906223925
-1.4629981898 -5.9354607878 0.9559962655
-1.6183604285 -6.3119282109 0.9195634862
-1.7736940448 -6.6884164804 0.8813476796
-1.9289994181 -7.0649253204 0.8413724707
-2.0842769273 -7.4414544546 0.7996614846
-2.2395269519 -7.8180036067 0.7562383463
-2.3947498711 -8.1945725006 0.7111266808
4.2144045999 6.6943911535 0.9720198126
4.0578682940 6.3187788418 1.0087253702
3.9013735049 5.9431362922 1.0428446490
3.7449198532 5.5674637807 1.0744012741
3.5885069598 5.1917615837 1.1034188707
3.4321344454 4.8160299774 1.1299210635
3.2758019307 4.4402692379 1.1539314779
3.1195090366 4.0644796416 1.1754737388
2.9632553837 3.6886614646 1.1945714712
2.8070405928 3.3128149830 1.2112483000
2.6508642847 2.9369404732 1.2255278506
2.4947260802 2.5610382114 1.2374337477
2.3386255999 2.1851084737 1.2469896166
2.1825624646 1.8091515366 1.2542190822
2.0265362952 1.4331676760 1.2591457696
1.8705467122 1.0571571682 1.2617933038
1.7145933366 0.6811202895 1.2621853099
1.5586757890 0.3050573159 1.2603454129
1.4027936902 -0.0710314760 1.2562972377
1.2469466610 -0.4471458103 1.2500644096
1.0911343221 -0.8232854107 1.2416705536
0.9353562943 -1.1994500009 1.2311392945
0.7796121983 -1.5756393048 1.2184942576
0.6239016549 -1.9518530461 1.2037590679
0.4682242848 -2.3280909486 1.1869573503
0.3125797087 -2.7043527362 1.1681127300
0.1569675476 -3.0806381326 1.1472488318
0.0013874221 -3.4569468615 1.1243892812
-0.1541610472 -3.8332786467 1.0995577028
-0.3096782392 -4.2096332121 1.0727777218
-0.4651645335 -4.5860102814 1.0440729633
-0.6206203091 -4.9624095784 1.0134670522
-0.7760459455 -5.3388308269 0.9809836137
-0.9314418215 -5.7152737505 0.9466462727
-1.0868083168 -6.0917380733 0.9104786544
-1.2421458104 -6.4682235190 0.8725043837
-1.3974546816 -6.8447298112 0.8327470857
-1.5527353098 -7.2212566739 0.7912303855
-1.7079880739 -7.5978038307 0.7479779079
-1.8632133535 -7.9743710054 0.7030132783
-2.0184115277 -8.3509579220 0.6563601215
4.5898330063 6.5386684688 0.9739376467
4.4333214456 6.1630381345 1.0091017128
4.2768514015 5.7873775622 1.0416795004
4.1204224949 5.4116870281 1.0716946341
3.9640343466 5.0359668085 1.0991707392
3.8076865773 4.6602171794 1.1241314407
3.6513788077 4.2844384173 1.1466003637
3.4951106587 3.9086307983 1.1666011331
3.3388817509 3.5327945987 1.1841573741
3.1826917050 3.1569300945 1.1992927116
3.0265401420 2.7810375621 1.2120307709
2.8704266825 2.4051172776 1.2223951766
2.7143509473 2.0291695173 1.2304095541
2.5583125571 1.6531945574 1.2360975283
2.4023111328 1.2771926742 1.2394827243
2.2463462949 0.9011641437 1.2405887672
2.0904176644 0.5251092423 1.2394392818
1.9345248619 0.1490282463 1.2360578934
1.7786675082 -0.2270785684 1.2304682269
1.6228452241 -0.6032109254 1.2226939074
1.4670576302 -0.9793685484 1.2127585600
1.3113043475 -1.3555511613 1.2006858096
1.1555849966 -1.7317584878 1.1864992812
0.9998991983 -2.1079902518 1.1702226001
0.8442465733 -2.4842461770 1.1518793911
0.6886267423 -2.8605259872 1.1314932795
0.5330393262 -3.2368294061 1.1090878900
0.3774839458 -3.6131561577 1.0846868479
0.2219602216 -3.9895059656 1.0583137781
0.0664677747 -4.3658785536 1.0299923057
-0.0889937745 -4.7422736456 0.9997460558
-0.2444248051 -5.1186909652 0.9675986533
-0.3998256963 -5.4951302364 0.9335737235
-0.5551968273 -5.8715911827 0.8976948911
-0.7105385775 -6.2480735282 0.8599857814
-0.8658513259 -6.6245769965 0.8204700194
-1.0211354521 -7.0011013114 0.7791712299
-1.1763913351 -7.3776461967 0.7361130383
-1.3316193543 -7.7542113761 0.6913190695
-1.4868198887 -8.1307965735 0.6448129484
-1.6419933178 -8.5074015127 0.5966183002
4.9653409288 6.3828878700 0.9709020404
4.8088541131 6.0072395130 1.0045246152
4.6524088141 5.6315609181 1.0355609112
4.4960046527 5.2558523613 1.0640345536
4.3396412494 4.8801141190 1.0899691673
4.1833182252 4.5043464674 1.1133883775
4.0270352007 4.1285496826 1.1343158090
3.8707917967 3.7527240410 1.1527750871
3.7145876340 3.3768698186 1.1687898366
3.5584223333 3.0009872918 1.1823836828
3.4022955154 2.6250767367 1.1935802506
3.2462068009 2.2491384296 1.2024031650
3.0901558108 1.8731726467 1.2088760511
2.9341421658 1.4971796641 1.2130225339
2.7781654865 1.1211597583 1.2148662386
2.6222253937 0.7451132051 1.2144307900
2.4663215082 0.3690402811 1.2117398132
2.3104534508 -0.0070587376 1.2068169335
2.1546208422 -0.3831835749 1.1996857756
1.9988233031 -0.7593339545 1.1903699648
1.8430604544 -1.1355096002 1.1788931259
1.6873319168 -1.5117102358 1.1652788841
1.5316373110 -1.8879355849 1.1495508644
1.3759762577 -2.2641853715 1.1317326919
1.2203483778 -2.6404593194 1.1118479915
1.0647532920 -3.0167571523 1.0899203884
0.9091906209 -3.3930785939 1.0659735076
0.7536599855 -3.7694233681 1.0400309741
0.5981610065 -4.1457911986 1.0121164129
0.4426933046 -4.5221818092 0.9822534493
0.2872565006 -4.8985949239 0.9504657079
0.1318502151 -5.2750302662 0.9167768141
-0.0235259310 -5.6514875599 0.8812103928
-0.1788723170 -6.0279665290 0.8437900691
-0.3341893221 -6.4044668971 0.8045394679
-0.4894773255 -6.7809883880 0.7634822145
-0.6447367066 -7.1575307256 0.7206419337
-0.7999678445 -7.5340936334 0.6760422507
-0.9551711185 -7.9106768357 0.6297067904
-1.1103469079 -8.2872800557 0.5816591780
-1.2654955919 -8.6639030176 0.5319230384
5.3409280171 6.2270496123 0.9629348149
5.1844659464 5.8513832326 0.9950158983
5.0280453925 5.4756866150 1.0245107030
4.8716659762 5.0999600356 1.0514428540
4.7153273180 4.7242037706 1.0758359764
4.5590290389 4.3484180963 1.0977136952
4.4027707594 3.9726032889 1.1170996353
4.2465521005 3.5967596246 1.1340174220
4.0903726829 3.2208873797 1.1484906802
3.9342321274 2.8449868301 1.1605430349
3.7781300545 2.4690582524 1.1701981113
3.6220660852 2.0931019226 1.1774795343
3.4660398401 1.7171181171 1.1824109291
3.3100509401 1.3411071119 1.1850159205
3.1540990058 0.9650691834 1.1853181338
2.9981836582 0.5890046076 1.1833411938
2.8423045178 0.2129136609 1.1791087257
2.6864612055 -0.1632033805 1.1726443545
2.5306533420 -0.5393462404 1.1639717053
2.3748805480 -0.9155146427 1.1531144030
2.2191424444 -1.2917083110 1.1400960728
2.0634386518 -1.6679269692 1.1249403396
1.9077687910 -2.0441703410 1.1076708285
1.7521324829 -2.4204381504 1.0883111645
1.5965293481 -2.7967301208 1.0668849728
1.4409590073 -3.1730459763 1.0434158783
1.2854210814 -3.5493854406 1.0179275062
1.1299151912 -3.9257482375 0.9904434813
0.9744409572 -4.3021340906 0.9609874288
0.8189980003 -4.6785427240 0.9295829736
0.6635859414 -5.0549738612 0.8962537409
0.5082044010 -5.4314272261 0.8610233557
0.3528530000 -5.8079025425 0.8239154431
0.1975313591 -6.1843995343 0.7849536279
0.0422390991 -6.5609179250 0.7441615354
-0.1130241593 -6.9374574386 0.7015627906
-0.2682587953 -7.3140177988 0.6571810184
-0.4234651881 -7.6905987294 0.6110398440
-0.5786437170 -8.0671999541 0.5631628924
-0.7337947613 -8.4438211969 0.5135737886
-0.8889187002 -8.8204621813 0.4622961575
5.7165939208 6.0711539505 0.9500577918
5.5601565952 5.6954695483 0.9805973838
5.4037607865 5.3197549080 1.0085506971
5.2474061151 4.9440103060 1.0339413568
5.0910922020 4.5682360184 1.0567929877
4.9348186680 4.1924323214 1.0771292151
4.7785851336 3.8165994914 1.0949736639
4.6223912198 3.4407378044 1.1103499592
4.4662365473 3.0648475367 1.1232817260
4.3101207368 2.6889289646 1.1337925894
4.1540434090 2.3129823643 1.1419061744
3.9980041848 1.9370080119 1.1476461060
3.8420026848 1.5610061836 1.1510360094
3.6860385299 1.1849771558 1.1520995095
3.5301113408 0.8089212046 1.1508602312
3.3742207382 0.4328386062 1.1473418000
3.2183663429 0.0567296368 1.1415678404
3.0625477757 -0.3194054272 1.1335619779
2.9067646573 -0.6955663098 1.1233478372
2.7510166084 -1.0717527348 1.1109490436
2.5953032498 -1.4479644257 1.0963892220
2.4396242024 -1.8242011065 1.0796919974
2.2839790867 -2.2004625010 1.0608809949
2.1283675236 -2.5767483329 1.0399798397
1.9727891339 -2.9530583261 1.0170121566
1.8172435382 -3.3293922042 0.9920015707
1.6617303574 -3.7057496912 0.9649717071
1.5062492122 -4.0821305107 0.9359461908
1.3507997233 -4.4585343865 0.9049486468
1.1953815115 -4.8349610425 0.8720027004
1.0399941976 -5.2114102023 0.8371319763
0.8846374023 -5.5878815900 0.8003600997
0.7293107464 -5.9643749291 0.7617106957
0.5740138506 -6.3408899434 0.7212073891
0.4187463357 -6.7174263568 0.6788738052
0.2635078224 -7.0939838930 0.6347335690
0.1082979315 -7.4705622759 0.5888103055
-0.0468837162 -7.8471612291 0.5411276397
-0.2020375001 -8.2237804766 0.4917091966
-0.3571637992 -8.6004197419 0.4405786014
-0.5122629931 -8.9770787490 0.3877594790
6.0923382897 5.9152011402 0.9322927925
5.9359257092 5.5394987152 0.9612908932
5.7795546455 5.1637660523 0.9877027150
5.6232247192 4.7880034276 1.0115518833
5.4669355513 4.4122111173 1.0328620229
5.3106867623 4.0363893978 1.0516567588
5.1544779731 3.6605385451 1.0679597163
4.9983088044 3.2846588355 1.0817945202
4.8421788769 2.9087505451 1.0931847957
4.6860878115 2.5328139504 1.1021541676
4.5300352288 2.1568493274 1.1087262612
4.3740207496 1.7808569523 1.1129247015
4.2180439948 1.4048371014 1.1147731134
4.0621045849 1.0287900510 1.1142951222
3.9062021409 0.6527160771 1.1115143526
3.7503362834 0.2766154560 1.1064544298
3.5945066332 -0.0995115360 1.0991389789
3.4387128111 -0.4756646227 1.0895916250
3.2829544377 -0.8518435279 1.0778359930
3.1272311338 -1.2280479754 1.0638957079
2.9715425204 -1.6042776891 1.0477943949
2.8158882180 -1.9805323926 1.0295556790
2.6602678475 -2.3568118097 1.0092031852
2.5046810294 -2.7331156643 0.9867605385
2.3491273848 -3.1094436801 0.9622513640
2.1936065343 -3.4857955809 0.9356992868
2.0381180985 -3.8621710905 0.9071279318
1.8826616984 -4.2385699327 0.8765609241
1.7272369546 -4.6149918312 0.8440218888
1.5718434879 -4.9914365098 0.8095344508
1.4164809191 -5.3679036923 0.7731222354
1.2611488689 -5.7443931025 0.7348088675
1.1058469581 -6.1209044643 0.6946179720
0.9505748073 -6.4974375012 0.6525731741
0.7953320375 -6.8739919373 0.6086980988
0.6401182694 -7.2505674962 0.5630163712
0.4849331235 -7.6271639017 0.5155516163
0.3297762208 -8.0037808776 0.4663274590
0.1746471821 -8.3804181476 0.4153675247
0.0195456280 -8.7570754357 0.3626954381
-0.1355288208 -9.1337524655 0.3083348243
6.4681607734 5.7591914362 0.9096616383
6.3117729380 5.3834709885 0.9371182476
6.1554266194 5.0077203030 0.9619885781
5.9991214383 4.6319396557 0.9842962550
5.8428570154 4.2561293227 1.0040649031
5.6866329715 3.8802895805 1.0213181478
5.5304489273 3.5044207052 1.0360796138
5.3743045037 3.1285229729 1.0483729263
5.2181993213 2.7525966599 1.0582217104
5.0621330010 2.3766420425 1.0656495910
4.9061051634 2.0006593968 1.0706801932
4.7501154293 1.6246489991 1.0733371421
4.5941634195 1.2486111255 1.0736440627
4.4382487548 0.8725460525 1.0716245800
4.2823710559 0.4964540560 1.0673023190
4.1265299434 0.1203354122 1.0607009049
3.9707250383 -0.2558096024 1.0518439626
3.8149559613 -0.6319807117 1.0407551173
3.6592223330 -1.0081776397 1.0274579939
3.5035237743 -1.3844001098 1.0119762175
3.3478599059 -1.7606478461 0.9943334131
3.1922303486 -2.1369205723 0.9745532058
3.0366347231 -2.5132180120 0.9526592206
2.8810726502 -2.8895398893 0.9286750825
2.7255437506 -3.2658859277 0.9026244166
2.5700476451 -3.6422558512 0.8745308479
2.4145839545 -4.0186493834 0.8444180016
2.2591522994 -4.3950662482 0.8123095025
2.1037523008 -4.7715061693 0.7782289758
1.9483835791 -5.1479688707 0.7422000465
1.7930457554 -5.5244540758 0.7042463397
1.6377384503 -5.9009615087 0.6643914804
1.4824612846 -6.2774908931 0.6226590935
1.3272138789 -6.6540419527 0.5790728042
1.1719958542 -7.0306144115 0.5336562376
1.0168068311 -7.4072079930 0.4864330185
0.8616464304 -7.7838224211 0.4374267722
0.7065142728 -8.1604574197 0.3866611237
0.5514099791 -8.5371127124 0.3341596979
0.3963331701 -8.9137880231 0.2799461199
0.2412834665 -9.2904830755 0.2240440148
6.8440610217 5.6031250936 0.8821861508
6.6876979315 5.2273866234 0.9081012687
6.5313763580 4.8516179152 0.9314301077
6.3750959219 4.4758192452 0.9521962932
6.2188562441 4.0999908896 0.9704234500
6.0626569453 3.7241331247 0.9861352032
5.9064976462 3.3482462267 0.9993551779
5.7503779676 2.9723304718 1.0101069991
5.5942975304 2.5963861362 1.0184142917
5.4382559551 2.2204134962 1.0243006810
5.2822528626 1.8444128279 1.0277897918
5.1262878736 1.4683844075 1.0289052492
4.9703606089 1.0923285113 1.0276706784
4.8144706893 0.7162454155 1.0241097043
4.6586177354 0.3401353963 1.0182459521
4.5028013681 -0.0360012700 1.0101030465
4.3470212081 -0.4121643072 0.9997046129
4.1912768760 -0.7883534393 0.9870742762
4.0355679929 -1.1645683898 0.9722356615
3.8798941793 -1.5408088827 0.9552123936
3.7242550560 -1.9170746416 0.9360280978
3.5686502438 -2.2933653904 0.9147063991
3.4130793633 -2.6696808529 0.8912709225
3.2575420355 -3.0460207527 0.8657452930
3.1020378811 -3.4223848139 0.8381531358
2.9465665206 -3.7987727599 0.8085180757
2.7911275751 -4.1751843148 0.7768637380
2.6357206651 -4.5516192023 0.7432137476
